1.52867 1.5165 1.52942 1.52453 1.52566 1.51834 1.51959 1.52636 1.51427 1.52007 1.52639 1.51796 1.51963 1.52208 1.52306 1.52483 1.51714 1.5145 1.51865 1.49956 1.41467 1.28494 1.23217 1.22386 1.21952 1.23362 1.28995 1.47961 1.51196 1.37359 1.08164 0.961261 0.923625 0.904255 0.900003 0.892793 0.888469 0.885577 0.885294 0.886162 0.880545 0.881658 0.883929 0.883236 0.8837 0.883258 0.880727 0.882606 0.8821 0.0 0.0 0.889649 0.890552 0.89114 0.0 0.880967 0.880007 0.894202 0.0 0.0 0.89952 0.0 0.0 0.0 0.0 0.907566 0.0 0.0 0.0 0.0 0.0 0.0 0.0 0.0 0.0 0.0 0.0 0.0 0.0 0.0 0.0 0.0 0.0 0.0 0.0 0.0 0.0 0.0 0.0 0.0 0.0 0.0 0.0 0.0 0.0 0.0 0.0 0.0 0.0 0.0 0.0 0.0 0.0 0.879528 0.875397 0.874245 0.873079 0.876085 0.876382 0.879352 0.873937 0.871497 0.87382 0.87493 0.873934 0.873519 0.873384 0.871744 0.872172 0.873474 0.871783 0.873941 0.874889 0.871959 0.876728 0.879396 0.882041 0.882295 0.881937 0.883038 0.887366 0.88665 0.893286 0.895765 0.903812 0.916822 0.933019 0.959438 1.05148 1.0771 1.12108 1.46642 1.53467 1.53298 1.52834 1.52629 1.52884 1.52322 1.52394 1.51882 1.52205 1.52118 1.51305 1.5193 1.51253 1.51693 1.51581 1.5112 1.51084 1.51956 1.51422 1.50941 1.51137 1.49681 1.49385 1.24322 1.13114 1.12446 1.11045 1.10934 1.10566 1.09468 1.09679 1.08576 1.0811 1.07585
1.51139 1.51497 1.51405 1.5086 1.51139 1.51661 1.50753 1.5059 1.50923 1.51082 1.51403 1.51549 1.51349 1.51765 1.51154 1.51331 1.51473 1.51439 1.50912 1.51666 1.46284 1.32443 1.24764 1.22095 1.21432 1.22032 1.23439 1.27566 1.46448 1.50751 1.40043 1.09124 0.961505 0.916844 0.908822 0.897544 0.894697 0.881866 0.879242 0.880695 0.880953 0.877369 0.879639 0.879242 0.879706 0.878086 0.879983 0.880387 0.881362 0.0 0.882071 0.883286 0.0 0.0 0.0 0.883812 0.875727 0.885154 0.0 0.0 0.0 0.896567 0.0 0.896221 0.0 0.0 0.0 0.0 0.0 0.0 0.0 0.0 0.0 0.0 0.0 0.0 0.0 0.0 0.0 0.0 0.0 0.0 0.0 0.0 0.0 0.0 0.0 0.0 0.0 0.0 0.0 0.0 0.0 0.0 0.0 0.0 0.86809 0.0 0.0 0.0 0.0 0.875979 0.874873 0.871359 0.873814 0.871766 0.868805 0.873901 0.871209 0.872684 0.871156 0.870508 0.87044 0.871847 0.872044 0.871628 0.87179 0.866875 0.871468 0.870388 0.86959 0.869071 0.872096 0.87332 0.876598 0.875707 0.880421 0.880377 0.882382 0.883478 0.882781 0.885603 0.895767 0.895882 0.910683 0.92808 0.954818 1.03927 1.07723 1.10953 1.42893 1.53466 1.52892 1.51877 1.51531 1.52286 1.52047 1.52094 1.5147 1.51711 1.51368 1.51165 1.51333 1.51409 1.51422 1.51056 1.51087 1.51198 1.50903 1.50746 1.50071 1.49705 1.49788 1.49921 1.44417 1.18655 1.13189 1.1238 1.12101 1.11231 1.10945 1.10543 1.09831 1.09339 1.08731 1.08231
1.50567 1.49932 1.50254 1.5068 1.50877 1.50286 1.503 1.50585 1.50808 1.51052 1.49602 1.50141 1.5141 1.50695 1.50935 1.5063 1.5009 1.51594 1.50585 1.50653 1.48168 1.38129 1.28429 1.23239 1.21743 1.21451 1.21991 1.22615 1.26595 1.43565 1.49458 1.4098 1.11767 0.969571 0.917893 0.903431 0.8968 0.888376 0.883716 0.885764 0.878699 0.876002 0.873278 0.878468 0.876286 0.873196 0.882463 0.87638 0.880013 0.877425 0.0 0.87928 0.880773 0.884323 0.0 0.0 0.0 0.877882 0.0 0.0 0.0 0.0 0.891796 0.889528 0.0 0.0 0.0 0.0 0.0 0.0 0.0 0.0 0.0 0.0 0.0 0.0 0.0 0.0 0.89673 0.0 0.0 0.0 0.0 0.0 0.0 0.0 0.0 0.0 0.0 0.0 0.0 0.0 0.0 0.898844 0.0 0.0 0.0 0.0 0.0 0.0 0.872178 0.868097 0.86819 0.867968 0.868628 0.869868 0.864818 0.867521 0.865428 0.868992 0.864779 0.870694 0.869134 0.868154 0.865968 0.865552 0.866608 0.866456 0.863314 0.867585 0.868864 0.869234 0.870178 0.871695 0.872007 0.871115 0.875234 0.88051 0.877193 0.881535 0.885554 0.889546 0.895572 0.909214 0.924279 0.950453 1.03317 1.07732 1.09851 1.38845 1.5302 1.52216 1.51322 1.51067 1.50982 1.51184 1.51062 1.50732 1.5063 1.51102 1.50874 1.51018 1.50694 1.50482 1.50208 1.49986 1.50676 1.49414 1.50633 1.49734 1.5034 1.49887 1.494 1.48003 1.34003 1.1576 1.11824 1.13236 1.12311 1.12082 1.11263 1.10748 1.10174 1.09624 1.08988 1.08099
1.50404 1.50764 1.49045 1.4922 1.49472 1.49911 1.49284 1.49821 1.49736 1.50064 1.49347 1.49492 1.50055 1.50132 1.50259 1.49672 1.49985 1.50037 1.49798 1.4958 1.48813 1.438 1.34979 1.28168 1.22828 1.213 1.21494 1.21627 1.21959 1.25356 1.42413 1.49377 1.43102 1.1624 0.973523 0.920363 0.896834 0.888423 0.884066 0.879383 0.877599 0.875495 0.875714 0.875029 0.876674 0.875357 0.873134 0.877372 0.872449 0.87311 0.87316 0.872304 0.0 0.0 0.879982 0.0 0.0 0.867041 0.867829 0.0 0.0 0.0 0.0 0.0 0.887392 0.0 0.886346 0.0 0.0 0.0 0.0 0.0 0.0 0.0 0.0 0.0 0.0 0.0 0.0 0.0 0.0 0.0 0.0 0.0 0.0 0.0 0.0 0.0 0.0 0.0 0.0 0.0 0.0 0.0 0.0 0.0 0.0 0.0 0.876884 0.86476 0.867575 0.867384 0.863591 0.864564 0.864028 0.867358 0.867386 0.866205 0.863814 0.861111 0.864654 0.864006 0.865725 0.862066 0.862263 0.861252 0.859334 0.865423 0.864658 0.86536 0.868416 0.869672 0.870612 0.868571 0.870953 0.8742 0.875059 0.879441 0.877304 0.881343 0.88506 0.892283 0.903885 0.919854 0.950454 1.03408 1.07326 1.09243 1.34702 1.52451 1.51038 1.50907 1.50218 1.50952 1.50838 1.50516 1.50567 1.49977 1.49759 1.50028 1.50233 1.50174 1.50398 1.49696 1.50082 1.49916 1.49489 1.49313 1.4899 1.49204 1.49723 1.48844 1.48584 1.47047 1.23522 1.14304 1.13889 1.13667 1.12067 1.12677 1.11661 1.11255 1.10151 1.0985 1.08797 1.08708
1.51335 1.49441 1.49793 1.48479 1.4812 1.4853 1.4899 1.48635 1.49081 1.49186 1.48834 1.48812 1.49036 1.48887 1.4975 1.49475 1.49137 1.49132 1.49292 1.49475 1.49739 1.47137 1.37558 1.3294 1.27096 1.22527 1.20447 1.20637 1.20997 1.20978 1.24228 1.39486 1.49203 1.44696 1.19458 0.992292 0.919296 0.900123 0.888775 0.883814 0.87765 0.87526 0.874896 0.871868 0.872926 0.871024 0.871157 0.872449 0.873721 0.875271 0.0 0.872408 0.875379 0.876263 0.878314 0.0 0.0 0.878735 0.860245 0.867842 0.0 0.0 0.0 0.0 0.0 0.0 0.884693 0.0 0.0 0.0 0.0 0.0 0.0 0.0 0.0 0.0 0.0 0.0 0.0 0.0 0.0 0.0 0.0 0.0 0.0 0.0 0.0 0.0 0.0 0.0 0.0 0.0 0.0 0.0 0.0 0.0 0.0 0.870316 0.863894 0.861045 0.859973 0.863965 0.864952 0.863236 0.862998 0.865727 0.86307 0.861293 0.86427 0.860078 0.859446 0.863563 0.860516 0.861025 0.863599 0.860209 0.863934 0.863778 0.862122 0.864304 0.86617 0.863573 0.866881 0.867799 0.870176 0.873417 0.872796 0.878352 0.877688 0.88113 0.887783 0.899111 0.915982 0.94484 1.03288 1.06887 1.08338 1.30905 1.52461 1.5105 1.50222 1.50004 1.50101 1.49904 1.49732 1.50048 1.50359 1.48929 1.49434 1.49356 1.49244 1.49156 1.48977 1.48822 1.49207 1.48526 1.48728 1.4918 1.48828 1.48698 1.4879 1.48167 1.47851 1.40581 1.18784 1.14959 1.14486 1.1356 1.13304 1.12178 1.11942 1.11173 1.10846 1.09794 1.09404 1.08623
1.50858 1.49271 1.49239 1.48148 1.4818 1.48508 1.48024 1.48366 1.48227 1.48416 1.48738 1.47931 1.48156 1.48571 1.48841 1.48539 1.4891 1.48594 1.48072 1.48226 1.48432 1.47004 1.42275 1.34516 1.29486 1.27168 1.22824 1.20367 1.20381 1.20535 1.20831 1.22862 1.36204 1.48413 1.45907 1.2404 1.00054 0.924024 0.896662 0.889675 0.881772 0.87471 0.874351 0.871037 0.870337 0.871377 0.86828 0.86663 0.867901 0.0 0.869799 0.871901 0.871623 0.866597 0.872488 0.0 0.0 0.0 0.0 0.86143 0.0 0.0 0.0 0.0 0.0 0.0 0.0 0.0 0.0 0.0 0.0 0.0 0.0 0.0 0.0 0.890034 0.0 0.0 0.0 0.0 0.888789 0.0 0.884532 0.0 0.0 0.0 0.884791 0.0 0.0 0.0 0.0 0.0 0.0 0.0 0.0 0.0 0.86432 0.861204 0.860462 0.0 0.860126 0.861128 0.862711 0.859505 0.858372 0.855733 0.857848 0.85637 0.856367 0.859622 0.858691 0.855068 0.857973 0.856103 0.859565 0.857959 0.858415 0.85826 0.861645 0.861453 0.865981 0.86575 0.866389 0.865826 0.865539 0.869367 0.871401 0.875769 0.87805 0.88531 0.894302 0.909723 0.933905 1.03194 1.07264 1.07282 1.2678 1.51178 1.50385 1.50174 1.49404 1.49273 1.48963 1.48999 1.49522 1.48997 1.4899 1.49585 1.49395 1.48565 1.48972 1.48998 1.4876 1.48805 1.48272 1.4865 1.4825 1.48017 1.47722 1.47564 1.47174 1.47911 1.46859 1.30288 1.16644 1.14484 1.14768 1.13505 1.1322 1.12986 1.12719 1.11893 1.10814 1.10757 1.10143 1.09608
1.5076 1.49178 1.48267 1.47289 1.47929 1.47677 1.48277 1.48204 1.47621 1.47391 1.48274 1.47693 1.47076 1.48139 1.48183 1.48561 1.47829 1.47627 1.47731 1.48114 1.47694 1.48066 1.45375 1.34711 1.30032 1.2858 1.27234 1.22886 1.19877 1.19137 1.19548 1.19608 1.22678 1.33177 1.46077 1.45949 1.27832 1.01049 0.932506 0.904841 0.88674 0.88028 0.876126 0.869599 0.868903 0.869945 0.863331 0.865504 0.866483 0.864499 0.868091 0.860463 0.864903 0.0 0.865469 0.0 0.871583 0.872101 0.869937 0.860047 0.861098 0.0 0.0 0.0 0.0 0.0 0.0 0.0 0.0 0.0 0.880844 0.0 0.0 0.0 0.0 0.0 0.0 0.0 0.0 0.0 0.0 0.0 0.0 0.0 0.0 0.0 0.0 0.0 0.0 0.0 0.0 0.0 0.0 0.0 0.0 0.858598 0.856992 0.861339 0.86 0.857154 0.857873 0.857681 0.856877 0.856654 0.854628 0.853778 0.0 0.852627 0.855598 0.851413 0.856431 0.851324 0.856008 0.853544 0.854628 0.854803 0.861188 0.858065 0.857594 0.86125 0.859262 0.865537 0.861739 0.865015 0.866202 0.869432 0.869692 0.876409 0.880449 0.891518 0.905487 0.933796 1.02158 1.06552 1.0669 1.23529 1.50415 1.49539 1.49535 1.48741 1.49195 1.49005 1.49102 1.49338 1.4844 1.48408 1.48342 1.48301 1.47823 1.48896 1.48724 1.47285 1.48224 1.47323 1.48221 1.48112 1.4794 1.46852 1.46841 1.47336 1.46633 1.46831 1.43692 1.22721 1.16052 1.15466 1.1513 1.14426 1.13663 1.13204 1.1288 1.11553 1.11166 1.105 1.1016 1.10036
1.49973 1.47955 1.47128 1.46812 1.4737 1.46705 1.4711 1.46314 1.46092 1.47202 1.46519 1.46582 1.47594 1.47477 1.46395 1.46743 1.46802 1.47082 1.47414 1.46916 1.47493 1.47211 1.46208 1.40421 1.32005 1.29009 1.29132 1.27496 1.22021 1.19094 1.18899 1.19162 1.19103 1.21185 1.3052 1.45942 1.45694 1.31444 1.03584 0.947657 0.901891 0.885523 0.874657 0.873702 0.862176 0.866149 0.865705 0.864064 0.86387 0.863361 0.861065 0.858451 0.862889 0.0 0.0 0.0 0.868095 0.0 0.0 0.0 0.856439 0.0 0.0 0.0 0.0 0.0 0.0 0.0 0.0 0.0 0.0 0.0 0.0 0.0 0.0 0.0 0.0 0.0 0.0 0.0 0.0 0.0 0.0 0.0 0.0 0.0 0.0 0.0 0.0 0.0 0.0 0.0 0.0 0.864865 0.858219 0.857524 0.854427 0.850124 0.855941 0.853098 0.849644 0.854816 0.854906 0.853789 0.854442 0.854782 0.853023 0.847681 0.850946 0.0 0.854155 0.0 0.851058 0.852454 0.854424 0.856375 0.852974 0.860811 0.860336 0.861322 0.859037 0.864713 0.860915 0.86743 0.866842 0.867707 0.869141 0.874378 0.888994 0.900629 0.925726 1.01235 1.06686 1.06065 1.21062 1.49618 1.49416 1.48249 1.48683 1.4786 1.48604 1.48763 1.47349 1.47963 1.47819 1.48509 1.47461 1.47419 1.47488 1.4715 1.47066 1.47493 1.46854 1.47185 1.46909 1.46344 1.46515 1.46793 1.46441 1.4614 1.45891 1.45749 1.36157 1.1922 1.163 1.16078 1.15403 1.14279 1.14128 1.1389 1.12369 1.1301 1.11845 1.109 1.10311 1.10404
1.48527 1.47688 1.46727 1.46661 1.46862 1.46006 1.45719 1.46228 1.46009 1.46366 1.46523 1.45777 1.45526 1.46531 1.47027 1.4718 1.46621 1.46534 1.46781 1.4691 1.46891 1.47407 1.46635 1.44199 1.3457 1.29405 1.29587 1.28644 1.27551 1.2259 1.18796 1.18915 1.18713 1.18651 1.20411 1.27422 1.45423 1.45928 1.35516 1.06785 0.951687 0.901239 0.886315 0.878359 0.868024 0.867316 0.861895 0.860257 0.861533 0.863085 0.858442 0.859365 0.856146 0.860271 0.0 0.859037 0.86341 0.0 0.0 0.0 0.0 0.854875 0.863892 0.0 0.0 0.0 0.0 0.0 0.0 0.0 0.0 0.0 0.0 0.0 0.0 0.0 0.0 0.0 0.0 0.0 0.0 0.0 0.0 0.0 0.0 0.0 0.0 0.0 0.0 0.0 0.0 0.0 0.0 0.853634 0.851762 0.851962 0.852741 0.0 0.852763 0.852602 0.853021 0.0 0.0 0.848528 0.845018 0.846548 0.850736 0.845991 0.850144 0.850715 0.849784 0.849728 0.851731 0.851344 0.853014 0.840451 0.852746 0.856727 0.857138 0.857826 0.861153 0.860621 0.86361 0.857439 0.86304 0.866847 0.874159 0.882321 0.895444 0.917915 0.989005 1.06523 1.05787 1.17567 1.48639 1.48441 1.47599 1.47628 1.47013 1.4686 1.47517 1.48052 1.47307 1.47224 1.46791 1.47422 1.46259 1.47802 1.4692 1.46524 1.4707 1.45891 1.46284 1.46413 1.46623 1.46085 1.46226 1.46617 1.45894 1.46244 1.45993 1.43706 1.27567 1.17916 1.1747 1.16124 1.15699 1.14351 1.14422 1.14375 1.13131 1.12384 1.11993 1.1135 1.11061 1.10273
1.47188 1.4635 1.46075 1.4634 1.46102 1.45137 1.45045 1.45527 1.45115 1.45723 1.44875 1.45387 1.45222 1.45779 1.45938 1.45809 1.45729 1.45248 1.45098 1.46501 1.46625 1.46346 1.45718 1.45282 1.3901 1.32486 1.29464 1.30073 1.30076 1.276 1.22578 1.18723 1.18291 1.18114 1.17673 1.19603 1.25131 1.43214 1.46388 1.3871 1.10768 0.964716 0.909598 0.881521 0.87179 0.865239 0.863341 0.856435 0.857125 0.862786 0.859328 0.85849 0.855278 0.858519 0.856737 0.856997 0.0 0.857166 0.861211 0.864059 0.0 0.855217 0.862453 0.0 0.0 0.0 0.0 0.0 0.0 0.0 0.0 0.0 0.0 0.0 0.0 0.87457 0.0 0.0 0.0 0.0 0.0 0.0 0.0 0.0 0.0 0.0 0.0 0.0 0.0 0.0 0.0 0.0 0.0 0.845976 0.847382 0.0 0.851633 0.845849 0.846001 0.847923 0.841203 0.84785 0.844075 0.84831 0.844207 0.84514 0.846353 0.843691 0.846355 0.846628 0.846588 0.845641 0.851493 0.848735 0.849218 0.850571 0.851609 0.855289 0.855106 0.859039 0.856458 0.859169 0.859206 0.86158 0.865991 0.87067 0.87356 0.88817 0.912712 0.977944 1.05769 1.05007 1.15326 1.47829 1.48015 1.47788 1.47412 1.46975 1.46709 1.46527 1.46834 1.46498 1.46854 1.468 1.46915 1.45785 1.46842 1.46799 1.4609 1.45809 1.45695 1.45376 1.46111 1.45411 1.45534 1.45652 1.45394 1.45159 1.44807 1.45467 1.44284 1.41043 1.22058 1.17229 1.17287 1.16836 1.16242 1.1531 1.14626 1.14106 1.14136 1.13137 1.12688 1.11657 1.11338 1.10111
1.4571 1.45283 1.44544 1.43655 1.44899 1.45258 1.43981 1.4449 1.44883 1.44909 1.44648 1.44771 1.45082 1.45024 1.44734 1.44914 1.4523 1.45512 1.45619 1.45494 1.46016 1.45226 1.46363 1.45702 1.42351 1.34956 1.30883 1.31322 1.3173 1.31818 1.28363 1.22648 1.18097 1.17113 1.17684 1.18281 1.19543 1.23125 1.39924 1.45592 1.41257 1.16463 0.97508 0.911498 0.88195 0.871035 0.864175 0.860211 0.856512 0.857772 0.85109 0.857007 0.857916 0.858807 0.856736 0.858178 0.854298 0.85924 0.0 0.0 0.0 0.85997 0.0 0.0 0.858259 0.0 0.0 0.0 0.0 0.0 0.0 0.0 0.0 0.0 0.0 0.0 0.0 0.0 0.0 0.0 0.0 0.0 0.0 0.0 0.0 0.0 0.0 0.0 0.0 0.0 0.845609 0.842002 0.845817 0.845749 0.845071 0.843484 0.845749 0.847105 0.842203 0.842934 0.846026 0.844347 0.847999 0.842726 0.84219 0.841934 0.840179 0.841374 0.0 0.844602 0.844561 0.849239 0.0 0.847293 0.852209 0.851487 0.847795 0.850879 0.855122 0.854035 0.856466 0.856225 0.858615 0.861865 0.865386 0.876225 0.881745 0.904542 0.96304 1.05686 1.04457 1.13432 1.45992 1.47874 1.47359 1.46928 1.46844 1.46581 1.45763 1.46451 1.46235 1.46015 1.45676 1.46113 1.46487 1.45818 1.46326 1.4611 1.44856 1.44603 1.45578 1.44972 1.45648 1.44862 1.45013 1.44817 1.45098 1.44919 1.44565 1.44348 1.43646 1.32811 1.19594 1.17465 1.17213 1.169 1.16221 1.15734 1.1466 1.14111 1.14166 1.13718 1.12661 1.12426 1.11309 1.10928
1.43851 1.43859 1.44022 1.44424 1.44133 1.4441 1.44211 1.44253 1.43373 1.4398 1.4411 1.44011 1.44015 1.44293 1.44341 1.44719 1.44698 1.44897 1.45005 1.44994 1.45799 1.45012 1.46319 1.45035 1.43741 1.37757 1.3278 1.31305 1.31886 1.32033 1.34331 1.29696 1.22164 1.181 1.17056 1.17624 1.17032 1.17856 1.21462 1.37268 1.45168 1.42489 1.22677 0.992104 0.917737 0.882926 0.865569 0.861907 0.855584 0.856554 0.853401 0.851396 0.853773 0.851138 0.852009 0.852273 0.0 0.855691 0.855607 0.0 0.0 0.0 0.0 0.854025 0.0 0.0 0.0 0.859365 0.0 0.0 0.0 0.0 0.0 0.0 0.0 0.0 0.0 0.0 0.0 0.0 0.0 0.0 0.0 0.0 0.0 0.0 0.0 0.0 0.0 0.841818 0.84031 0.845028 0.844975 0.841935 0.841258 0.84205 0.844014 0.841805 0.839877 0.840606 0.839242 0.842313 0.844478 0.841582 0.841638 0.845531 0.0 0.0 0.840513 0.84552 0.840445 0.844527 0.848293 0.848196 0.848082 0.849427 0.849868 0.847341 0.848631 0.852258 0.852918 0.85709 0.858297 0.862715 0.869457 0.875876 0.899859 0.953671 1.05686 1.04021 1.12294 1.45288 1.47465 1.46108 1.46206 1.46066 1.45865 1.45748 1.45365 1.46226 1.46038 1.45904 1.45709 1.45134 1.45162 1.45012 1.45433 1.45274 1.44652 1.45057 1.44284 1.44936 1.45124 1.45107 1.43863 1.43865 1.43806 1.44674 1.4367 1.4334 1.41231 1.25833 1.18926 1.18703 1.16995 1.16821 1.16531 1.1568 1.15243 1.1483 1.14468 1.13577 1.12547 1.12311 1.11932 1.11412
1.43268 1.43086 1.43059 1.43023 1.43555 1.43091 1.43526 1.42796 1.42718 1.43327 1.42846 1.43248 1.43504 1.43643 1.43552 1.43481 1.43685 1.43884 1.44471 1.44349 1.44333 1.45643 1.44994 1.45274 1.4407 1.4146 1.35039 1.32142 1.31378 1.33074 1.34712 1.38764 1.297 1.22827 1.18041 1.16762 1.16866 1.17313 1.17033 1.2023 1.32198 1.44621 1.41998 1.29 1.01607 0.92481 0.882407 0.865037 0.859313 0.852096 0.852169 0.852808 0.849908 0.850506 0.850792 0.851059 0.849837 0.853891 0.0 0.850764 0.0 0.847262 0.0 0.840434 0.84703 0.0 0.0 0.0 0.0 0.0 0.0 0.0 0.0 0.0 0.0 0.0 0.0 0.0 0.0 0.0 0.0 0.0 0.0 0.0 0.0 0.0 0.0 0.849865 0.839185 0.839476 0.840939 0.0 0.0 0.0 0.0 0.840596 0.840778 0.840054 0.838127 0.0 0.840456 0.830479 0.840645 0.0 0.837215 0.840215 0.839645 0.843794 0.839639 0.838725 0.0 0.842461 0.842087 0.0 0.0 0.846465 0.846903 0.848208 0.85067 0.850463 0.852296 0.852933 0.857662 0.86442 0.875256 0.890746 0.949836 1.04745 1.03434 1.10743 1.4344 1.46613 1.46134 1.4539 1.45196 1.45231 1.44565 1.4497 1.44907 1.44608 1.45346 1.44605 1.45247 1.44499 1.44699 1.44347 1.43619 1.44149 1.44358 1.44075 1.43988 1.44067 1.43173 1.43783 1.43477 1.43422 1.42965 1.43521 1.43138 1.42864 1.36934 1.22797 1.18761 1.18536 1.17833 1.17628 1.16918 1.16177 1.16042 1.15653 1.14268 1.14257 1.13637 1.12875 1.11975 1.11835
1.42707 1.42066 1.42584 1.41731 1.42398 1.4199 1.42507 1.42302 1.41867 1.42198 1.42801 1.42509 1.42321 1.43799 1.43822 1.43222 1.43484 1.43515 1.43962 1.43954 1.4442 1.44457 1.44857 1.44543 1.43284 1.43183 1.37545 1.33828 1.32526 1.3282 1.34571 1.40399 1.40547 1.32316 1.22909 1.17313 1.16724 1.16854 1.17269 1.16929 1.19253 1.28168 1.44156 1.43944 1.32462 1.05339 0.933299 0.886521 0.86447 0.856101 0.857059 0.848337 0.844856 0.849266 0.844861 0.846596 0.848608 0.850897 0.0 0.853073 0.853252 0.0 0.0 0.853387 0.839335 0.0 0.843324 0.0 0.0 0.0 0.0 0.0 0.0 0.0 0.0 0.0 0.0 0.0 0.0 0.0 0.0 0.0 0.0 0.0 0.0 0.0 0.0 0.839784 0.0 0.835931 0.833833 0.837948 0.837599 0.839013 0.838336 0.0 0.838416 0.0 0.837545 0.0 0.8375 0.837602 0.836503 0.833613 0.836035 0.0 0.836389 0.836393 0.83845 0.838421 0.841032 0.84333 0.841182 0.841968 0.847747 0.845253 0.843333 0.849638 0.847387 0.851882 0.849596 0.85522 0.861406 0.870202 0.887756 0.93191 1.0462 1.02902 1.10708 1.41733 1.45493 1.45396 1.44655 1.45047 1.4462 1.44916 1.44453 1.44828 1.4375 1.44434 1.43842 1.44055 1.44436 1.44322 1.43083 1.43651 1.44156 1.44225 1.42773 1.43776 1.43603 1.42769 1.42644 1.42486 1.43428 1.43598 1.428 1.42479 1.42998 1.41035 1.30033 1.20942 1.19458 1.18952 1.18832 1.179 1.17189 1.16114 1.15894 1.15642 1.14504 1.13805 1.13512 1.13106 1.13567 1.11843
1.41249 1.40826 1.41316 1.41391 1.4154 1.41983 1.41678 1.42079 1.4173 1.4151 1.42473 1.41351 1.42192 1.41552 1.42215 1.41896 1.42633 1.43535 1.43281 1.43414 1.43909 1.44371 1.44008 1.44687 1.43489 1.42793 1.40011 1.34536 1.32582 1.32419 1.34341 1.37812 1.42521 1.40542 1.32423 1.22928 1.18224 1.15757 1.16085 1.16295 1.16908 1.17779 1.24453 1.41304 1.43034 1.36644 1.11686 0.950198 0.881843 0.868247 0.859868 0.851164 0.843011 0.843612 0.844194 0.844758 0.0 0.843188 0.0 0.844478 0.0 0.0 0.0 0.0 0.846367 0.839381 0.843875 0.0 0.847804 0.0 0.0 0.0 0.0 0.0 0.0 0.0 0.0 0.0 0.0 0.0 0.0 0.0 0.0 0.0 0.0 0.842377 0.0 0.835036 0.835638 0.832076 0.837091 0.837646 0.837889 0.0 0.835069 0.834081 0.834261 0.831465 0.0 0.831156 0.832753 0.0 0.831165 0.830938 0.832174 0.831324 0.0 0.835779 0.837832 0.83603 0.837457 0.841225 0.0 0.844574 0.84681 0.845787 0.842101 0.843692 0.848789 0.84887 0.854801 0.860412 0.868341 0.886783 0.932106 1.03057 1.02337 1.09499 1.41042 1.45533 1.44623 1.43683 1.44775 1.43451 1.44244 1.44307 1.43004 1.44073 1.44008 1.43651 1.43578 1.43905 1.43104 1.43997 1.42844 1.43439 1.43197 1.42494 1.42615 1.42418 1.42929 1.42664 1.42481 1.4303 1.42524 1.41845 1.41586 1.41096 1.4108 1.3898 1.25221 1.20654 1.19758 1.19306 1.19629 1.17834 1.17565 1.16351 1.15991 1.15434 1.14928 1.1439 1.13466 1.13331 1.12836 1.12689
1.40358 1.39502 1.40073 1.40638 1.4076 1.41094 1.40324 1.4067 1.40541 1.40846 1.41117 1.41105 1.41364 1.41143 1.41417 1.41713 1.42563 1.42204 1.42344 1.42787 1.43422 1.42897 1.43128 1.42674 1.4261 1.42995 1.41386 1.36975 1.32889 1.33585 1.34307 1.36085 1.41677 1.42369 1.40214 1.33359 1.22942 1.18899 1.1594 1.15833 1.1604 1.15984 1.16881 1.212 1.38621 1.4299 1.38869 1.1817 0.966754 0.892588 0.867607 0.856295 0.850791 0.843212 0.842627 0.847001 0.841982 0.842804 0.0 0.84322 0.0 0.0 0.0 0.0 0.843059 0.840794 0.841161 0.838859 0.0 0.0 0.0 0.0 0.0 0.0 0.0 0.0 0.0 0.0 0.0 0.0 0.0 0.0 0.0 0.0 0.0 0.0 0.0 0.831459 0.834133 0.831463 0.834992 0.0 0.0 0.0 0.830309 0.829913 0.827431 0.0 0.0 0.830242 0.832132 0.832232 0.829952 0.0 0.830367 0.826565 0.0 0.836323 0.0 0.836863 0.0 0.839691 0.836072 0.0 0.842321 0.841299 0.0 0.843316 0.847229 0.849653 0.854401 0.868204 0.886653 0.934604 1.03304 1.02293 1.08638 1.40055 1.4478 1.43583 1.44043 1.43713 1.43381 1.43248 1.43024 1.43 1.43609 1.43432 1.4328 1.43038 1.43137 1.42599 1.43064 1.41916 1.42745 1.42536 1.4298 1.42676 1.42511 1.42255 1.42564 1.42328 1.42115 1.41982 1.4224 1.41617 1.41582 1.41147 1.40764 1.34572 1.23693 1.20922 1.20387 1.19292 1.18613 1.1854 1.1752 1.16692 1.16192 1.15881 1.14906 1.15271 1.13825 1.13468 1.13243 1.1312
1.40164 1.39475 1.39695 1.40016 1.3935 1.3971 1.38832 1.40137 1.40368 1.40619 1.40754 1.40578 1.40588 1.41313 1.40448 1.40688 1.40811 1.41264 1.41768 1.42155 1.42932 1.42155 1.42499 1.41764 1.42098 1.42341 1.41217 1.38578 1.35555 1.33689 1.34011 1.35903 1.39169 1.4221 1.42355 1.4126 1.34548 1.24015 1.18098 1.15598 1.1569 1.14738 1.15605 1.16354 1.19364 1.35266 1.42941 1.40534 1.24411 0.992288 0.905328 0.867807 0.855316 0.843956 0.843962 0.839852 0.84245 0.842104 0.840859 0.843112 0.839775 0.0 0.843022 0.0 0.844145 0.0 0.837842 0.835543 0.830575 0.0 0.0 0.0 0.0 0.0 0.0 0.0 0.0 0.0 0.0 0.0 0.0 0.0 0.0 0.0 0.0 0.0 0.0 0.829347 0.828765 0.830237 0.829919 0.0 0.829237 0.0 0.831743 0.830755 0.832707 0.0 0.0 0.830193 0.829127 0.0 0.0 0.0 0.0 0.834767 0.829477 0.0 0.0 0.832961 0.833498 0.835489 0.838637 0.838237 0.841345 0.840909 0.837813 0.847022 0.843011 0.858321 0.863931 0.885607 0.931797 1.03225 1.03005 1.08502 1.39179 1.4478 1.43324 1.43321 1.42936 1.43014 1.42855 1.42055 1.42903 1.42039 1.42676 1.42441 1.42347 1.41615 1.42405 1.41609 1.42102 1.42359 1.41753 1.41201 1.41816 1.4194 1.41404 1.41263 1.41855 1.41732 1.42113 1.40762 1.41077 1.40877 1.40222 1.4035 1.3876 1.28771 1.22332 1.20738 1.20063 1.19663 1.19342 1.19044 1.18548 1.17001 1.16774 1.16432 1.15729 1.15269 1.14177 1.14416 1.134 1.13139
1.38349 1.3801 1.39258 1.3874 1.39054 1.38489 1.39607 1.39408 1.39832 1.39232 1.39669 1.39991 1.39781 1.40007 1.40227 1.39828 1.39896 1.40516 1.40601 1.40791 1.4123 1.41016 1.40035 1.41276 1.41016 1.40721 1.41073 1.40143 1.36787 1.34442 1.34225 1.34917 1.37092 1.40843 1.41532 1.41099 1.39914 1.34522 1.24248 1.1931 1.1479 1.14099 1.14965 1.14903 1.15157 1.18047 1.30428 1.41113 1.40506 1.3006 1.03086 0.913357 0.87351 0.854595 0.84848 0.844675 0.838214 0.84138 0.838677 0.0 0.839944 0.0 0.846715 0.83775 0.842267 0.0 0.0 0.839269 0.83284 0.835217 0.0 0.0 0.0 0.0 0.0 0.0 0.0 0.0 0.0 0.0 0.0 0.0 0.0 0.0 0.830932 0.0 0.826305 0.829579 0.828703 0.0 0.0 0.828932 0.0 0.828218 0.0 0.0 0.832046 0.0 0.824682 0.0 0.828171 0.0 0.0 0.0 0.828169 0.0 0.0 0.0 0.831139 0.831103 0.834578 0.834505 0.833829 0.836951 0.83976 0.841961 0.840038 0.842785 0.849318 0.867528 0.883357 0.935383 1.03229 1.03157 1.08508 1.37977 1.43463 1.43262 1.42157 1.42067 1.42351 1.42311 1.41863 1.4225 1.42518 1.41828 1.41106 1.41333 1.41469 1.42061 1.41354 1.41161 1.41309 1.41823 1.40759 1.41378 1.40765 1.40945 1.41035 1.40779 1.4015 1.40056 1.4072 1.40416 1.40109 1.40303 1.39872 1.39493 1.35161 1.25414 1.22506 1.21915 1.20264 1.205 1.20009 1.19791 1.1841 1.18239 1.16854 1.16455 1.16271 1.15371 1.14415 1.13619 1.13741 1.12856
1.38147 1.38216 1.37439 1.38383 1.37803 1.38218 1.3871 1.38813 1.38415 1.39079 1.38032 1.39538 1.3886 1.38893 1.39307 1.38548 1.38894 1.40017 1.39571 1.40434 1.40256 1.40746 1.40528 1.39965 1.40412 1.40373 1.40981 1.39883 1.38408 1.35729 1.34462 1.35639 1.3673 1.3939 1.41194 1.41135 1.41015 1.4043 1.35669 1.2531 1.18729 1.14756 1.14554 1.1484 1.14978 1.14332 1.16464 1.25471 1.40356 1.41169 1.34157 1.07925 0.927746 0.87305 0.860837 0.843041 0.839804 0.840926 0.836475 0.834048 0.835112 0.83528 0.836016 0.838787 0.841543 0.0 0.0 0.0 0.0 0.828929 0.833641 0.0 0.0 0.0 0.0 0.0 0.0 0.0 0.0 0.0 0.0 0.0 0.0 0.0 0.0 0.0 0.0 0.0 0.0 0.0 0.0 0.0 0.827317 0.0 0.824212 0.0 0.825762 0.0 0.0 0.826787 0.8269 0.819633 0.0 0.826845 0.0 0.0 0.831935 0.0 0.833965 0.0 0.833868 0.0 0.836929 0.836231 0.836102 0.83537 0.840182 0.854042 0.862895 0.886331 0.943307 1.03171 1.01905 1.07488 1.37907 1.438 1.42409 1.41337 1.42034 1.41218 1.41733 1.41635 1.41389 1.41371 1.41205 1.41179 1.41437 1.41403 1.40876 1.4072 1.40646 1.40854 1.41 1.40626 1.40477 1.40609 1.40138 1.40346 1.40066 1.39923 1.39776 1.39511 1.39467 1.40123 1.39448 1.39809 1.3935 1.38186 1.29638 1.24213 1.22841 1.21748 1.21263 1.2047 1.19646 1.1951 1.189 1.18011 1.17258 1.16911 1.17269 1.15359 1.15108 1.14824 1.14075 1.13323
1.36758 1.3723 1.36887 1.3675 1.3804 1.3816 1.38054 1.38104 1.38529 1.38783 1.37686 1.3809 1.38323 1.38717 1.39105 1.37961 1.38196 1.38593 1.39014 1.38842 1.39084 1.3904 1.39272 1.39442 1.39776 1.39484 1.39102 1.39676 1.38658 1.37235 1.35291 1.35786 1.37019 1.38279 1.40795 1.4048 1.40675 1.41096 1.40364 1.3635 1.27114 1.18691 1.14717 1.13935 1.13843 1.14065 1.13763 1.1508 1.21181 1.38316 1.4046 1.36472 1.16186 0.954596 0.887117 0.860331 0.847197 0.843074 0.836882 0.830079 0.833775 0.833653 0.831171 0.835404 0.0 0.836207 0.835409 0.0 0.0 0.0 0.833799 0.0 0.0 0.0 0.0 0.0 0.0 0.0 0.0 0.0 0.0 0.827516 0.0 0.0 0.0 0.0 0.0 0.0 0.0 0.0 0.0 0.0 0.0 0.823309 0.0 0.824888 0.0 0.822869 0.0 0.821964 0.0 0.0 0.0 0.0 0.0 0.828854 0.826221 0.0 0.0 0.0 0.82991 0.831593 0.827983 0.835195 0.837112 0.839302 0.842933 0.858231 0.883423 0.947969 1.02525 1.01787 1.0699 1.36928 1.41687 1.41609 1.41499 1.41183 1.41762 1.41033 1.40968 1.40898 1.40479 1.40605 1.40986 1.40354 1.40641 1.40808 1.40195 1.3998 1.39905 1.40742 1.40201 1.40255 1.39906 1.40464 1.39139 1.39006 1.3952 1.39745 1.39058 1.38793 1.39199 1.38754 1.39149 1.39452 1.38992 1.36374 1.27282 1.23261 1.22587 1.22382 1.21645 1.21044 1.20715 1.19638 1.19851 1.1885 1.17491 1.17469 1.16788 1.1651 1.15631 1.14586 1.14376 1.13568
1.36654 1.36189 1.37085 1.35791 1.3689 1.37851 1.36824 1.37091 1.36806 1.3706 1.37362 1.3785 1.38058 1.38535 1.37874 1.37702 1.38244 1.38143 1.38536 1.38171 1.38889 1.38063 1.3835 1.38577 1.3832 1.3879 1.38014 1.39294 1.38223 1.36264 1.36623 1.3587 1.36334 1.37137 1.39364 1.39306 1.39816 1.40094 1.40052 1.39748 1.3622 1.2825 1.20059 1.15249 1.13197 1.13275 1.13465 1.13711 1.14417 1.18773 1.33894 1.40443 1.39011 1.23387 0.97992 0.895307 0.859788 0.846356 0.839303 0.836308 0.837379 0.829959 0.830113 0.83025 0.834464 0.831346 0.0 0.0 0.0 0.0 0.0 0.0 0.0 0.0 0.0 0.0 0.0 0.0 0.0 0.0 0.0 0.0 0.826311 0.0 0.0 0.0 0.0 0.0 0.825433 0.0 0.830407 0.0 0.0 0.0 0.0 0.0 0.0 0.0 0.0 0.0 0.824881 0.0 0.0 0.0 0.0 0.0 0.827831 0.82665 0.826918 0.0 0.831795 0.828788 0.828984 0.829163 0.836048 0.838816 0.856457 0.884858 0.956961 1.02371 1.01722 1.0739 1.35654 1.41401 1.4153 1.4032 1.40268 1.40329 1.40559 1.4067 1.40546 1.40188 1.40547 1.40355 1.40159 1.3993 1.3964 1.38974 1.39366 1.39868 1.39677 1.39483 1.39342 1.39139 1.39673 1.39575 1.39359 1.39252 1.38602 1.38402 1.3831 1.38551 1.38758 1.38341 1.39126 1.3881 1.36979 1.31714 1.24705 1.23893 1.23661 1.22371 1.21965 1.20975 1.20397 1.19677 1.18845 1.19378 1.17745 1.16767 1.16955 1.16675 1.16065 1.15613 1.14832 1.14317
1.3526 1.36618 1.36039 1.35395 1.36225 1.36698 1.36677 1.3594 1.37973 1.36784 1.37197 1.36397 1.36549 1.37467 1.37773 1.37521 1.37538 1.37327 1.37498 1.37301 1.37488 1.37614 1.38099 1.37148 1.37313 1.38318 1.37713 1.38033 1.38094 1.36905 1.37181 1.3575 1.3613 1.37303 1.37562 1.3913 1.39612 1.39204 1.39306 1.39748 1.39441 1.37031 1.2935 1.20211 1.15718 1.12771 1.12673 1.13265 1.12641 1.13373 1.16507 1.29441 1.39288 1.39276 1.29528 1.03133 0.914212 0.865031 0.846643 0.838124 0.833657 0.831793 0.829325 0.830048 0.829877 0.83115 0.829481 0.0 0.830769 0.0 0.0 0.0 0.0 0.0 0.0 0.0 0.0 0.0 0.0 0.0 0.0 0.0 0.0 0.0 0.0 0.0 0.0 0.0 0.0 0.0 0.0 0.0 0.816635 0.0 0.0 0.0 0.822426 0.820821 0.819789 0.819327 0.0 0.0 0.0 0.822305 0.0 0.0 0.0 0.0 0.826737 0.0 0.828384 0.828595 0.827619 0.831301 0.838172 0.850561 0.885669 0.95657 1.01717 1.00693 1.06854 1.36294 1.41488 1.40342 1.40035 1.3987 1.4002 1.39501 1.3924 1.39986 1.39053 1.39936 1.39084 1.3964 1.39789 1.39531 1.39212 1.39234 1.39796 1.39007 1.37731 1.39307 1.38423 1.38192 1.38838 1.37973 1.37871 1.38444 1.37908 1.38159 1.3846 1.37713 1.37188 1.38007 1.37809 1.37577 1.34883 1.27091 1.24135 1.23878 1.23645 1.23268 1.22417 1.21536 1.20708 1.19766 1.19672 1.19217 1.18702 1.18537 1.17199 1.16807 1.15979 1.15956 1.15415 1.14414
1.34105 1.3407 1.34187 1.34914 1.35285 1.35867 1.34818 1.35737 1.35103 1.36121 1.36863 1.35491 1.36056 1.36698 1.36592 1.37086 1.35666 1.3648 1.37013 1.3704 1.36867 1.36715 1.37311 1.36811 1.3709 1.37139 1.37127 1.37362 1.36888 1.36407 1.366 1.36306 1.36943 1.37093 1.38094 1.3818 1.38804 1.3914 1.387 1.38512 1.38377 1.38841 1.36687 1.30875 1.21394 1.16038 1.12715 1.12846 1.1257 1.12579 1.12209 1.14615 1.2467 1.3868 1.39361 1.33855 1.10559 0.936248 0.872846 0.848057 0.835452 0.83447 0.830552 0.827487 0.823816 0.82392 0.826635 0.0 0.827633 0.832932 0.828562 0.0 0.0 0.0 0.0 0.0 0.0 0.0 0.0 0.0 0.0 0.0 0.0 0.0 0.0 0.0 0.0 0.0 0.816003 0.0 0.818616 0.0 0.0 0.821092 0.0 0.0 0.820487 0.0 0.0 0.817977 0.0 0.0 0.0 0.0 0.0 0.0 0.825111 0.0 0.824776 0.825313 0.826709 0.826917 0.830026 0.837491 0.848136 0.87857 0.944777 1.01933 1.00707 1.06692 1.35475 1.41104 1.39787 1.39773 1.38712 1.38548 1.39306 1.39163 1.39016 1.38636 1.38771 1.38672 1.3854 1.38491 1.38553 1.37951 1.38522 1.38429 1.38274 1.38173 1.38267 1.37359 1.38043 1.37868 1.37717 1.37789 1.36779 1.38341 1.37945 1.37488 1.37422 1.37744 1.37527 1.37445 1.36462 1.36231 1.30307 1.2451 1.24173 1.23803 1.23734 1.22416 1.222 1.21154 1.21121 1.21658 1.19671 1.19923 1.1946 1.18041 1.17625 1.16744 1.16966 1.16077 1.15293 1.14746
1.33454 1.3302 1.33726 1.34749 1.35203 1.3487 1.34554 1.35285 1.35006 1.35291 1.35459 1.3461 1.3564 1.35871 1.35987 1.36151 1.36447 1.3635 1.35719 1.3608 1.36409 1.36258 1.36995 1.36162 1.36721 1.36744 1.37183 1.35788 1.36582 1.36725 1.36156 1.37052 1.36416 1.36482 1.37567 1.38537 1.38051 1.37788 1.39033 1.37704 1.38314 1.38634 1.38837 1.37141 1.32479 1.22311 1.1592 1.13001 1.11832 1.11899 1.11732 1.12198 1.13704 1.19754 1.36182 1.3825 1.3495 1.15675 0.954434 0.886714 0.847686 0.835076 0.829712 0.828984 0.829695 0.827181 0.823187 0.0 0.0 0.824223 0.0 0.0 0.0 0.0 0.0 0.0 0.0 0.0 0.0 0.0 0.0 0.0 0.0 0.0 0.0 0.0 0.0 0.0 0.0 0.0 0.0 0.0 0.0 0.0 0.0 0.0 0.0 0.0 0.0 0.0 0.0 0.0 0.0 0.814881 0.0 0.819621 0.0 0.824286 0.825714 0.82362 0.825887 0.826092 0.829194 0.844803 0.865618 0.931505 1.00748 1.00456 1.0728 1.36015 1.40133 1.3969 1.39012 1.38709 1.38576 1.38526 1.38473 1.38965 1.38817 1.3835 1.38254 1.37723 1.38108 1.38058 1.38005 1.38033 1.37371 1.37535 1.3738 1.3725 1.37372 1.37148 1.36977 1.37625 1.37529 1.37373 1.36788 1.37272 1.36453 1.3642 1.36944 1.36843 1.36373 1.35899 1.3503 1.3519 1.29388 1.25822 1.24732 1.24277 1.2321 1.22996 1.22722 1.21124 1.21556 1.21459 1.1991 1.19614 1.19176 1.18382 1.18368 1.17593 1.17056 1.16998 1.15995 1.15632
1.33595 1.31968 1.33234 1.32651 1.33451 1.33656 1.33907 1.34286 1.33847 1.3481 1.34763 1.35035 1.34563 1.34932 1.35185 1.35515 1.35067 1.3544 1.36196 1.35617 1.34891 1.35825 1.36312 1.35872 1.36348 1.36345 1.35999 1.36011 1.37144 1.3588 1.36131 1.35305 1.35602 1.36236 1.37207 1.36926 1.37067 1.37346 1.37393 1.38121 1.37646 1.37022 1.37453 1.37508 1.36785 1.32582 1.23107 1.16718 1.12157 1.11361 1.1157 1.11545 1.11518 1.12788 1.16343 1.28239 1.28907 1.20035 1.10365 0.997803 0.90023 0.852507 0.840477 0.829287 0.82156 0.821669 0.821761 0.822126 0.819265 0.823386 0.820489 0.820783 0.0 0.0 0.0 0.0 0.0 0.0 0.0 0.0 0.0 0.0 0.0 0.0 0.0 0.0 0.0 0.0 0.0 0.0 0.0 0.0 0.0 0.0 0.0 0.0 0.0 0.0 0.0 0.0 0.0 0.0 0.0 0.0 0.819361 0.0 0.0 0.822866 0.821957 0.82103 0.822418 0.827572 0.843765 0.863414 0.928099 1.00635 0.999389 1.06963 1.35997 1.3997 1.3924 1.37668 1.38554 1.38308 1.3803 1.3798 1.38301 1.38215 1.37981 1.37283 1.37101 1.37432 1.37328 1.37823 1.37367 1.36909 1.36961 1.37152 1.35999 1.3698 1.36844 1.35597 1.37611 1.3613 1.36573 1.35935 1.36706 1.36286 1.35947 1.35772 1.35508 1.35912 1.35917 1.35638 1.3488 1.3309 1.28243 1.26486 1.26031 1.24412 1.23896 1.22825 1.22961 1.22241 1.21873 1.212 1.21123 1.20169 1.19891 1.19283 1.18347 1.17274 1.16951 1.16676 1.16342 1.15415
1.32324 1.31737 1.31964 1.32317 1.32851 1.33379 1.33175 1.33447 1.34254 1.33241 1.33872 1.34309 1.34221 1.33798 1.34599 1.35013 1.34458 1.34859 1.35062 1.35398 1.35341 1.35527 1.35569 1.35494 1.34938 1.35773 1.35821 1.35331 1.36041 1.36327 1.352 1.35757 1.35492 1.359 1.36305 1.36706 1.36762 1.36957 1.36862 1.36707 1.36831 1.36952 1.37584 1.37326 1.37435 1.36967 1.33625 1.24441 1.1748 1.12921 1.11145 1.11149 1.11382 1.11352 1.11435 1.12759 1.12577 1.11553 1.11191 1.11116 1.03845 0.922678 0.861636 0.839728 0.828533 0.820507 0.824675 0.818058 0.820736 0.0 0.821674 0.0 0.0 0.0 0.0 0.0 0.0 0.0 0.0 0.0 0.0 0.0 0.0 0.0 0.0 0.0 0.0 0.0 0.0 0.0 0.0 0.0 0.0 0.0 0.0 0.0 0.0 0.0 0.0 0.0 0.0 0.0 0.0 0.0 0.820846 0.0 0.819694 0.0 0.0 0.820749 0.825332 0.836 0.862046 0.920007 0.996763 0.995631 1.07251 1.35741 1.39308 1.38349 1.38084 1.37005 1.37948 1.37846 1.37308 1.37228 1.37693 1.37404 1.37314 1.36675 1.3741 1.37797 1.36574 1.36523 1.36783 1.36782 1.3669 1.36624 1.35955 1.35966 1.36625 1.35662 1.36227 1.36106 1.35727 1.35598 1.35379 1.35832 1.35773 1.35148 1.35303 1.34977 1.35904 1.35316 1.34308 1.31268 1.27846 1.27392 1.27293 1.25782 1.23912 1.23666 1.2218 1.22472 1.21856 1.21291 1.20938 1.205 1.19705 1.18556 1.1894 1.1851 1.17538 1.17179 1.1668 1.15167
1.31422 1.315 1.31809 1.31658 1.31257 1.32239 1.31607 1.3282 1.32737 1.3305 1.32979 1.33415 1.33955 1.33781 1.33408 1.34012 1.33926 1.34769 1.34616 1.34621 1.34233 1.34281 1.35212 1.34833 1.34586 1.34974 1.34855 1.35038 1.35273 1.36037 1.35335 1.35387 1.35574 1.36097 1.35711 1.3665 1.35858 1.35797 1.35874 1.36287 1.36499 1.3662 1.36853 1.36881 1.36162 1.37384 1.36398 1.34288 1.27032 1.17662 1.13506 1.11067 1.10494 1.10436 0.0 1.10397 1.10764 1.10665 1.10622 1.11097 1.12787 1.10331 0.950263 0.870709 0.838942 0.828323 0.82029 0.812231 0.819558 0.820474 0.820791 0.0 0.0 0.0 0.0 0.0 0.0 0.0 0.0 0.0 0.0 0.0 0.0 0.0 0.0 0.0 0.0 0.0 0.0 0.0 0.0 0.0 0.0 0.0 0.0 0.0 0.0 0.0 0.0 0.0 0.0 0.0 0.0 0.0 0.0 0.820565 0.0 0.820539 0.819917 0.825382 0.835183 0.849603 0.909563 0.991784 0.984294 1.0846 1.35161 1.37801 1.37714 1.37076 1.3759 1.36975 1.37194 1.36918 1.37648 1.3751 1.36909 1.3731 1.36415 1.36464 1.3608 1.35693 1.36389 1.36309 1.35996 1.3531 1.35532 1.36319 1.35763 1.35603 1.36317 1.35382 1.35548 1.34777 1.34878 1.34861 1.35289 1.34953 1.34725 1.33792 1.3487 1.34348 1.34547 1.34155 1.32925 1.29475 1.28164 1.27404 1.27027 1.26067 1.25627 1.24963 1.23229 1.22287 1.22187 1.21239 1.2083 1.20471 1.20026 1.19711 1.19954 1.18742 1.1841 1.17193 1.16719 1.15868
1.31465 1.31124 1.30322 1.31341 1.31957 1.30991 1.31807 1.31356 1.31649 1.31828 1.32298 1.32166 1.32706 1.32695 1.3317 1.33557 1.33582 1.34151 1.33174 1.34586 1.3467 1.34306 1.34296 1.34418 1.33783 1.34144 1.34557 1.3463 1.34977 1.35096 1.34874 1.35292 1.35397 1.35075 1.35452 1.35854 1.35856 1.35571 1.3562 1.35183 1.35877 1.35459 1.36204 1.35748 1.36201 1.35965 1.36182 1.36769 1.35002 1.28437 1.19618 1.13999 1.11071 1.10266 1.10235 1.0997 1.10422 1.10411 1.106 1.12896 1.17274 1.21133 1.21231 1.01077 0.886968 0.846815 0.824592 0.822064 0.818065 0.812011 0.815232 0.0 0.819594 0.0 0.820108 0.0 0.0 0.0 0.0 0.0 0.0 0.0 0.0 0.0 0.0 0.0 0.0 0.0 0.0 0.0 0.0 0.0 0.0 0.0 0.0 0.0 0.0 0.0 0.0 0.0 0.0 0.0 0.0 0.0 0.0 0.0 0.813841 0.8205 0.819876 0.827942 0.849909 0.908956 0.989955 0.98365 1.08359 1.35993 1.38083 1.3638 1.37074 1.37244 1.36834 1.36767 1.36668 1.36594 1.36603 1.36637 1.36466 1.36321 1.36287 1.36479 1.35607 1.35934 1.35772 1.35919 1.35777 1.3546 1.35481 1.35413 1.34943 1.35349 1.35211 1.34617 1.35036 1.34237 1.34195 1.34684 1.3393 1.3466 1.33366 1.33693 1.33902 1.3416 1.33939 1.33825 1.31126 1.29067 1.28005 1.27796 1.26838 1.2651 1.26259 1.25812 1.2495 1.23432 1.23273 1.21344 1.20852 1.20734 1.19963 1.19511 1.19027 1.18993 1.18365 1.17999 1.176 1.16296
1.29186 1.30268 1.29733 1.30885 1.30066 1.30701 1.31143 1.31125 1.31528 1.31548 1.32586 1.317 1.32132 1.32532 1.32136 1.33015 1.32522 1.32652 1.32857 1.33278 1.33197 1.3369 1.33432 1.33749 1.34561 1.33868 1.33975 1.33714 1.3423 1.34154 1.34633 1.35024 1.35046 1.34782 1.35273 1.34999 1.35284 1.34887 1.34994 1.3538 1.3511 1.36058 1.35694 1.35496 1.35722 1.362 1.34648 1.36262 1.35529 1.34906 1.3012 1.21278 1.146 1.10668 1.09717 1.09741 1.09963 1.09693 1.10055 1.11539 1.17845 1.31783 1.36195 1.30802 1.10093 0.91676 0.845942 0.830101 0.820026 0.823556 0.813434 0.811413 0.0 0.0 0.0 0.0 0.0 0.0 0.0 0.0 0.0 0.0 0.0 0.0 0.0 0.0 0.0 0.0 0.0 0.0 0.0 0.0 0.0 0.0 0.0 0.0 0.0 0.0 0.0 0.0 0.0 0.0 0.0 0.0 0.0 0.0 0.0 0.818111 0.825894 0.848144 0.906278 0.983449 0.984985 1.09642 1.35892 1.37462 1.36486 1.37297 1.36171 1.35938 1.36017 1.35921 1.35908 1.36006 1.35928 1.3579 1.35504 1.3533 1.35296 1.35287 1.35102 1.35171 1.35264 1.35382 1.34727 1.34865 1.34545 1.3493 1.3344 1.35118 1.34329 1.33453 1.33899 1.34819 1.33819 1.33547 1.33943 1.32934 1.33292 1.32389 1.33377 1.33244 1.32329 1.32104 1.30739 1.28544 1.28089 1.27107 1.26727 1.26123 1.25953 1.25367 1.25296 1.24566 1.23153 1.22742 1.20408 1.20288 1.20055 1.19573 1.18686 1.1849 1.18127 1.17786 1.17226 1.16319
1.28983 1.29277 1.29642 1.2955 1.3006 1.29633 1.30583 1.30325 1.31051 1.31476 1.31141 1.30851 1.32015 1.31168 1.3129 1.32767 1.31405 1.32437 1.31987 1.3293 1.32796 1.32904 1.33007 1.32993 1.33029 1.33308 1.33889 1.33771 1.33674 1.33571 1.33324 1.33995 1.33849 1.34119 1.34301 1.3445 1.34624 1.34454 1.34534 1.34694 1.34142 1.34209 1.3518 1.34529 1.35523 1.35575 1.35081 1.35353 1.35364 1.35572 1.34803 1.31136 1.23532 1.15396 1.10661 1.09135 1.09328 1.09721 1.0942 1.09549 1.11289 1.18568 1.33357 1.36058 1.3353 1.18854 0.953099 0.857471 0.832952 0.815634 0.815957 0.813363 0.813359 0.0 0.813588 0.0 0.0 0.0 0.0 0.0 0.0 0.0 0.0 0.0 0.0 0.0 0.0 0.0 0.0 0.0 0.0 0.0 0.0 0.0 0.0 0.0 0.0 0.0 0.0 0.0 0.0 0.0 0.0 0.0 0.0 0.8169 0.818337 0.824389 0.844604 0.906454 0.979221 0.982799 1.10888 1.35842 1.37269 1.36008 1.36244 1.35641 1.35526 1.35464 1.35313 1.34843 1.34973 1.34497 1.35079 1.35599 1.34798 1.35367 1.3496 1.34721 1.3465 1.34918 1.3481 1.34045 1.33761 1.34749 1.34201 1.33678 1.33859 1.3364 1.33276 1.33387 1.32986 1.32807 1.32652 1.33305 1.33167 1.32941 1.32264 1.32253 1.3193 1.32186 1.32104 1.31047 1.29214 1.28954 1.27341 1.27403 1.27076 1.26907 1.26515 1.26145 1.25008 1.24874 1.24843 1.23561 1.2244 1.21022 1.19576 1.19041 1.19221 1.18595 1.17857 1.18017 1.17112 1.17204
1.27753 1.2802 1.28437 1.28981 1.28538 1.28934 1.28153 1.29682 1.30863 1.31156 1.30502 1.30754 1.30837 1.30832 1.31146 1.31264 1.31757 1.32136 1.31634 1.32467 1.32363 1.32198 1.32301 1.3331 1.31524 1.32717 1.32965 1.33209 1.33671 1.33264 1.33549 1.33159 1.33266 1.33874 1.33579 1.34179 1.3396 1.33763 1.33561 1.33892 1.3453 1.33975 1.34095 1.34269 1.34495 1.34121 1.35478 1.34326 1.35736 1.35146 1.35151 1.34494 1.32573 1.25633 1.1673 1.12285 1.09065 1.08624 1.09072 1.09114 1.08952 1.10257 1.14269 1.27914 1.34848 1.33445 1.24326 1.00953 0.87818 0.832285 0.821624 0.812674 0.812383 0.812653 0.0 0.808795 0.0 0.0 0.0 0.0 0.0 0.0 0.0 0.0 0.0 0.0 0.0 0.0 0.0 0.0 0.0 0.0 0.0 0.0 0.0 0.0 0.0 0.0 0.0 0.0 0.0 0.0 0.0 0.0 0.0 0.815048 0.822845 0.846233 0.910342 0.969464 0.982013 1.12472 1.35554 1.35771 1.35985 1.35532 1.34875 1.34791 1.35279 1.35303 1.34979 1.34624 1.34925 1.34964 1.34026 1.33573 1.34574 1.34427 1.34277 1.34865 1.33938 1.34034 1.33869 1.33701 1.33529 1.34033 1.33995 1.33612 1.33707 1.33148 1.33431 1.32977 1.32829 1.33602 1.32379 1.32162 1.32891 1.32273 1.32042 1.30944 1.31343 1.31127 1.31098 1.29214 1.2984 1.28669 1.28457 1.28186 1.27006 1.26945 1.25815 1.25362 1.24553 1.24905 1.23546 1.24181 1.23892 1.23383 1.21717 1.19331 1.19241 1.18719 1.18033 1.18558 1.16859 1.16896
2441 3978 6480 5265 5128 6102 7089 7695 9047 13100 8080 6562 5156 2925 1555 2628 5867 2129 769 694 822 762 732 691 1049 806 765 714 764 1065 1710 798 750 499 808 3057 2791 2318 1898 2555 6511 9275 6047 3229 3666 3199 2812 2873 2388 1041 634 759 738 483 566 570 1955 4799 4053 4043 2287 1258 1514 5136 7085 7121 6876 6543 5728 7820 7703 7840 8141 8018 7979 8008 7892 8104 8415 8252 8836 8894 8913 9296 9650 9037 9334 9372 9583 9526 9037 9746 9296 9028 9229 9028 8712 8760 8769 8596 8317 8317 8230 8133 8472 8530 8355 7645 7739 5787 4767 3070 5660 6650 6116 6761 6691 7211 7250 7280 6447 5581 3015 2408 3962 4931 5908 6933 7627 7440 6939 7347 12131 14358 14658 14736 15162 15353 15538 14753 13749 12403 10459 11817 14483 17192 17330 16075 15425 16340 16684 17049 18020 18631 19000 17632 17119 17897 18097 18092 18271 18081 17890 16587 14919 13242 13324 13943 16370 18613 19223 18535 17233 15194 14327 13005
1841 3077 5493 10592 8308 8102 7824 7803 7643 8544 4897 2747 1390 1052 1329 3499 6045 1132 907 822 734 786 823 703 976 1736 1519 2280 1575 1661 1270 523 487 503 562 2745 5103 3171 3418 3373 4676 4266 3131 3501 3372 3320 3927 3797 2556 1113 811 627 463 407 529 453 1956 5023 4564 4184 2820 3048 1919 2717 5228 6670 5845 6526 8219 7776 7998 7805 7815 7831 8291 7544 8444 7946 8277 7631 8429 8609 8676 9113 9332 9360 9322 9598 9769 9569 9455 9113 9408 9731 9550 9455 9161 9218 9294 8492 8855 8769 8750 8291 8220 7892 8239 7931 6682 5349 3774 1770 2187 2256 2413 3147 3602 4224 4864 5243 3388 2430 3228 4766 5855 6586 7313 8124 8290 7879 7184 10888 14038 13898 14031 14238 14791 15322 15689 15606 14958 14084 12757 10647 10472 12507 15063 17108 17675 17028 17182 17399 17895 19030 18884 18498 18991 18145 17699 18213 17914 17094 18112 17953 17796 16875 15124 13289 13064 14522 16920 19395 20215 18029 16043 14891
4746 6350 7876 11111 12344 8450 7548 6452 4710 2615 1332 840 926 917 2781 5941 3180 1035 822 817 881 823 1155 1717 1621 1493 3019 3052 1612 1258 499 416 655 576 403 1273 3239 3496 3935 5096 5062 4768 3911 2820 2586 3366 5607 7864 2278 1564 679 509 509 463 514 469 1797 5283 4572 4225 3276 4022 4169 1731 2529 4367 6541 7603 7718 7276 7448 7486 8118 7498 7792 8077 8096 8153 7992 8247 8332 8086 8445 8964 8983 9171 9124 9436 9653 9417 9398 9030 9237 9596 9464 9285 9539 9398 9709 8771 8999 9227 8771 8771 8358 8377 7984 7429 6300 3637 3280 5654 7188 7382 6641 5209 4541 3533 2988 2612 3016 4664 6010 7129 8453 9624 9766 12359 11849 11183 10688 11909 12134 12176 13015 13456 13573 14780 15576 15936 15868 15072 14119 13438 11595 10317 10258 12183 14487 16345 16665 17476 17731 18845 19521 18791 17765 18228 18284 18380 17298 17109 17139 18326 19194 18879 17990 17007 15559 13864 13118 15465 17924 19957 19401 15815
7759 8933 9342 9248 13854 8929 4781 2321 1166 1082 1002 973 932 1604 3946 6942 1446 850 914 1017 1500 2430 3344 4455 3382 1390 1993 2092 592 583 880 714 692 565 443 728 1893 3128 5825 5542 4923 3393 2416 2160 2661 2278 2923 3601 1090 702 662 514 544 529 479 439 1751 5443 4394 4139 3180 3530 4474 4158 1842 3463 6711 7438 7419 7669 8172 8201 7849 7690 8020 7992 8464 7624 8416 8097 8697 8416 8931 8978 9278 8669 9053 9100 9297 9081 9428 9175 9287 9240 9418 9531 9550 9484 9222 9115 9134 9020 8832 8633 8353 8068 7973 6405 4375 3867 10531 12437 11636 10324 9688 10223 9347 7533 5768 4869 4977 5967 6552 7171 7986 9035 10388 12558 12915 13728 14012 13274 13224 12045 12283 13187 12993 12907 14118 15377 16675 16384 14765 14718 14095 13387 11794 11793 12401 13756 15201 17054 16697 16799 17153 15046 13319 13900 14707 14820 14877 15090 16320 16603 17989 19178 19477 18814 18855 17416 15091 13329 13513 14905 16120 16458
9265 9143 8726 7165 8506 10931 3077 1186 932 921 973 962 1008 3395 7029 3176 950 1497 1952 3159 4475 5921 5757 5578 3959 1292 1280 762 559 937 1592 922 415 431 437 784 2321 2825 3687 8080 8856 2362 2325 2609 3172 3235 2274 1039 702 509 514 473 539 519 504 583 1598 5650 4406 4065 3029 3116 6551 6500 4585 2000 5388 7450 7574 7709 7596 7973 7879 8059 7628 8003 7910 7928 8194 7933 8073 8445 8715 8724 8510 9069 8892 8920 9199 9656 9106 9227 9143 9106 9339 9181 8752 8939 8873 9165 9512 9390 8781 9109 8662 8322 6973 5236 3098 8942 12420 11546 10617 9143 8143 8008 8616 10242 10349 8348 6248 5918 6699 7412 8030 9408 11263 11536 11835 11936 13244 13700 13784 13266 13329 15646 15827 14081 13060 14369 15885 17046 16317 14276 15129 14903 15121 14887 14792 14748 14639 15471 14297 13370 12089 11557 11500 10836 11269 12004 12763 12721 12999 12776 13129 13297 14639 16584 18139 17623 17484 17775 16238 13720 11675 11389
8540 7553 5331 2872 2061 9189 6017 1732 1082 942 942 917 2233 4952 6826 2042 2966 4543 6496 6547 6741 6497 6089 5325 4726 2941 1512 833 761 1241 1222 602 386 369 409 840 2673 1931 2801 4789 2746 2567 4576 3193 2922 1698 1089 651 635 534 539 539 564 524 480 470 1604 6069 4534 3984 3280 3896 7190 7307 6443 2679 3491 6652 7435 7619 7525 7535 7656 7905 7709 7719 7793 7682 7921 8217 7995 8513 8467 8541 8078 8606 8689 8902 8504 8902 8874 9004 9513 9161 9161 9041 8976 8921 8680 8799 9022 9050 8520 8529 8341 7094 5538 2970 5973 9804 7869 8144 8980 10263 11249 11010 10140 9455 9262 10155 10388 8357 6886 7649 8223 8569 9938 12403 12978 12792 11987 12411 13183 13607 13971 14108 16902 16189 15385 13855 14893 16549 17090 15689 15140 15629 15572 15507 14500 12590 14397 14204 9785 10964 12689 12816 12247 12071 11394 10700 10562 11147 11629 12229 12642 12227 11662 11922 12720 13375 15748 18396 18201 17527 15516 12781
5347 3000 1730 1233 1190 4710 9661 2860 1179 1099 886 1206 3878 9411 5204 6348 9032 10117 8339 7262 6778 6255 5751 4800 4394 2891 1463 831 925 1361 1489 602 437 442 486 731 2596 2381 3469 3608 3229 1986 2455 1348 658 804 887 705 599 609 564 643 412 588 573 603 1678 6947 4891 4040 3685 4342 6823 7412 7161 4397 2164 6073 7713 7656 7542 7616 7747 7699 7671 7940 7597 7801 8032 7773 7920 8408 7957 8187 8325 8675 8610 8647 8951 8739 9107 8831 8767 9126 8758 8776 8951 9070 8822 8828 8763 8902 8689 8486 7449 5689 3147 5512 9165 8940 8359 8190 7973 7360 8353 10558 11795 12091 11747 10758 9735 12333 12080 9270 8828 8867 8669 9978 11845 13169 13240 12588 12323 12328 13357 13617 15854 16717 16423 16247 15331 15580 16891 17157 14871 15640 15629 14753 12321 9171 12543 9219 9086 10499 11452 11986 11859 12273 12124 11195 11459 10743 10140 9658 10443 11227 11203 11058 10178 10926 12226 13857 15553 16068 16827 16873
1490 1203 1215 1190 1065 1532 7395 6821 1963 1069 1235 3171 7857 10253 11158 11771 9208 9096 8251 6650 6140 5525 4381 2806 1572 916 948 890 934 1625 1045 963 508 585 851 592 1389 3161 3082 2640 1352 728 648 631 560 746 887 589 619 514 578 519 515 583 453 588 1541 7170 5323 4761 4143 4538 6926 7482 7403 5557 1949 5009 7607 7626 7366 7671 7384 7569 7433 7433 7598 7957 7865 7922 7949 8352 8068 8361 7885 8288 8717 8809 8983 8681 8818 8727 9321 8919 8599 8736 8736 8699 8964 8758 9144 8840 8242 7332 6135 3248 6996 10345 10671 10931 11127 10552 11555 11152 9473 8114 9037 11774 11986 12704 12082 11346 13373 13715 11156 9407 8760 9134 10510 12095 12624 13351 13617 13709 12534 12987 13367 15601 16601 16711 16516 16398 15766 16617 15698 15420 14423 12264 9124 8433 8854 9199 10852 12812 14376 15049 15740 15599 15501 15139 14823 14334 13667 12749 11663 10283 10617 10928 10822 11088 10991 11493 12327 13402 14489 16717
1222 1215 1119 1134 945 1132 2570 8277 4142 2155 3142 7189 13203 12780 14638 13087 9999 8082 7561 5808 4285 2757 1390 883 833 773 796 853 852 852 862 906 729 1123 894 430 777 1283 1230 738 720 648 631 631 625 619 539 573 603 657 549 505 525 598 569 536 1215 6595 5359 4510 4123 3983 6607 7141 6536 5698 2281 4913 7495 7486 7378 7681 7516 7920 7519 7556 7812 7345 7537 7907 7743 8271 7852 8371 8616 8671 8416 8580 8735 8744 8589 8507 8753 8898 8862 8908 8780 9026 8698 8571 8836 8269 7510 6522 4066 3265 7626 8023 9975 9772 9264 8408 9600 11996 13345 12820 10643 9256 11422 12924 13049 12809 11201 12437 14347 12635 10028 8936 9738 11311 12584 12874 13492 13492 13770 13821 13255 14314 15823 16012 16572 16253 16613 15307 14456 15134 12641 8774 9002 9297 11572 13586 14649 15522 15740 16087 15775 16059 15740 15774 15484 15853 15677 15359 14806 13798 12091 12389 13404 12440 11945 11660 11293 11862 12602 13716
1159 1119 1208 1186 1116 840 1382 4115 9170 5971 7029 12366 15359 16107 15243 14554 11713 8576 4378 1992 1107 947 931 880 784 890 830 852 738 571 574 556 752 1228 617 745 704 728 749 720 699 702 605 625 749 599 455 500 568 583 690 598 530 526 488 646 1102 5944 5152 4339 4114 3186 4618 4879 4173 3562 2119 5133 7276 7313 7583 7803 7272 7620 8016 7725 7706 7479 8007 7513 7731 8337 8265 8256 8283 8328 8020 8346 8428 8464 8600 8555 8672 8763 8672 8455 8564 8917 8798 8334 7970 7233 6078 3961 2762 5278 7181 8141 7102 6844 6922 6903 7431 8305 10298 11602 13523 12961 10068 10313 12582 12781 12599 11010 12852 14579 13228 10748 9417 9554 11351 12281 13104 13542 13522 13607 13566 13790 13794 15479 17032 17094 16657 16172 15155 14456 10358 8405 10836 13435 14730 15543 15285 15673 15643 16248 16456 16176 16480 16125 15722 15630 15785 15220 15844 14919 13304 12672 14031 14688 14340 12656 12243 12000 12223 12264
1288 1155 1203 1032 1260 1875 3267 5960 9321 12621 11619 13955 16689 18037 16666 15285 10672 3395 1140 1033 960 992 928 819 796 934 795 852 795 608 741 589 689 670 840 810 717 717 658 692 662 655 584 599 692 514 578 441 573 598 656 555 526 541 551 509 971 4582 5173 4264 4013 1899 2369 2942 3293 3449 4130 6504 7236 7784 7188 7251 7543 7570 7323 7550 7767 7595 8029 8054 7730 7847 8000 8198 8288 8550 8676 8297 8559 8504 8730 8613 8631 8730 8523 8640 8820 8595 8419 8029 7025 6119 3666 3612 7042 7251 9517 11069 11581 9340 8656 9024 9530 10355 10734 11127 11816 12989 13898 11490 10105 12455 12734 12734 10751 13097 14337 13257 11662 9950 10221 11311 12142 12684 13024 13189 13535 13383 13790 13960 16187 17485 17850 17264 15838 13627 9416 12315 14714 15039 15276 15214 16702 17627 17755 17507 17232 16604 16640 16927 16542 16060 15723 14660 15470 14891 14125 13420 13223 14825 15691 14937 14482 13025 12361 12371
1190 1117 1332 1932 2941 5419 8421 11391 13908 14771 14933 14763 15636 15785 15272 13431 7174 1378 1040 1058 931 940 975 913 922 897 852 862 784 796 720 560 638 808 789 853 665 638 621 621 655 669 709 722 752 618 476 525 636 627 564 545 579 509 537 571 965 4097 5996 4469 4516 3516 6025 7230 7171 7117 7629 7415 7561 7570 7523 7586 7695 7767 7577 7982 7784 7513 7613 7865 7649 7461 7963 7927 8071 8313 8555 8196 8555 8600 8466 8672 8295 8519 8322 8358 8475 8878 7946 7252 6009 3333 4342 7568 6979 7685 9424 11401 12502 13184 11398 10575 11316 11922 12704 13427 13076 12798 13064 13808 12314 10131 11823 12332 12335 10329 14112 14058 13382 12178 10690 10810 11555 12390 12774 12674 12917 13301 13016 12894 13378 16031 17243 17243 14752 10784 13496 14827 15543 15095 16429 17754 17406 15648 14453 13328 12655 12727 12985 12969 13544 14420 14475 14302 15311 14776 14479 15308 13652 13595 15162 15613 16099 14967 14358 12774
1688 2252 3547 5140 6958 9124 13373 14295 14669 15146 15137 14083 13860 13625 12728 9727 3548 1152 972 1016 1023 1035 878 922 852 852 762 762 851 851 829 808 808 852 801 697 720 733 682 685 629 649 593 598 549 622 544 482 679 593 541 598 528 603 571 571 735 3910 7690 5321 5427 4149 6540 7794 7345 7570 7679 7468 7586 7269 7387 7631 7658 7766 7506 7694 7694 7811 7793 7911 7723 8107 8170 8384 8063 8420 9223 8527 8536 8536 8598 8259 8625 8598 8464 8268 8670 8313 7300 6053 3129 6726 9587 9162 9568 10676 11757 12149 12665 13380 13657 12356 11974 12303 12477 13321 13735 14408 14084 13566 14498 12654 9925 11493 12200 11337 10890 13815 14427 13556 12234 11302 11379 11703 12459 12528 12524 12736 12836 12089 12009 13738 15937 15770 11625 13241 14857 14915 15231 16958 15588 13185 10866 10208 9651 9841 9901 9848 10117 10149 10550 12459 12351 12403 14090 14714 14763 14791 14161 13521 13878 15101 16021 16066 15957 15989
3610 5813 7693 7979 9016 12319 13342 14698 13926 14479 13889 12192 12031 12012 12078 8335 1841 984 931 1040 892 948 1003 899 818 728 939 840 992 808 840 862 767 863 801 782 723 655 615 649 702 692 676 568 651 530 521 469 545 608 594 594 609 618 521 595 758 3747 8371 7442 6934 5013 6605 7743 7998 7568 7903 8274 7631 7667 7441 7829 7614 7972 7991 7902 7768 8197 8107 8145 8234 8163 8261 7994 7905 8616 8385 8527 8821 8367 8474 8661 8599 8323 8705 8519 8376 7549 6437 3902 4946 11607 12384 12699 12869 13156 12887 13099 13243 13406 13805 13561 12574 12183 12875 13264 13548 14507 14581 14547 13751 14386 12989 10103 11387 12587 10190 12449 14093 14169 13315 12456 11993 11555 12272 12707 12657 12654 12957 12695 11743 11629 13996 12223 12961 13950 13539 14932 15646 12143 9706 9615 9968 10366 10819 11021 10770 10674 10296 10228 12380 13059 13582 13770 12974 13493 14471 14347 14366 14698 13282 14611 15513 15864 15695 15940
7928 9244 9035 8937 9996 12776 13899 14916 14820 13349 12951 12177 12230 12208 11603 8545 2006 1009 980 975 1019 957 1049 932 840 906 884 861 926 968 819 873 738 751 792 753 655 655 629 603 593 647 505 632 694 607 564 560 646 566 660 552 577 540 657 555 689 3532 10510 10163 9190 6442 6278 7695 7785 7856 7937 7558 7470 7667 7605 7946 7884 7723 7638 7727 7887 8154 8118 8140 7945 7936 8220 8406 8370 8530 8353 8547 8760 8131 8255 8973 8494 8308 8840 8477 7892 6856 4890 2996 10297 12173 12156 12652 13429 13474 13003 12932 13174 13487 13928 14325 13679 12601 12809 13867 13939 14453 14536 14517 14333 13862 14168 13678 12803 13458 11555 10823 12639 14226 14045 13480 12302 12363 12635 12615 13023 12588 12544 11657 12060 11376 10672 9694 10475 11078 13140 13156 10537 10943 11249 11541 11330 10912 10548 9758 8808 8366 9606 12316 13022 13006 13212 14446 14629 14129 13141 13557 14508 14962 14306 13253 14474 15660 16309 15889
8911 8760 8434 8299 9201 12195 13623 13487 13168 12842 12707 12483 11921 11578 11089 8370 1932 1052 952 925 995 934 988 874 906 784 992 840 830 894 820 821 832 802 824 776 726 679 663 643 578 710 612 704 603 574 674 959 566 646 562 521 679 555 629 616 548 2963 11519 11246 10463 7414 6074 7613 7838 7569 7910 7784 7955 7777 7473 7861 7949 8101 7994 8007 7830 7635 8078 8013 8498 8128 7960 7978 8313 8640 8375 8190 8710 8419 8392 8066 8772 8640 8454 8313 6989 6071 3702 5571 11940 11701 11302 11613 11773 11871 12125 12849 13411 13470 13900 14403 13910 13757 12248 13470 13950 14358 14522 14234 13703 14627 13238 13686 14498 14293 13467 10506 9341 13663 14416 14045 13365 13035 12810 12674 12350 11497 9738 8949 11011 10457 7873 9478 11248 12244 13034 12038 10431 10957 11292 11110 10380 10041 9377 8293 7982 9627 11615 11856 12296 12591 12517 13352 14511 15338 14993 13521 13349 13841 14684 13848 13104 14856 15848 16470
8405 8550 7571 6312 4765 8583 12125 12891 12933 12368 12350 11765 11016 10008 7831 4209 1221 1035 940 866 968 954 997 907 928 840 905 861 872 873 853 873 792 824 766 766 629 613 732 706 680 671 694 641 593 551 669 622 646 571 549 490 610 524 607 558 768 2502 10928 11316 10039 7775 5982 7865 7802 7857 7866 8054 7852 7745 7772 7732 7786 7989 7972 7987 7651 7934 7731 8205 8161 8143 8275 8275 8161 8548 8469 8671 8319 8618 8302 8812 8530 8759 8566 7475 6446 4784 3203 11040 12055 11737 11517 11913 11479 11568 12405 13125 13988 14018 14054 14081 14089 13748 13928 12523 13751 14683 14212 14312 14343 14243 14599 11757 13353 14695 13920 11453 9137 10577 13795 12867 12173 12091 12224 12369 11905 10437 6562 7283 9328 8601 8672 10256 12719 13275 13243 11351 9984 9824 9944 9787 9341 8600 7676 7513 10750 11900 11185 11162 11409 12037 12505 12405 13161 14681 15736 15473 13588 12697 13387 13987 13014 14520 15487 16084
7887 6298 3958 1920 1989 7087 12423 12850 12924 12244 11297 10229 7582 4285 1760 1137 1040 1035 983 968 943 1023 896 961 840 980 948 915 946 894 853 833 804 847 736 809 732 712 637 719 627 685 641 703 617 622 698 646 558 549 564 564 533 594 567 673 600 1756 9786 10640 9126 7676 5945 7813 7946 8009 7674 7763 7741 8034 7892 7969 8084 8004 8048 7827 8258 7976 8143 8222 8012 8125 8415 8555 8345 8643 8476 8187 8625 8397 8415 8502 8450 8388 7442 6513 5215 2883 8407 12391 12690 12532 12726 12849 13185 13185 13508 13588 14057 14210 14308 14367 14367 14331 14142 13873 12397 13802 14104 13950 13948 14413 14380 12724 12327 13919 13677 12803 11993 9784 11583 12748 12800 12420 12589 12504 11153 7596 8456 11663 12133 10956 10144 11485 12598 13368 14232 14345 11667 10814 11123 11269 10976 9617 7979 10836 12560 12919 12368 11436 11115 12002 12677 12944 13161 13467 15227 16042 15880 14236 13529 14479 13885 14861 14504 15676
4193 2246 1436 1206 1321 5913 12378 12409 11961 10119 7574 4097 1741 1033 1107 1040 987 972 957 992 920 952 983 916 992 937 830 873 863 873 874 875 887 756 719 702 762 706 641 704 578 545 627 570 679 702 787 549 558 583 524 524 466 567 464 516 570 1486 8081 8735 7757 6473 5830 8000 7878 8101 8104 8007 8246 8207 7854 7853 8047 8381 8223 8432 8301 8248 8248 8581 8240 8319 8083 8074 8319 8686 8511 8441 8328 8747 8572 8337 8022 7253 5925 4500 2953 5689 12202 12631 12789 13122 12910 13148 13710 13596 13776 13935 13917 14588 14252 14325 14201 14503 14259 13867 13380 11945 13469 13811 13796 14231 14622 14094 11919 12346 14829 13538 13002 12654 10946 12399 12691 12905 12477 11651 8355 8307 11497 13194 12399 13310 13014 12736 12514 12639 12452 14377 14304 13539 14688 14189 13704 13420 12768 12036 12241 12855 12734 12345 11519 11735 12280 12985 13370 13837 14993 16042 16334 16111 15594 15614 15279 16663 14688 14611
1209 1329 1235 1292 1205 5077 11131 10279 7569 3878 1697 1199 1002 1070 1100 1047 995 972 980 943 1031 1061 1017 905 915 968 852 820 832 843 926 824 766 779 672 613 667 690 675 762 603 684 636 566 543 805 670 555 536 579 625 521 573 527 570 570 540 1108 5461 6152 5375 4268 6064 8154 8007 8264 8295 8092 8304 7932 8223 8310 8231 8257 7941 8337 8415 8529 8302 8371 8112 8094 8304 8060 8748 8635 8521 8617 8626 8225 7789 7406 5925 4740 5088 5689 5053 11371 12575 12164 12418 12505 12675 13183 13446 13604 13323 13754 14173 14500 14111 14225 14039 14192 13427 13667 13608 12875 12169 13945 13784 13588 14023 13912 12329 12340 14325 13781 13325 11974 12104 11705 12624 12531 11128 8590 9085 9793 9764 10904 11654 13596 13538 12894 13361 14309 14452 14160 14085 14033 14265 15689 15697 15406 14751 14172 12887 12071 13034 12792 12357 12293 12110 12960 13440 14096 14846 15878 16533 16897 16509 15788 15501 17545 14637 14352
1085 1176 1131 1234 1162 2911 6902 4010 1806 1210 1021 989 1058 992 975 1047 1065 911 932 930 1019 983 894 948 915 830 904 905 957 886 906 746 779 801 781 755 641 675 733 727 684 636 688 627 609 1154 703 555 515 603 512 555 536 479 459 459 538 798 3866 3884 3619 3503 5359 7910 8357 8004 8337 7985 8135 8161 8108 8283 8136 8450 7978 8155 8434 8356 8460 8295 8333 8159 8568 8420 8585 8481 8750 8168 7768 7125 5882 4735 6447 10158 10940 5804 8072 12930 13044 12512 11745 12608 12802 13064 12837 13604 14016 13473 13649 14001 14159 13547 13900 13818 13074 13063 13116 12893 12581 10663 11264 11901 12370 12637 12991 11674 14691 14206 12566 8932 11595 12514 11387 11040 10511 11228 12563 12388 12446 12031 12839 14547 15371 14755 13973 13633 14228 15114 14798 13981 13960 13887 14965 15870 15908 15731 14769 14075 12787 12942 12673 12029 12578 13756 14031 14422 15101 15420 16294 16453 16843 16287 15401 17937 15148 14384
1268 1057 1147 1063 1067 1358 1681 1274 989 1072 1077 960 935 1016 999 983 911 966 1034 952 939 872 969 894 947 946 894 813 926 947 847 799 821 771 794 739 685 656 660 741 741 641 609 581 744 1036 597 588 503 558 564 488 470 414 504 529 553 767 2996 3396 3286 3233 5171 7713 8513 8143 8179 8213 8529 8275 8179 8354 8033 8216 8103 8402 8229 8246 8211 8359 8667 8537 8537 8294 8520 8000 7558 6517 5235 4775 7280 11129 13373 11779 6673 5581 12299 12721 12860 12825 12912 13329 13479 13384 13436 13571 14183 13991 13981 13762 13867 14001 13367 13282 12761 12312 12401 12502 12529 12268 10134 10726 11811 12586 13153 12121 14076 14258 11517 7681 9862 9957 10307 12086 12924 12983 13106 12914 12685 12659 12832 14590 15734 15537 15586 15201 14924 14218 15104 15261 14616 14171 13528 13102 14620 15362 15631 15140 14748 13264 12515 12427 13685 13792 14530 14524 15362 15535 16255 16998 17304 16504 15317 17585 16572 14012
1161 1221 1060 1120 1136 1234 1075 1106 1008 1008 1240 1009 1016 963 995 1077 1038 943 974 1028 960 883 1001 1021 967 863 811 782 865 836 908 799 791 863 817 729 685 622 750 722 679 721 605 549 638 634 551 503 536 646 651 506 612 493 502 553 553 658 2223 3286 3097 3080 5373 8187 8792 8765 8546 8677 8310 8234 8199 8408 8472 8463 8463 8511 8381 8528 8580 8286 8585 8551 8084 7859 7617 6718 5161 4746 7539 11880 13229 12848 11266 6804 4452 9147 12511 12437 12541 12749 12663 13425 13408 13912 13799 14011 14037 13880 13964 13798 13587 13420 12587 12382 11995 11729 11526 11612 11905 10226 9844 11518 10824 11963 12955 12928 12683 14240 10491 7656 8215 7654 7394 8734 11108 10899 11389 11889 12468 12886 13093 14212 15631 15636 15992 16042 16250 16295 15959 15220 14788 14325 14076 13837 13866 13909 14696 15300 15812 15686 13726 13000 13762 14102 14712 14991 15400 15374 15829 16828 16785 16965 15470 17912 18111 14756
1116 1103 1134 1108 1125 1071 1168 1015 1199 1077 1144 1076 1088 975 1077 1038 1011 986 1017 895 938 894 957 915 862 925 895 916 877 857 868 821 794 836 797 791 737 722 608 632 646 651 586 601 579 653 594 482 527 570 558 531 511 475 473 569 480 584 1895 3027 2850 3025 4916 7994 8388 8765 8284 8478 8373 8376 8307 8437 8416 8520 8580 8381 8222 8404 8784 8525 8454 7928 7531 6185 5460 5064 8014 11801 12871 12189 11939 10197 6280 5322 7013 12284 11810 11837 11690 11638 12234 12476 13157 14006 13625 13816 13825 13894 13558 13323 12610 12418 12131 11781 11395 11362 11327 12134 10691 9681 10279 11649 11572 10947 12151 12676 11000 11977 11383 11537 11444 11242 10230 8893 10428 12328 13252 13625 14159 13893 13250 14125 16344 16234 16343 16299 15980 16360 16578 16214 14665 14761 14595 14486 15167 15848 14762 14369 15487 16025 16288 14211 13340 13602 13531 14385 14499 15161 15829 16841 17449 16958 15501 18270 18323 16979
1146 1176 1205 1095 1193 1115 1171 1059 1065 1052 1107 1088 975 960 1003 988 1000 963 1083 960 926 926 1043 988 977 843 957 845 806 858 860 774 853 787 771 823 722 703 622 646 674 521 610 699 993 640 600 600 552 531 522 466 589 517 560 542 522 556 1509 2796 2576 2796 4593 7882 8817 8408 8521 8550 8654 8342 8702 8572 8499 8724 8560 8560 8687 8376 8635 8014 7437 6688 5053 4967 8074 11621 12310 12241 11888 11018 8307 5733 6585 7317 10622 11449 11423 11965 12267 12051 12189 12684 13298 13661 13497 13425 13425 12975 12686 12348 11815 11658 11483 11561 11316 11448 11802 11670 9399 9460 11116 9991 12538 10750 11152 11802 9569 12559 12647 12891 12984 12724 12318 11407 10355 12151 14181 15004 14635 14530 13827 14676 15437 16448 16283 16323 16388 16510 16830 16648 15847 14119 15479 15633 14307 14986 17378 15929 14581 15644 16384 16368 14384 12474 11650 11687 12431 12985 13871 15688 17140 17542 16423 18242 18536 17529
1118 978 1095 1193 1044 1062 1106 1110 1040 960 1125 1130 1059 972 1003 988 1031 961 949 894 1120 957 873 1019 885 957 967 887 799 860 841 863 855 723 727 813 636 698 749 684 595 583 533 625 878 600 600 669 567 522 556 580 508 497 540 496 503 529 1292 2568 2533 2717 4255 7694 8417 8837 8707 8303 8650 8407 8724 8810 8975 8868 8764 8782 8289 8436 7687 6662 5601 4982 8849 12002 11692 11486 11185 10661 10111 7500 5292 6306 8282 9433 9914 9983 10876 11233 12155 12628 13541 13207 12414 12120 12440 12805 12278 11909 11675 11562 11565 11340 11127 10987 11098 11334 12018 10001 8970 10219 11384 10983 10080 12129 9684 9786 10923 12734 12072 12130 12339 12556 12999 12621 12024 10707 10596 13268 14714 14946 14444 14786 14820 16499 15971 16088 16519 16675 16909 16830 16835 15359 15344 15750 15591 14124 15741 17734 16224 14647 15667 16595 16472 15134 12403 10341 9775 10253 11177 12995 15761 17049 16852 18552 18838 18365
1147 1120 1136 1017 1035 1119 1059 1127 1027 923 1028 975 1101 1015 966 1008 930 1005 872 915 851 967 998 936 957 998 907 829 838 821 755 855 762 704 651 731 632 627 684 540 610 570 570 649 564 555 552 531 556 502 625 462 569 513 513 485 448 527 999 2726 2586 2692 3703 7855 8698 8962 9014 8953 8689 8741 9006 9075 8877 8952 8823 8324 7783 6426 5627 4914 8266 13300 13403 11653 11413 11053 10676 9209 5796 4527 6945 8618 9518 9861 10676 10993 11122 11443 11933 12354 12474 12551 12835 12464 12060 11508 11327 11240 11041 10764 10634 10999 11157 11296 11101 11615 11159 9088 9081 11028 11186 11455 10175 11993 9470 10617 12884 11551 10448 9946 9795 10782 12420 12926 12934 12300 11391 10671 11865 14179 14984 14977 15375 15394 16836 16458 16215 16626 17437 17239 16578 16550 14922 15961 15188 15160 13624 16947 18395 16272 15432 16328 16822 16749 15683 14221 12522 11566 11471 11678 12957 15579 16546 18796 18921 18890
1021 1039 1112 1102 1062 1093 1085 1140 1033 1004 1023 1030 1054 968 1011 997 983 840 1045 915 936 936 1029 843 906 937 867 858 841 824 826 875 858 689 760 811 736 656 651 592 662 616 649 564 482 461 513 556 582 544 595 489 513 423 538 492 527 561 830 2840 2727 2622 3693 7855 8650 9057 8949 8845 9153 9118 8918 9081 8505 8737 8178 7182 5453 4930 8652 13900 14723 13490 13293 12677 12103 10254 7318 4425 4947 7104 8756 9792 10212 10717 11059 11556 12309 12511 12656 13060 13514 13428 13316 12603 12361 12000 11879 11508 10938 10859 10661 10799 11588 11900 11183 11693 9410 9438 9778 11053 11378 11327 10740 9619 10452 13205 11916 10607 9865 9712 10378 11089 12067 12911 12889 12667 12686 13511 13864 13420 14133 14824 15395 15002 16615 16489 16088 15999 17130 17389 16829 16083 15725 15755 15968 15759 14013 15348 17949 17915 15443 16261 16822 16595 16449 15519 14947 13877 13207 13558 13301 13535 15422 18764 19189 19448
1177 1011 1071 1155 1197 1046 1127 1095 1144 1100 1094 1147 1084 1011 974 1005 1005 1058 958 968 946 936 905 895 957 776 908 712 784 774 836 781 718 646 741 669 693 707 647 620 597 567 527 600 470 531 520 457 526 542 489 451 494 520 466 473 482 489 917 3058 2902 2459 3501 7835 8914 8845 9170 9403 9142 9107 8797 8986 8367 7468 6585 5025 7601 13867 15724 13918 13091 11750 10673 9331 6554 4401 5469 6451 7844 9084 9348 9622 10699 11562 12160 12553 12596 13422 14038 14081 14834 15032 15341 15135 15051 14184 12766 11974 11543 11655 11767 12364 11741 11224 10912 9619 8298 9419 10186 11212 11711 11053 9770 9973 13043 12356 11028 10333 10215 10322 10519 11243 11904 12493 13130 12752 13385 13367 14584 15196 14329 14210 15012 15604 14523 16537 16594 15923 16627 17546 17129 15872 15654 14992 15838 16041 15233 13943 16829 18232 16377 16084 16507 16811 16633 15999 15423 14083 13683 13059 13282 13416 15514 20092 19759 19725
1025 1057 1071 1221 1119 1046 1014 1033 1100 1071 1112 1084 1176 1023 1008 972 1101 1001 936 1031 978 780 885 886 867 739 880 811 735 729 656 718 660 674 707 684 772 623 620 625 704 636 527 488 495 493 511 500 551 506 460 476 485 483 464 464 515 470 627 3223 4457 2513 3225 7358 8834 8928 9176 9314 9175 8900 8513 7846 6843 5315 6137 13182 16108 15544 14356 12562 10468 9513 7312 4428 4837 6245 7696 8933 9761 9872 10162 10375 11134 12039 12884 13378 13498 14177 14843 15382 14869 16007 15630 15750 15812 16027 15756 15309 14862 14281 12938 12638 12362 12096 11249 9074 8199 8854 10404 11528 11902 10976 10229 12840 12250 11340 10549 10009 10457 10491 10959 11461 12009 12520 14049 12957 13767 13413 14926 15954 15810 15042 13078 13846 14682 16658 16479 16146 15931 17176 17457 16540 15418 15542 15478 16218 15448 14307 16093 18132 18330 15709 16361 17277 16413 15387 13633 12638 12800 12640 12718 13493 18910 20199 19362 19556
1136 1098 1168 1119 1187 1152 1144 1206 1173 987 1042 1049 1011 1109 1017 971 960 883 968 936 957 854 926 897 796 819 801 686 758 723 704 823 760 726 712 749 661 592 616 503 576 709 588 540 549 591 500 506 569 513 441 474 518 411 480 471 496 444 616 2548 2539 2325 3095 6711 8928 9159 9426 9235 8849 8429 7125 6120 5144 9767 15877 15638 14476 12807 10964 9914 8455 6296 3646 4771 6185 8835 9840 9823 9772 10317 10547 11118 11552 11825 12839 14168 14628 14983 15307 14837 15443 15074 15800 15305 15219 15459 15812 15306 16087 16039 15593 14746 13386 11879 10153 8905 9369 8346 10697 11687 12050 10626 12706 12806 11582 10351 10052 9982 10585 10439 11447 11909 12331 13234 13751 13985 13594 13273 13919 15861 16164 15969 15904 14786 14824 15500 16294 16441 15368 16392 17714 16859 14792 15599 14758 15766 15875 14939 14816 17012 18132 16169 15996 16944 16640 14176 11572 12388 11972 12413 13921 17480 20731 19900 19800 19867
1067 1179 1115 1015 1136 1127 1132 1076 1178 1136 968 945 1136 1053 917 1047 991 968 841 915 915 905 835 826 848 781 814 784 719 839 756 798 783 736 731 679 592 671 616 686 591 678 657 468 556 535 471 515 504 556 527 518 508 401 471 444 486 495 580 2132 2343 2398 3062 6878 9254 9287 9098 8575 7554 5915 4922 6263 11134 13109 12645 11672 11075 10751 9491 7233 4498 4083 5683 7138 8235 9639 10285 10319 10013 10498 11213 11545 11757 12395 12838 13918 14909 15028 15105 15122 15392 15315 15298 15587 15117 15390 15356 15271 14792 15718 15722 16151 15426 14332 12198 9342 10687 7989 10869 11731 11114 12765 13003 12007 10483 9586 9339 9390 9805 11063 11960 12295 13030 13954 14496 14665 13139 14032 13209 15786 15972 16025 16204 15754 15267 14226 16352 16325 16156 15397 17294 17536 15930 14894 15155 15014 15869 15469 13718 16296 18003 16628 16118 16675 15442 11559 11685 12614 13709 14942 18229 20788 20846 20433 19827 18791
1166 1168 1184 1085 1065 1065 1083 943 1047 1101 922 1068 1053 1028 1003 872 948 830 810 811 885 886 857 809 838 732 667 778 704 708 722 750 773 749 679 721 712 607 530 536 660 878 567 547 455 480 480 469 520 430 483 429 445 515 505 460 451 520 475 1660 2260 2217 2737 6761 9029 9063 7820 6548 4896 6409 9793 11203 11228 11220 11050 10760 10249 8788 5564 3743 4866 6058 7680 8785 9227 9218 9278 9991 11071 11122 11249 11427 12133 12676 13467 13993 14165 14514 15160 15007 14858 15505 15131 15128 15273 14872 15424 15347 14800 15108 15752 15486 15576 14957 13670 11190 9161 8179 11041 11536 12043 12825 11693 10486 9359 9940 10993 12321 12796 12560 12805 13276 13974 14537 15018 15018 13217 13648 13493 15630 15216 16018 15755 15473 15512 13757 15604 15634 15544 15203 15509 16883 17299 14302 15731 14646 15313 15604 14739 15593 18084 17357 16169 16648 14546 10980 12238 14266 15637 18922 20301 20395 20098 19901 19327 18578
1044 1102 1093 1161 1127 1070 1064 1059 1171 992 911 943 986 906 938 883 840 852 853 749 854 896 786 938 860 784 729 778 704 660 750 773 796 651 716 694 634 686 564 582 706 603 547 535 535 533 442 547 476 518 525 463 498 557 460 477 468 449 449 1414 2134 2152 2860 6039 8386 7293 5641 5443 9630 11783 11339 11220 11322 10837 10464 9647 7308 4231 4112 5480 7273 8689 9469 9402 9206 9580 9826 10479 11090 12321 12490 11710 12694 13347 13797 13882 14461 13840 14444 15098 14965 14293 15518 14960 15599 15224 15128 15238 15424 15177 15040 14372 13840 13385 12775 11113 8238 8394 10593 12131 12437 11406 9923 10709 12233 13825 14709 14484 14106 13900 13623 13454 14219 15001 15434 15009 13262 14186 13721 14636 14710 15398 15435 15177 15295 14465 14102 15615 15404 15476 15232 15921 17101 15131 14541 15583 14116 15766 15094 14634 17860 17324 16169 16084 14187 11330 13424 16056 19537 20516 21765 21589 20775 20705 19835 18100
1088 1132 1054 1238 1065 984 1028 1047 1019 945 966 997 950 818 1003 894 819 883 873 843 824 766 799 759 762 725 778 675 727 807 660 679 665 595 740 708 676 622 473 615 540 511 565 508 595 451 511 476 474 447 515 533 435 495 512 424 475 465 500 1196 2160 2079 2306 4330 6154 5007 7930 11391 11424 11117 10990 11075 10864 10217 9193 5760 4027 5176 7255 9198 9665 9560 9221 8992 9458 10026 10399 10806 11255 11899 13170 12619 12018 13280 13602 13636 13975 14196 14484 14705 14622 14333 15013 15126 14888 14671 14807 14671 14914 14513 13843 12151 11675 11593 11782 11177 8892 8832 11094 12172 10764 10080 11657 12000 11859 11014 11701 12053 11864 13156 13379 13419 13641 14795 15286 14142 12883 14122 13175 14294 14353 14636 15380 15848 16251 15435 13587 16202 16285 15659 14775 14989 15999 16378 13833 15630 14289 14520 14949 13403 17317 16764 16215 15962 13641 11565 15617 18640 20813 20242 21354 21650 20863 20499 19314 16477
1181 1028 1187 1065 1021 1125 940 916 890 945 920 997 1017 894 937 1011 862 811 802 730 712 826 829 732 774 846 665 704 746 760 641 712 642 583 768 634 567 509 552 576 612 502 589 489 531 522 503 457 482 471 541 461 382 417 416 423 448 439 447 1013 2354 1877 1860 2893 5640 9340 10904 11151 10820 11237 11187 10719 10068 8972 5125 3521 5057 7424 9568 10382 10356 10006 10175 10073 10488 10623 11563 11682 12130 12477 13053 13578 12181 13078 13045 13231 13840 14230 14441 14484 14417 14603 14527 14359 14223 14344 14114 14355 13878 13472 12124 10169 10109 10109 10314 9398 9244 10481 11690 10024 8471 8810 9516 8762 8246 8661 9324 10154 10133 10386 11790 13185 13853 13578 14545 14914 13237 14235 13543 14704 14947 15094 15805 15732 15792 15089 14012 15490 16183 15835 13382 14016 16833 15883 15091 15408 14860 12232 13584 12993 16264 17275 16549 16333 13321 12562 17800 19641 20232 19654 20231 20858 20383 19961 17335 16919
1181 1314 1225 1165 996 967 1023 937 922 818 930 884 862 883 969 777 778 717 771 845 766 809 722 791 774 632 685 708 589 698 665 702 614 666 643 704 564 534 534 549 502 535 480 506 531 467 457 508 482 454 444 460 443 390 458 405 431 430 446 893 2023 2105 4288 8015 10237 10256 10709 10964 10702 10745 10416 9813 7815 4276 4336 6619 8678 9450 9447 9811 10556 11491 11085 10933 11389 11263 11423 11770 12472 12666 12844 12962 13402 13106 12370 13300 13832 13307 14145 13773 14238 13899 13687 13517 13212 13662 13535 13110 12838 11160 9934 8771 7935 8144 7772 6676 9235 11039 9441 8617 8325 7885 8196 8745 9681 10523 11066 12907 13536 13166 12743 13308 14163 13880 14432 14634 13604 14406 14982 14149 15277 15889 15575 15519 15019 15205 14582 13984 15803 15586 13324 16098 16784 14979 15032 15691 15458 12975 11382 12161 15812 17360 17023 16010 12929 14349 19858 20914 20278 21059 20933 20761 19816 17755 17105 16594
1132 1059 1090 1046 910 883 999 1042 888 875 941 972 872 937 787 873 749 780 771 794 736 729 791 745 826 742 651 670 655 736 674 614 712 616 612 622 564 443 576 573 526 535 551 496 467 413 474 525 524 487 547 451 424 397 465 448 464 549 850 2255 5598 8483 10049 10136 10204 10257 10360 10056 10170 9822 8434 5549 3894 5153 7322 8609 8981 9201 9715 9994 10239 11520 11807 11588 11622 12382 12035 11731 12534 12584 12829 13074 12880 13759 13083 12517 13030 13047 13478 13275 13620 13172 12941 12018 12179 12652 12660 11385 10433 9230 8303 8494 9291 9453 9015 7041 8619 8335 9055 9690 11147 11836 11948 12122 12082 12177 11244 10526 11753 13429 14121 13886 14544 14287 14156 14263 14277 14663 15316 13805 14622 15677 15569 15547 15343 14786 14657 13201 15300 15395 14629 17126 16321 14243 14567 15990 15206 14279 12171 11032 16384 17611 17222 15514 12460 17124 20889 21448 21593 21540 21516 19933 18184 16530 14535 13454
1080 1008 977 910 919 987 1007 876 852 932 829 807 872 937 883 799 842 833 733 766 719 732 821 657 622 714 641 627 660 665 707 642 638 616 676 655 633 504 603 556 491 471 504 458 441 492 482 480 479 461 443 468 397 396 517 568 1073 3170 7228 10357 10596 10485 10512 10580 10573 10507 10379 10059 8963 6118 4191 5339 7110 8135 8397 8159 8692 9208 9687 10321 10532 10909 11474 12799 12217 12478 12512 12225 12858 12563 12866 12731 13018 13685 13381 12849 12162 13041 12525 12878 12472 12793 12384 11453 11679 11051 11051 9520 9031 9082 8388 8865 11442 11868 9863 9066 9588 11187 11919 12708 12732 13162 13225 13414 13367 13685 13277 11896 10369 9936 10755 12611 13376 13723 13242 13490 14063 15506 15864 15199 13226 15350 15825 15510 15112 15306 14693 13402 15569 15604 15146 16952 16535 14116 14930 15151 14422 13714 12201 10651 16364 17895 17094 15439 13529 18930 21070 21449 21403 21270 20579 18148 17180 16665 15550 14654
1145 982 1014 972 992 987 1030 1038 932 918 829 851 851 830 723 841 780 854 712 665 719 722 725 748 733 641 737 646 585 702 698 657 607 622 536 573 552 864 663 562 542 566 496 556 562 508 471 533 461 434 407 406 440 500 1050 3505 7938 10959 10854 10801 10818 11015 11220 10649 10430 10345 9686 8035 4166 4661 6754 8279 9083 9225 9132 8919 8801 9628 10006 10394 10765 10959 11377 12380 12810 12987 12675 12591 12633 12507 12717 12810 13181 13147 12599 12338 12529 12520 12124 11216 12154 12238 12057 11542 10615 9760 9670 8661 11659 13738 12736 10561 8984 6986 8732 9718 10434 11280 11710 11516 11122 11082 10958 11568 12302 13281 13330 12808 12730 12242 10871 10045 9929 10564 10978 12250 13321 15045 15685 15235 13932 15172 16023 15368 15124 15250 14917 14254 15409 15616 14938 16247 15437 13822 15224 15052 14462 13855 11743 12092 16713 17341 17169 15040 13715 19923 20849 20990 20414 19275 17346 16387 17410 17047 16176 14472
1187 1165 996 980 992 856 890 842 795 750 873 763 840 851 831 801 740 743 726 655 739 722 716 651 742 670 636 679 618 633 661 666 551 676 573 570 495 690 544 535 506 504 450 483 429 508 471 470 443 433 442 562 1242 3400 7998 11125 11310 11085 11092 11246 11262 11007 10786 10379 10059 9567 6686 3877 5059 6992 8211 8870 9639 9915 9983 10127 10318 9795 10324 11108 10990 11318 11011 12182 12527 13268 12325 12190 12653 12182 12518 12342 11980 12619 11879 11757 12389 12490 11655 11154 11483 11601 11841 10853 9986 8819 9667 13155 13882 14094 14323 13101 10654 8592 8920 8264 7977 8340 8836 8799 8669 9115 9733 10751 10999 12018 12329 12359 12799 12887 13064 12636 11746 11063 12540 12994 13694 13196 14572 14761 14640 14303 15095 15331 15133 14811 14843 14321 14582 16220 14663 15528 13942 14250 15028 13665 12944 13873 11626 13892 16640 17237 16538 13624 15073 19443 19567 19421 17050 15157 15826 16585 16887 16769 16456 13457
995 1040 1033 967 952 843 761 875 862 773 807 731 808 872 757 790 740 631 544 669 672 667 603 665 694 679 674 575 637 558 555 671 594 573 627 597 567 618 446 506 487 467 494 430 455 463 479 547 434 572 1469 4951 8995 11819 11881 11465 11239 11254 11194 10861 10479 10436 9988 9558 8258 5082 3941 5576 7170 7678 8608 9172 9915 10605 10985 10993 10686 10197 10338 10885 11272 11685 11639 12202 12312 12497 13102 12253 12833 12513 11706 11252 12051 12984 11857 10877 12182 12308 11214 10728 10754 10757 10706 10023 9290 10236 13825 14087 14018 14111 13653 13212 10360 8870 8456 7963 7463 7645 8485 8784 9356 10178 10575 10412 10295 9877 10617 11137 12177 13104 13636 12986 9668 11081 13200 13644 13304 13356 14777 15183 15469 14505 15435 14968 14444 14084 14094 14619 14001 15871 14520 14606 13001 14550 14658 15342 15389 13803 12554 15409 16332 17331 16969 13709 16562 18283 19279 18859 17650 15674 15976 16585 17053 17035 16259 12969
1136 1102 1033 871 821 901 945 1932 3373 1293 763 797 787 631 790 648 751 733 645 709 623 647 739 646 698 646 726 562 661 586 647 607 658 564 651 621 565 633 598 462 469 397 554 455 410 444 470 547 1118 3925 9463 11758 11853 11263 11036 11102 10734 10938 10759 10683 10394 9724 7910 7697 6406 5720 6610 7627 8295 8608 9518 10000 10065 10808 11023 11369 10818 10633 10565 10209 10251 10714 10803 11181 11970 12718 12987 12718 12466 12164 11030 11962 11786 12332 11576 10874 11462 11883 10882 9664 10170 9945 9675 9669 11356 13987 13919 14129 13571 12630 10877 9416 8324 8443 7961 7563 7776 7710 8131 8614 8511 8542 9012 9141 9770 10485 11508 12139 12264 12634 12547 13436 13694 13823 13675 13564 14084 12091 16246 14768 14672 14910 13570 13876 14032 12870 13376 14177 14190 15501 14286 13637 14207 14839 15894 15882 15003 13194 14954 15710 15827 16229 15864 14097 17881 19124 19803 19578 18905 18391 17348 17581 17244 16805 15668 12618
1065 1021 967 907 987 901 2606 7331 9738 4731 731 721 681 704 728 638 621 675 699 623 618 745 583 665 603 617 622 618 586 564 579 631 646 609 597 639 538 625 497 513 441 518 492 525 489 487 782 2704 7159 11352 11585 11371 11246 11070 11490 11093 11006 10725 10462 9831 9120 7791 9300 11277 12009 11622 9151 9106 9233 9375 9998 9837 10593 10998 11340 11272 11092 10932 10932 10349 9753 10719 10757 11882 11848 12016 12335 11999 11747 11764 11219 12259 12326 12201 11353 10240 11399 11542 10436 10058 9965 8966 9757 12894 14041 14444 14233 14240 13007 9977 10590 8676 8195 8290 8638 8462 8567 8264 8204 8754 8750 9381 10306 11773 12852 12869 13018 11948 12347 12593 12904 13166 13571 13912 12938 13869 13961 12914 14494 15652 14250 14865 13784 13905 13521 12029 13173 13603 14200 15004 14352 13570 14619 15643 15910 15602 14518 14765 15251 14803 15094 14984 14460 15717 19627 19512 19203 19279 19129 18720 17959 17625 17487 16244 14349 12308
977 960 1004 987 819 1245 6115 10511 10668 8191 1516 721 606 641 624 710 600 584 569 603 667 671 530 603 636 669 717 684 586 583 643 612 618 588 612 547 491 524 542 558 467 527 420 541 749 1816 5995 11042 11577 11542 11122 11349 11160 11044 10888 10656 10563 10093 9278 8533 9592 12354 12363 11246 12257 13679 13300 10464 10025 9922 10234 10686 10784 11677 11883 11672 11324 11525 10862 10271 10111 9918 10100 11189 11533 11240 11273 11810 12120 11751 10871 12078 12145 11726 10837 10178 11034 10833 10475 10441 10080 10882 13338 14413 14362 14588 14217 14326 13927 10008 8219 6848 6433 6703 7696 9512 10612 10226 11407 11689 11382 11630 11633 12005 11687 12182 12387 12414 12347 12472 12446 12825 12939 13493 13332 13367 13379 13871 8432 13730 15152 13667 14162 13479 12192 11288 12493 13298 13668 12998 13926 14569 15357 16285 15814 15359 15646 17249 18028 17001 15379 15560 16665 18263 18957 18999 18445 18526 18561 18603 18368 18121 17545 15685 12413 12136
939 1021 992 963 808 1857 8218 12159 11784 9623 5774 2150 810 572 576 627 600 605 559 633 578 690 588 651 617 622 656 586 555 588 603 539 536 543 486 484 446 480 522 476 492 508 587 1380 4191 9437 10964 11171 11163 11208 11096 11271 11036 10734 10639 9571 8814 9252 10787 12371 13186 14103 14543 13917 12156 13901 13953 13944 11584 11352 11057 10910 11020 11538 12446 11735 11508 11219 10875 10628 10133 9831 9719 10615 10824 11176 11929 12164 12222 11410 11461 11804 11394 10590 10355 10619 10779 10142 10464 11588 12662 14600 14927 14422 14364 14657 14335 14074 12622 8049 5929 5868 6230 6602 7543 9461 9699 11555 11443 10504 11399 11953 11724 11855 11928 11890 12002 12206 12319 12226 12689 12852 12399 13187 13519 13218 13587 13299 13419 15241 14188 13784 12595 12316 10591 11719 11855 12796 13205 11648 14301 14918 16174 15797 15833 16759 14597 17338 18070 17708 17253 17834 18596 18891 18978 18616 18262 18166 18815 19107 18891 18387 17370 14578 12135 12234
989 1083 1040 880 901 3079 8354 12271 12912 11445 9276 7738 4239 1633 854 682 605 479 672 500 544 607 588 622 598 556 552 651 601 551 612 555 543 531 538 446 455 471 522 582 729 1481 3845 8025 9993 10357 10010 10764 10887 10717 10704 10993 10349 9801 8562 9411 11348 12293 13068 13399 14018 14628 14983 15059 14180 14029 14814 15119 13459 12709 12140 11067 10848 11500 12206 12066 11647 11483 11315 11301 10707 10129 10142 10268 10979 11656 11689 11656 11514 10644 11179 11346 10770 10326 10853 11176 10062 11075 13251 14098 15045 15079 14734 14810 14532 14389 13790 12182 7736 5644 5678 5861 6198 6789 7889 9458 10496 10884 10867 11204 11348 11578 11143 11519 11735 11610 11744 12060 11370 12182 12312 12654 12773 12983 13056 13438 13631 13282 13774 15961 12609 15376 12708 11397 11904 11756 11078 12465 12058 12039 14920 15814 15069 15642 17060 15351 15057 17275 18526 18368 18221 18363 18452 18663 18758 17956 18057 17588 18627 19410 19039 17706 15765 12805 11805 11929
1009 895 844 843 772 3091 7263 11296 13597 13442 12401 11197 9310 7188 4836 1670 584 569 573 549 496 530 622 693 566 562 549 568 573 524 567 454 506 576 466 464 533 566 688 1468 3699 7731 9438 9541 9749 9984 10185 10128 10528 10206 10240 10221 9347 9109 12261 12720 13265 14088 14308 14501 14653 15289 15466 15820 15887 13860 15144 15111 15271 13621 12774 11790 11030 10992 11361 12262 12078 11636 10238 10962 10836 10109 10101 10756 11332 11466 10940 11775 11549 11332 11249 11215 10338 11023 10606 10560 12316 14047 15027 15605 15238 15129 15062 14995 14524 13331 10579 6474 5564 5697 5914 6420 6993 7737 8668 9294 10051 10174 10331 10405 11128 11229 11399 11476 11812 12022 11790 11941 11982 12155 12243 12801 12747 12931 12852 13012 13183 13253 13732 16209 15899 14420 13237 12180 11352 9008 11087 11444 11122 14556 15131 14592 15512 15138 15691 14444 16059 17284 17813 17958 18262 18445 18287 18226 18326 18084 17982 17874 18330 18240 17224 15845 14095 12193 11603 11433
960 931 749 632 749 2261 5659 9551 12514 13898 13549 12698 11755 10611 9447 7200 3337 1458 841 676 603 463 507 570 537 599 521 508 478 530 545 606 594 477 475 508 604 1364 3371 7686 9116 9219 9306 9576 9759 9664 9839 9929 9925 10146 9681 8483 8408 11297 13327 14884 15007 15157 15418 15511 15425 15914 15702 16174 16571 14714 14968 15406 15330 14582 12701 12138 11454 11210 11080 11603 11929 11564 10084 10084 10848 10898 10873 10592 11134 11117 11201 11834 11651 11217 10517 11009 10725 10375 11533 14205 15024 15074 15210 15193 14767 15102 15003 14483 12008 8325 5611 5634 5564 5733 6658 6969 7559 8302 8988 9201 9797 9967 10021 10068 10532 11118 11459 11433 11827 12026 11722 11821 11888 12008 12189 12615 12333 12556 12765 13160 12868 13130 13035 15961 16477 14966 13706 13075 9964 10546 10427 9587 13155 13464 14069 15529 15390 15518 15098 15939 16458 16892 17902 17758 17598 17878 17691 17618 17924 17769 17275 17400 17588 16726 16092 14594 12619 11982 11567 11627
775 762 737 878 622 1795 4919 6931 10496 12681 14241 13918 13742 13080 11702 10769 9139 7570 5699 4075 2713 1611 1024 722 556 543 568 434 496 539 555 570 513 466 580 907 2692 7051 9072 9331 9186 9376 9297 9402 9256 9407 9377 9348 9330 7878 6782 9390 11664 12261 13188 13952 15591 65533 65533 16603 65533 16615 16556 65533 65533 15726 14068 15027 15390 15784 12416 12326 11826 11181 11226 11335 11045 10811 10247 10405 10842 11050 10842 10586 11160 11027 10794 10886 10969 10819 10877 10977 11119 13334 14812 14912 15387 15374 14756 15032 15109 15185 14165 11013 6403 5622 5638 5670 6181 6701 7341 7568 7703 8513 9172 9369 9591 10102 10496 10454 10552 10762 11595 11757 12057 12232 12052 12022 12319 12533 12552 12710 12515 12487 13148 13353 13012 12491 12347 14500 14190 14308 14536 14976 15163 15706 15204 14325 13707 12631 12998 13701 14899 16116 16497 16754 17203 17070 17382 17061 17548 17112 17396 17268 16988 17243 16785 16204 15788 16051 15487 13560 12308 11830 11507 11179
