0.646498 0.638437 0.630968 0.631284 0.612676 0.608105 0.590999 0.601404 0.589974 0.565275 0.553071 0.531882 0.555865 0.5309 0.521394 0.517594 0.517491 0.502465 0.491092 0.487529 0.472942 0.469272 0.462401 0.455619 0.443966 0.437591 0.433721 0.422577 0.411587 0.405892 0.404335 0.387507 0.385014 0.37801 0.371359 0.366172 0.350551 0.352106 0.335352 0.329565 0.319543 0.315664 0.301843 0.299977 0.277863 0.277067 0.270518 0.26301 0.262283 0.247393 0.243246 0.236274 0.223791 0.221046 0.212998 0.208621 0.202306 0.19438 0.209624 0.2373 0.230202 0.233869 0.235593 0.242124 0.231125 0.220954 0.211164 0.201189 0.191727 0.181908 0.171386 0.160576 0.151115 0.141404 0.127853 0.0978866 0.0716686 0.0601001 0.054691 0.0492479 0.0436623 0.0382683 0.0329807 0.0274594 0.0217264 0.0154211 0.0100231 0.00517442 0.00046904 -0.00422145 -0.0089121 -0.0136102 -0.0182802 -0.023095 -0.0277231 -0.032594 -0.0371172 -0.0418418 -0.0465241 -0.0514444 -0.0562743 -0.0610443 -0.0658215 -0.0705694 -0.0751636 -0.079928 -0.0845878 -0.089148 -0.0936919 -0.0972929 -0.101733 -0.106946 -0.111561 -0.116665 -0.121903 -0.126687 -0.132237 -0.138135 -0.144117 -0.149228 -0.153887 -0.159963 -0.163475 -0.164359 -0.166574 -0.171303 -0.176698 -0.180785 -0.184895 -0.188474 -0.191742 -0.194095 -0.19864 -0.204477 -0.208089 -0.214355 -0.215799 -0.222365 -0.226341 -0.231063 -0.237227 -0.242534 -0.246321 -0.250633 -0.260561 -0.266044 -0.271711 -0.277865 -0.284456 -0.288736 -0.294336 -0.298859 -0.302409 -0.310866 -0.319202 -0.326727 -0.333049 -0.343201 -0.349244 -0.355601 -0.360904 -0.368746 -0.373647 -0.37836 -0.384536 -0.392239 -0.399926 -0.408511 -0.418444 -0.424325 -0.43576 -0.447051 -0.461463 -0.469042 -0.473543 -0.479389
0.643458 0.63498 0.632615 0.618925 0.615048 0.606556 0.603965 0.601467 0.590454 0.556465 0.557484 0.549944 0.511603 0.526545 0.519577 0.524321 0.509728 0.498278 0.489925 0.483913 0.470949 0.464582 0.459214 0.453641 0.449332 0.43752 0.426274 0.424286 0.414939 0.404941 0.394186 0.38552 0.378976 0.378378 0.369212 0.360675 0.353908 0.34325 0.339517 0.327821 0.323361 0.307772 0.317392 0.303721 0.282356 0.27513 0.293738 0.260759 0.253965 0.250545 0.244096 0.234022 0.226121 0.222267 0.215535 0.210468 0.205883 0.201458 0.218765 0.229339 0.21045 0.229965 0.23492 0.238623 0.228538 0.218732 0.209611 0.201085 0.18955 0.179253 0.169472 0.159716 0.148504 0.125291 0.0883361 0.0717359 0.0648519 0.0600295 0.0541304 0.0487542 0.0436707 0.0380229 0.0323128 0.0256171 0.0195558 0.0146142 0.00979905 0.00515029 0.00046648 -0.00415752 -0.00885878 -0.0134611 -0.0181659 -0.0229754 -0.0276154 -0.032256 -0.036905 -0.0417775 -0.0465255 -0.0512448 -0.0559832 -0.0607761 -0.0655664 -0.0707355 -0.0753798 -0.0798251 -0.0848971 -0.0896838 -0.0949664 -0.0998672 -0.103298 -0.106805 -0.111502 -0.116327 -0.121231 -0.125922 -0.132131 -0.13781 -0.143964 -0.148687 -0.153565 -0.159425 -0.160195 -0.161415 -0.166344 -0.170609 -0.176078 -0.180775 -0.183102 -0.186939 -0.188815 -0.193976 -0.197808 -0.202282 -0.207788 -0.213401 -0.215901 -0.220636 -0.228876 -0.231231 -0.236747 -0.241049 -0.248995 -0.251291 -0.257717 -0.265363 -0.270359 -0.276264 -0.284183 -0.289302 -0.29452 -0.300159 -0.304945 -0.308833 -0.317634 -0.324789 -0.329696 -0.339614 -0.350591 -0.356605 -0.362933 -0.36987 -0.372419 -0.379709 -0.384927 -0.39194 -0.402533 -0.415432 -0.426492 -0.435104 -0.444454 -0.455968 -0.463181 -0.468679 -0.472167 -0.478564
0.637898 0.630175 0.634946 0.618126 0.612179 0.607934 0.597977 0.562593 0.593326 0.561971 0.549521 0.54537 0.53352 0.531265 0.524988 0.515052 0.509082 0.499643 0.494041 0.480312 0.474944 0.466213 0.459143 0.452499 0.451616 0.438814 0.42857 0.423766 0.408827 0.399982 0.394873 0.386915 0.376544 0.370945 0.368499 0.348145 0.353618 0.335241 0.339242 0.331233 0.317464 0.31944 0.297281 0.296636 0.278185 0.280216 0.26983 0.262852 0.258146 0.248705 0.244288 0.237428 0.231267 0.222535 0.21529 0.209167 0.203551 0.197625 0.193458 0.230367 0.233561 0.235659 0.231067 0.235315 0.226076 0.21646 0.20752 0.197712 0.18817 0.178248 0.16674 0.150072 0.11071 0.0848477 0.0754896 0.0701081 0.064806 0.0594964 0.0541419 0.048787 0.0432125 0.0371943 0.0298265 0.0240713 0.0190686 0.0144057 0.00975065 0.00512493 0.000466016 -0.00416883 -0.00880566 -0.0134406 -0.018143 -0.0228083 -0.0276531 -0.032207 -0.0368681 -0.0415282 -0.0464548 -0.0512338 -0.0558687 -0.0606676 -0.0656885 -0.0702618 -0.0753236 -0.0798277 -0.0847674 -0.0895465 -0.095164 -0.0999716 -0.104945 -0.10957 -0.11383 -0.117433 -0.121136 -0.125923 -0.131958 -0.138914 -0.143629 -0.14876 -0.153561 -0.15698 -0.15688 -0.161369 -0.165674 -0.170742 -0.17518 -0.178261 -0.181463 -0.185917 -0.1886 -0.193062 -0.197527 -0.20149 -0.206634 -0.212512 -0.215768 -0.220377 -0.228484 -0.231658 -0.236402 -0.240762 -0.245998 -0.251059 -0.257548 -0.267761 -0.27047 -0.275411 -0.281878 -0.289797 -0.29385 -0.298601 -0.306512 -0.308618 -0.316742 -0.324305 -0.330757 -0.336127 -0.350607 -0.356257 -0.362762 -0.368948 -0.374135 -0.377701 -0.385716 -0.396498 -0.414679 -0.424487 -0.433606 -0.44263 -0.450383 -0.454441 -0.459887 -0.463903 -0.471475 -0.47718
0.641922 0.636764 0.620671 0.612908 0.608341 0.600264 0.597752 0.586625 0.583687 0.556871 0.550532 0.545274 0.538903 0.535122 0.523002 0.520576 0.508907 0.500561 0.489052 0.475671 0.476606 0.460614 0.458746 0.446999 0.440205 0.437245 0.426561 0.424257 0.412797 0.403142 0.387754 0.384516 0.37743 0.369192 0.361155 0.349722 0.352162 0.346589 0.337536 0.310826 0.318953 0.29966 0.296648 0.290855 0.285204 0.281126 0.265967 0.264591 0.255069 0.250748 0.248023 0.236932 0.228284 0.223023 0.20915 0.210079 0.199362 0.201553 0.194584 0.240836 0.234551 0.227192 0.229183 0.232664 0.223503 0.215075 0.20421 0.194632 0.184817 0.169075 0.136248 0.101731 0.0861884 0.0807643 0.0754198 0.0694 0.0640779 0.0594555 0.0536584 0.047994 0.040986 0.0335268 0.0285106 0.0235035 0.018904 0.0142547 0.00971792 0.00507 0.000460409 -0.00416033 -0.00878771 -0.0134096 -0.0180487 -0.0226597 -0.0272496 -0.0321246 -0.0366963 -0.0413563 -0.0462755 -0.0511836 -0.0558138 -0.0605762 -0.065163 -0.0704487 -0.075386 -0.0801639 -0.0848593 -0.0895272 -0.0945801 -0.0995636 -0.104867 -0.110193 -0.115069 -0.121208 -0.122926 -0.125826 -0.131857 -0.139663 -0.143482 -0.148569 -0.152023 -0.151859 -0.156169 -0.161239 -0.165319 -0.170284 -0.174427 -0.176717 -0.182054 -0.183986 -0.187558 -0.191194 -0.195722 -0.201206 -0.206227 -0.210459 -0.216893 -0.220184 -0.22984 -0.230563 -0.237035 -0.24101 -0.244562 -0.25152 -0.257314 -0.266304 -0.269714 -0.275751 -0.281693 -0.288531 -0.294358 -0.298401 -0.306063 -0.309559 -0.313854 -0.324932 -0.331219 -0.339136 -0.347514 -0.360076 -0.363425 -0.369525 -0.37595 -0.379351 -0.38729 -0.406197 -0.420998 -0.429266 -0.43556 -0.443144 -0.448674 -0.455936 -0.461076 -0.465662 -0.469896 -0.475921
0.643535 0.625964 0.608336 0.607931 0.604739 0.597142 0.576282 0.581911 0.574796 0.567589 0.554064 0.545685 0.536964 0.531863 0.520174 0.520871 0.508282 0.505114 0.489791 0.479304 0.473347 0.463881 0.457186 0.454036 0.438459 0.440546 0.421665 0.411438 0.409888 0.403334 0.390503 0.383131 0.380714 0.366067 0.359988 0.34347 0.336916 0.310023 0.331276 0.334635 0.303014 0.295796 0.302213 0.292205 0.281101 0.280382 0.266918 0.260167 0.257963 0.254536 0.246854 0.233962 0.227898 0.22087 0.212665 0.210504 0.202906 0.197616 0.191704 0.230782 0.231875 0.226181 0.219014 0.231101 0.222507 0.212871 0.203707 0.186915 0.151304 0.113111 0.0974692 0.0908254 0.0856948 0.0800049 0.0746937 0.0696585 0.0642871 0.0589252 0.052631 0.0439762 0.0379275 0.0328938 0.0280717 0.0234245 0.0188305 0.0142181 0.00966993 0.00508399 0.000460209 -0.00413646 -0.00874197 -0.0133256 -0.0180313 -0.0226138 -0.0272305 -0.0320514 -0.0367771 -0.0413601 -0.0461337 -0.0508132 -0.0556722 -0.0606126 -0.0653557 -0.0699048 -0.074942 -0.0797124 -0.0847546 -0.0899274 -0.0950747 -0.0996972 -0.105007 -0.110142 -0.115397 -0.120384 -0.125259 -0.128217 -0.131827 -0.138561 -0.143521 -0.147809 -0.147459 -0.151985 -0.155921 -0.161243 -0.165055 -0.168643 -0.172037 -0.174359 -0.177409 -0.18196 -0.18652 -0.191089 -0.195667 -0.199865 -0.205654 -0.209639 -0.215873 -0.21774 -0.228897 -0.231126 -0.23456 -0.240931 -0.245021 -0.251229 -0.256385 -0.263783 -0.27289 -0.275947 -0.282871 -0.289344 -0.295573 -0.29924 -0.306025 -0.311408 -0.313396 -0.321407 -0.329704 -0.336193 -0.346923 -0.358204 -0.365928 -0.368619 -0.375784 -0.381294 -0.388967 -0.413321 -0.423909 -0.430284 -0.437211 -0.443352 -0.447083 -0.453032 -0.45835 -0.464225 -0.470902 -0.476487
0.643085 0.631888 0.617216 0.600429 0.590895 0.588975 0.586611 0.588528 0.570578 0.567811 0.553585 0.549967 0.537478 0.537178 0.522952 0.520336 0.509691 0.5065 0.494374 0.490578 0.482458 0.474807 0.456139 0.447079 0.436967 0.426256 0.418505 0.42603 0.399203 0.400785 0.39457 0.384834 0.374512 0.365023 0.361536 0.351233 0.337372 0.339364 0.311226 0.300072 0.30003 0.302721 0.290988 0.281178 0.285657 0.270555 0.267194 0.259878 0.234092 0.242693 0.234851 0.226458 0.223902 0.220326 0.212686 0.204682 0.200749 0.189468 0.186308 0.217802 0.232112 0.224274 0.215958 0.228617 0.218937 0.207576 0.182263 0.133518 0.108266 0.100814 0.0955592 0.0902609 0.0851437 0.0797665 0.0745751 0.0691947 0.0631018 0.0552104 0.0472946 0.0421051 0.0370077 0.0323316 0.0278804 0.0232646 0.0187422 0.0141247 0.00961442 0.00503603 0.000460141 -0.00412039 -0.0087197 -0.0133485 -0.017933 -0.0226524 -0.0272481 -0.0318941 -0.0367035 -0.0411789 -0.0460414 -0.0508852 -0.0557361 -0.0605867 -0.065447 -0.070405 -0.0752413 -0.0803209 -0.0850911 -0.0898877 -0.0950569 -0.100115 -0.104906 -0.109754 -0.115285 -0.120298 -0.125137 -0.130211 -0.1318 -0.137713 -0.1422 -0.142633 -0.146365 -0.150774 -0.154882 -0.158576 -0.161158 -0.164406 -0.168808 -0.172729 -0.177909 -0.18151 -0.185902 -0.190987 -0.195508 -0.200092 -0.203316 -0.208881 -0.214978 -0.217678 -0.227274 -0.228962 -0.23585 -0.240791 -0.245484 -0.250324 -0.255672 -0.261769 -0.271417 -0.274299 -0.280739 -0.287708 -0.29297 -0.298258 -0.303975 -0.311127 -0.316781 -0.31908 -0.329662 -0.336323 -0.341539 -0.357516 -0.365043 -0.370141 -0.374304 -0.378928 -0.392109 -0.416297 -0.424621 -0.432021 -0.43485 -0.440748 -0.445715 -0.452826 -0.457923 -0.464453 -0.471357 -0.48012
0.645984 0.638156 0.625872 0.600133 0.614054 0.605472 0.598104 0.586982 0.564828 0.564888 0.556128 0.546239 0.534784 0.538748 0.525072 0.52942 0.509454 0.504093 0.492543 0.481844 0.471704 0.471704 0.460036 0.433228 0.446165 0.430691 0.413324 0.418086 0.403045 0.410419 0.380853 0.378598 0.367692 0.369846 0.350239 0.357203 0.347586 0.323246 0.292141 0.308284 0.314231 0.309821 0.290318 0.290549 0.281569 0.281317 0.262676 0.26901 0.251644 0.238171 0.23808 0.227998 0.224284 0.214977 0.208966 0.205525 0.202713 0.195436 0.190449 0.216376 0.232664 0.225074 0.211077 0.219595 0.209301 0.1624 0.12361 0.111247 0.106097 0.100795 0.0959633 0.0896773 0.084476 0.0788071 0.0735757 0.067399 0.0571853 0.0516357 0.0460867 0.0413295 0.0368339 0.0321445 0.0277422 0.0232865 0.0187196 0.0140659 0.00960543 0.00503941 0.000457629 -0.0041386 -0.00870457 -0.0133005 -0.0179353 -0.0225533 -0.0272516 -0.0318051 -0.0367468 -0.041315 -0.0460712 -0.0510115 -0.0557133 -0.0604036 -0.0653688 -0.0702295 -0.0755416 -0.0799968 -0.0852969 -0.0894551 -0.0952118 -0.100072 -0.105237 -0.109734 -0.11547 -0.120551 -0.126515 -0.13141 -0.131912 -0.13733 -0.137973 -0.141767 -0.145903 -0.150419 -0.151964 -0.156088 -0.159794 -0.164235 -0.168585 -0.173221 -0.176586 -0.181773 -0.186326 -0.190304 -0.194971 -0.198983 -0.204178 -0.208887 -0.212955 -0.217925 -0.225285 -0.230104 -0.235784 -0.24059 -0.245344 -0.25025 -0.256085 -0.262829 -0.270604 -0.275616 -0.280572 -0.287383 -0.293963 -0.300852 -0.305966 -0.309951 -0.315834 -0.319389 -0.325666 -0.336285 -0.339899 -0.35476 -0.36499 -0.369901 -0.37727 -0.381937 -0.396032 -0.416516 -0.423739 -0.428688 -0.434662 -0.440975 -0.445521 -0.45134 -0.457831 -0.463698 -0.473048 -0.489644
0.6505 0.633652 0.629714 0.616861 0.60297 0.609807 0.594213 0.589425 0.573438 0.575917 0.544937 0.54401 0.540095 0.527553 0.528904 0.532816 0.527685 0.509839 0.490101 0.485494 0.462267 0.451712 0.446554 0.447028 0.42908 0.427892 0.415505 0.409006 0.405455 0.392382 0.399505 0.376596 0.378721 0.36096 0.360997 0.347994 0.331283 0.316514 0.314634 0.324313 0.30061 0.28824 0.292746 0.282679 0.277545 0.273432 0.265049 0.259111 0.250431 0.242118 0.232175 0.228716 0.222932 0.214488 0.210511 0.196698 0.191308 0.195119 0.191329 0.200413 0.226858 0.223743 0.201872 0.175965 0.145951 0.123083 0.115578 0.110605 0.104548 0.100121 0.0940809 0.0892845 0.0839484 0.0787942 0.0717139 0.0610928 0.0560356 0.050636 0.0457593 0.0412131 0.0368196 0.0322886 0.0276268 0.0229964 0.018617 0.0141402 0.00957345 0.00503074 0.000457453 -0.00411606 -0.00869192 -0.0132563 -0.0178759 -0.0225146 -0.027176 -0.0319873 -0.0366745 -0.0413534 -0.0461745 -0.0510049 -0.0555163 -0.0606486 -0.0652236 -0.0703111 -0.0752773 -0.0798609 -0.0852624 -0.0904393 -0.0952705 -0.0999794 -0.104924 -0.10966 -0.116361 -0.121541 -0.127035 -0.132015 -0.13261 -0.134744 -0.136108 -0.142085 -0.146113 -0.148566 -0.151727 -0.157394 -0.160872 -0.164158 -0.168036 -0.172609 -0.1765 -0.181026 -0.184678 -0.188561 -0.193839 -0.199496 -0.202022 -0.207439 -0.212607 -0.216655 -0.222742 -0.229982 -0.234815 -0.241978 -0.244739 -0.250112 -0.255033 -0.260258 -0.2682 -0.276345 -0.28041 -0.285455 -0.294959 -0.303369 -0.306591 -0.310913 -0.315061 -0.321143 -0.324693 -0.337215 -0.341376 -0.351384 -0.365312 -0.371156 -0.376465 -0.382748 -0.396266 -0.419108 -0.423366 -0.425976 -0.434586 -0.439332 -0.445548 -0.451366 -0.457748 -0.466368 -0.477203 -0.494299
0.645144 0.638234 0.62629 0.619117 0.607379 0.606626 0.598289 0.582466 0.574314 0.549427 0.552015 0.53379 0.542 0.542105 0.519501 0.528019 0.495059 0.507905 0.489184 0.475565 0.464754 0.462227 0.45214 0.431896 0.423741 0.420018 0.411441 0.40724 0.397456 0.393425 0.387127 0.372889 0.361113 0.357668 0.346484 0.344498 0.335462 0.330099 0.32813 0.302348 0.309545 0.293011 0.295462 0.279576 0.27353 0.264705 0.268363 0.255887 0.259041 0.242103 0.235458 0.228841 0.222074 0.213743 0.208989 0.198652 0.203246 0.189099 0.183726 0.199541 0.207581 0.170736 0.146257 0.13293 0.126412 0.120934 0.115532 0.110147 0.104482 0.0991208 0.0940665 0.0889773 0.0827119 0.0743769 0.0654304 0.0601385 0.0547097 0.0502225 0.0456926 0.0412757 0.0364983 0.0320158 0.0274971 0.0231441 0.018595 0.0140553 0.00952365 0.00501408 0.000456183 -0.00411565 -0.00866546 -0.0132869 -0.0178024 -0.0224702 -0.026942 -0.0318148 -0.0366125 -0.0412617 -0.0460602 -0.0508388 -0.0556412 -0.0601988 -0.0652158 -0.0702842 -0.0750339 -0.0799751 -0.0853609 -0.090427 -0.0953795 -0.100145 -0.105554 -0.110657 -0.117782 -0.122837 -0.127874 -0.131861 -0.131697 -0.131452 -0.13697 -0.141643 -0.143928 -0.14838 -0.150616 -0.155086 -0.158186 -0.161578 -0.165525 -0.170077 -0.174642 -0.178107 -0.183812 -0.18863 -0.193527 -0.19834 -0.203176 -0.207336 -0.211012 -0.216363 -0.221324 -0.230751 -0.235793 -0.241125 -0.244273 -0.250595 -0.256713 -0.260687 -0.267183 -0.277005 -0.280103 -0.285141 -0.296973 -0.302404 -0.304562 -0.311143 -0.314544 -0.318923 -0.325361 -0.332821 -0.342148 -0.351533 -0.365639 -0.371115 -0.376046 -0.383948 -0.399517 -0.418946 -0.422302 -0.428447 -0.433079 -0.44114 -0.446957 -0.452045 -0.459738 -0.467942 -0.486606 -0.49387
0.64371 0.642256 0.619306 0.612446 0.599275 0.599809 0.593261 0.592663 0.583135 0.556917 0.555688 0.555392 0.551799 0.539767 0.521556 0.521096 0.502932 0.4946 0.47618 0.478444 0.472074 0.46188 0.448295 0.446026 0.43021 0.420342 0.41512 0.407173 0.397167 0.392103 0.38241 0.380552 0.363661 0.355143 0.347454 0.352071 0.343148 0.321664 0.322919 0.311966 0.314235 0.307429 0.28457 0.287496 0.275314 0.269439 0.261312 0.255008 0.256348 0.241029 0.237612 0.221736 0.197265 0.210665 0.199445 0.196407 0.18656 0.181633 0.164838 0.160269 0.154569 0.139492 0.135905 0.130781 0.125416 0.120263 0.114403 0.109251 0.103037 0.098451 0.0927441 0.0858628 0.0754591 0.0689649 0.0636443 0.0590254 0.0542601 0.0499461 0.0452928 0.0411607 0.036644 0.0319696 0.0273604 0.0230672 0.018473 0.0140542 0.00953571 0.00499481 0.000454309 -0.00409878 -0.00866938 -0.0132361 -0.01782 -0.0224983 -0.0271708 -0.0318289 -0.0366478 -0.0412033 -0.0461407 -0.0508205 -0.055621 -0.0598767 -0.065192 -0.0699115 -0.0751816 -0.0805048 -0.0854608 -0.0900918 -0.0958804 -0.10062 -0.106831 -0.115112 -0.120171 -0.125695 -0.129605 -0.129362 -0.128694 -0.132393 -0.135295 -0.137135 -0.139823 -0.143414 -0.14792 -0.151577 -0.15617 -0.159641 -0.165499 -0.170002 -0.173627 -0.177622 -0.183677 -0.186685 -0.19273 -0.198247 -0.202681 -0.207295 -0.211088 -0.215407 -0.219912 -0.229432 -0.235804 -0.240541 -0.244148 -0.250398 -0.257278 -0.261262 -0.267984 -0.276784 -0.281681 -0.287052 -0.296732 -0.301762 -0.305359 -0.311951 -0.314617 -0.318827 -0.325003 -0.332542 -0.343723 -0.356371 -0.365425 -0.370804 -0.376483 -0.387162 -0.402577 -0.418202 -0.422946 -0.428693 -0.433843 -0.440245 -0.446578 -0.453159 -0.463797 -0.479977 -0.485524 -0.501021
0.640225 0.626925 0.616252 0.612961 0.602507 0.593977 0.589944 0.583853 0.577642 0.556691 0.53604 0.560793 0.53105 0.531403 0.535993 0.513167 0.488713 0.490619 0.477069 0.457871 0.470348 0.454419 0.451722 0.435688 0.41916 0.416228 0.409281 0.404658 0.394774 0.390494 0.379377 0.374789 0.361585 0.352696 0.348093 0.349714 0.337661 0.317249 0.318965 0.303156 0.29426 0.290046 0.284383 0.278982 0.273116 0.265159 0.257447 0.247581 0.246725 0.223979 0.236759 0.22892 0.219393 0.210406 0.206127 0.174074 0.170879 0.166562 0.157443 0.149724 0.145599 0.141303 0.134924 0.129931 0.124304 0.119113 0.114062 0.10815 0.102926 0.0959335 0.085767 0.0781207 0.0723551 0.0678492 0.0633112 0.0588764 0.0542561 0.0496163 0.0452649 0.0407567 0.0363043 0.031811 0.027366 0.022972 0.0184116 0.0140191 0.00949138 0.00498639 0.000454278 -0.00408308 -0.0086897 -0.0132174 -0.0178951 -0.0225686 -0.0269666 -0.0317927 -0.0364419 -0.0410585 -0.04604 -0.050843 -0.0555581 -0.0604719 -0.0654586 -0.070252 -0.075194 -0.0804554 -0.0857373 -0.0911483 -0.0970413 -0.104325 -0.110096 -0.116895 -0.119775 -0.124669 -0.126534 -0.123992 -0.123638 -0.126622 -0.130977 -0.134306 -0.138668 -0.143114 -0.146858 -0.150655 -0.154821 -0.158709 -0.163652 -0.168104 -0.173454 -0.180528 -0.183596 -0.186443 -0.19259 -0.197712 -0.202532 -0.206326 -0.210633 -0.215366 -0.222041 -0.226915 -0.235754 -0.240226 -0.245574 -0.249931 -0.254495 -0.262055 -0.267412 -0.276567 -0.282136 -0.286748 -0.297665 -0.302077 -0.306563 -0.311864 -0.314362 -0.319582 -0.327057 -0.335935 -0.344063 -0.359681 -0.366772 -0.372263 -0.379375 -0.38952 -0.402732 -0.421796 -0.423298 -0.428138 -0.435128 -0.440609 -0.448424 -0.459632 -0.473285 -0.47892 -0.486458 -0.496541
0.6324 0.625202 0.619803 0.600373 0.592807 0.575399 0.581563 0.565567 0.567226 0.56013 0.535036 0.557814 0.533377 0.514626 0.512753 0.503955 0.499989 0.50876 0.485874 0.454475 0.457353 0.456975 0.44598 0.424796 0.414021 0.429186 0.409853 0.404146 0.395329 0.387783 0.375265 0.374534 0.36127 0.361397 0.35447 0.334533 0.335882 0.318692 0.315519 0.302774 0.307441 0.290385 0.288829 0.2778 0.271415 0.261687 0.263428 0.255146 0.249098 0.242082 0.235535 0.203987 0.221709 0.200896 0.183413 0.17474 0.165916 0.159193 0.154793 0.149382 0.144475 0.138955 0.133849 0.12859 0.123165 0.117937 0.112775 0.107387 0.0964347 0.0872396 0.081546 0.0763135 0.0719164 0.0672531 0.0628238 0.0587125 0.0539566 0.0497358 0.0452499 0.0407545 0.0362627 0.031792 0.0274093 0.0229396 0.0183906 0.0140145 0.00950886 0.0049942 0.000453642 -0.00409938 -0.00866598 -0.0132699 -0.0178702 -0.0225253 -0.0271022 -0.031546 -0.0364976 -0.0412955 -0.0461096 -0.0509196 -0.0557581 -0.0602938 -0.0654367 -0.0705568 -0.075558 -0.0808628 -0.0862562 -0.0934793 -0.0999346 -0.105058 -0.110084 -0.115225 -0.120084 -0.124624 -0.11927 -0.118331 -0.121399 -0.126077 -0.130266 -0.134217 -0.13728 -0.142815 -0.146968 -0.15124 -0.1556 -0.158645 -0.163632 -0.167939 -0.171855 -0.176763 -0.181136 -0.188008 -0.195006 -0.198016 -0.202556 -0.20734 -0.210955 -0.215451 -0.222064 -0.227001 -0.233707 -0.241431 -0.245054 -0.250359 -0.257164 -0.26342 -0.268947 -0.276356 -0.283196 -0.287903 -0.297435 -0.30121 -0.308093 -0.31162 -0.315028 -0.321356 -0.3286 -0.335842 -0.347509 -0.360925 -0.367941 -0.373541 -0.380577 -0.38959 -0.410262 -0.417821 -0.422959 -0.431538 -0.437651 -0.443792 -0.456925 -0.466321 -0.47312 -0.477104 -0.482055 -0.493431
0.620356 0.614558 0.606284 0.604883 0.581174 0.577544 0.571721 0.550234 0.550762 0.550998 0.541544 0.521724 0.518707 0.522394 0.506345 0.508242 0.490018 0.479272 0.460753 0.462809 0.458925 0.444289 0.433752 0.428846 0.417605 0.396298 0.405987 0.421882 0.39077 0.378276 0.37545 0.362586 0.361382 0.358412 0.347431 0.333786 0.329897 0.326682 0.309778 0.313431 0.29973 0.284538 0.282138 0.279582 0.272066 0.259287 0.25713 0.249865 0.247415 0.231855 0.232436 0.206378 0.192403 0.185 0.176209 0.168526 0.165105 0.158982 0.154146 0.149079 0.143216 0.138108 0.132906 0.127991 0.122384 0.117671 0.110841 0.100136 0.0915751 0.0855728 0.0804329 0.0761001 0.0713411 0.0667878 0.0625448 0.0580204 0.0537026 0.0493669 0.0451863 0.0405413 0.0362316 0.0317386 0.0271546 0.0228202 0.0184551 0.0138661 0.00948538 0.00498593 0.000453135 -0.0040783 -0.00864239 -0.0132055 -0.0177645 -0.0225543 -0.027036 -0.031764 -0.0364669 -0.0413588 -0.046083 -0.0507568 -0.0561336 -0.0608271 -0.0665386 -0.0708076 -0.076429 -0.0819333 -0.0886177 -0.0941893 -0.0999502 -0.105022 -0.10943 -0.115101 -0.118371 -0.117585 -0.114588 -0.117629 -0.121938 -0.126494 -0.13044 -0.134054 -0.138014 -0.142317 -0.145911 -0.149722 -0.154258 -0.158038 -0.162307 -0.166481 -0.171639 -0.176238 -0.180493 -0.186287 -0.190635 -0.195098 -0.203153 -0.20853 -0.214013 -0.220031 -0.222462 -0.227912 -0.233537 -0.241321 -0.245076 -0.250928 -0.257045 -0.264007 -0.270267 -0.276445 -0.285611 -0.287992 -0.2976 -0.301298 -0.30593 -0.310809 -0.316115 -0.325414 -0.332635 -0.33837 -0.352374 -0.364692 -0.370029 -0.375753 -0.381691 -0.388426 -0.411397 -0.417398 -0.424922 -0.431504 -0.440282 -0.453116 -0.459941 -0.465634 -0.472639 -0.474969 -0.481116 -0.492589
0.61727 0.611285 0.608856 0.611711 0.602149 0.575305 0.559577 0.554527 0.519728 0.508227 0.541259 0.512976 0.516786 0.513317 0.504104 0.498969 0.497823 0.490387 0.48005 0.464325 0.46687 0.444324 0.439288 0.427818 0.421112 0.413311 0.398235 0.393879 0.387879 0.390303 0.375496 0.36827 0.36199 0.353376 0.349637 0.345075 0.331958 0.320446 0.312323 0.322927 0.292985 0.298663 0.280197 0.270036 0.27054 0.270693 0.25911 0.25261 0.243807 0.218506 0.202618 0.193319 0.185041 0.178624 0.173502 0.168506 0.163192 0.158582 0.152687 0.148384 0.142443 0.137097 0.131228 0.126871 0.120925 0.113101 0.101704 0.0945712 0.0895023 0.0848907 0.0802525 0.0759926 0.0712993 0.0668226 0.0624911 0.0579225 0.0537455 0.0493656 0.0449133 0.0404846 0.0360524 0.0315903 0.0272808 0.022907 0.0183694 0.0139341 0.00947488 0.00497908 0.000454957 -0.0040914 -0.00862126 -0.0132052 -0.0178737 -0.0224577 -0.0270713 -0.0316364 -0.0366975 -0.041292 -0.0461418 -0.0509814 -0.0561457 -0.0609033 -0.0662291 -0.0713146 -0.0770865 -0.0836456 -0.089072 -0.0941596 -0.0988215 -0.10422 -0.109528 -0.113351 -0.115373 -0.111805 -0.11331 -0.116764 -0.121007 -0.124428 -0.128595 -0.132299 -0.136201 -0.140486 -0.144691 -0.149066 -0.153848 -0.15798 -0.163134 -0.16661 -0.170785 -0.176523 -0.181716 -0.190773 -0.193165 -0.200743 -0.20631 -0.209956 -0.215706 -0.220303 -0.224165 -0.228764 -0.233501 -0.239241 -0.245976 -0.252049 -0.258673 -0.265309 -0.272677 -0.277718 -0.285553 -0.289536 -0.298469 -0.302577 -0.30747 -0.310577 -0.322604 -0.326266 -0.331355 -0.339595 -0.355471 -0.364597 -0.370753 -0.375653 -0.384033 -0.397768 -0.412925 -0.42052 -0.428784 -0.432388 -0.440048 -0.448092 -0.459168 -0.464849 -0.471626 -0.474602 -0.480188 -0.494126
0.633886 0.621923 0.623143 0.595769 0.583381 0.579611 0.47044 0.371787 0.350829 0.377353 0.520104 0.526111 0.519632 0.50952 0.504419 0.490457 0.488705 0.474561 0.476269 0.457813 0.455727 0.44623 0.4375 0.433271 0.426477 0.413518 0.405766 0.392629 0.389888 0.379782 0.369596 0.378374 0.365682 0.35707 0.348344 0.344138 0.334606 0.315173 0.316549 0.30081 0.293166 0.286468 0.284596 0.269709 0.263348 0.252164 0.251474 0.237045 0.211268 0.203145 0.193202 0.188315 0.183687 0.178476 0.173484 0.16735 0.161164 0.157039 0.152636 0.146049 0.14119 0.135922 0.128625 0.118644 0.109454 0.103837 0.0975844 0.093069 0.0883674 0.0840232 0.0800955 0.0749445 0.0709236 0.066452 0.0622831 0.0578095 0.0534488 0.0491342 0.044851 0.0404619 0.0361312 0.0318156 0.0272507 0.0229005 0.0183843 0.0139794 0.00946708 0.00495752 0.000452508 -0.00407375 -0.00860258 -0.0132015 -0.0178782 -0.0224694 -0.0270636 -0.0320154 -0.0367354 -0.0414978 -0.0461649 -0.0514199 -0.0562022 -0.0613747 -0.0666858 -0.0722233 -0.0785423 -0.0831037 -0.0884757 -0.0940849 -0.0981335 -0.102397 -0.10716 -0.109752 -0.108364 -0.110029 -0.113052 -0.116033 -0.119906 -0.123429 -0.127597 -0.131837 -0.135959 -0.140762 -0.144891 -0.149229 -0.152689 -0.157015 -0.161301 -0.167413 -0.172003 -0.179083 -0.183045 -0.189747 -0.194448 -0.199832 -0.205548 -0.209873 -0.215621 -0.221064 -0.22234 -0.227722 -0.233405 -0.239142 -0.247348 -0.254404 -0.261002 -0.269455 -0.272485 -0.277595 -0.284976 -0.291084 -0.297713 -0.30149 -0.30773 -0.315332 -0.321622 -0.326871 -0.333683 -0.34666 -0.358837 -0.36442 -0.369751 -0.376023 -0.386944 -0.402911 -0.415428 -0.420995 -0.427471 -0.431763 -0.437363 -0.443809 -0.44987 -0.461511 -0.467592 -0.472051 -0.478603 -0.495444
0.641115 0.602301 0.609122 0.587552 0.565837 0.476988 0.3606 0.3389 0.329806 0.338479 0.411706 0.523788 0.513365 0.502582 0.505591 0.504519 0.482347 0.464252 0.472855 0.465809 0.460932 0.431647 0.439799 0.429393 0.422905 0.414048 0.401851 0.381745 0.381222 0.379768 0.374738 0.376934 0.369938 0.359395 0.350694 0.34334 0.332725 0.319173 0.312012 0.311592 0.292578 0.283794 0.273993 0.27329 0.25851 0.253191 0.24099 0.215106 0.205755 0.197918 0.192995 0.18752 0.181893 0.17656 0.17133 0.166482 0.161704 0.155881 0.151036 0.145325 0.13856 0.128135 0.115753 0.110455 0.105907 0.10075 0.0974202 0.0924733 0.0884155 0.0839522 0.0795188 0.0751952 0.0705096 0.0663225 0.0621623 0.0578576 0.0532565 0.0489714 0.0446782 0.0402618 0.0360719 0.0316422 0.0270868 0.0228445 0.0183844 0.0138999 0.00943375 0.0049441 0.000451898 -0.00407156 -0.00860724 -0.0132475 -0.0178353 -0.0225771 -0.0272438 -0.0319983 -0.0367833 -0.0416387 -0.0463943 -0.0516589 -0.0567104 -0.0618151 -0.0676361 -0.0732054 -0.0781506 -0.0830801 -0.0877933 -0.0932713 -0.097496 -0.0991678 -0.103347 -0.104333 -0.105638 -0.108134 -0.111207 -0.114744 -0.117267 -0.122114 -0.127006 -0.130656 -0.1347 -0.139422 -0.144594 -0.148364 -0.152285 -0.157007 -0.163766 -0.170232 -0.174009 -0.178515 -0.183963 -0.18899 -0.195191 -0.19987 -0.206608 -0.210607 -0.216191 -0.221039 -0.224049 -0.224978 -0.234151 -0.240164 -0.248791 -0.255668 -0.262358 -0.270763 -0.274829 -0.277919 -0.284554 -0.292713 -0.298204 -0.303568 -0.310082 -0.317149 -0.320814 -0.327734 -0.337985 -0.354681 -0.365743 -0.367122 -0.375867 -0.38112 -0.393805 -0.402908 -0.413776 -0.420594 -0.425669 -0.431046 -0.435816 -0.442343 -0.448172 -0.454982 -0.462164 -0.467756 -0.478473 -0.495645
0.642404 0.606071 0.615399 0.577705 0.54626 0.406144 0.345757 0.335616 0.330471 0.328904 0.358015 0.447486 0.511187 0.494035 0.503946 0.478031 0.465037 0.472504 0.460943 0.454169 0.449475 0.443887 0.439442 0.432318 0.424737 0.399386 0.409388 0.394821 0.390011 0.381681 0.384815 0.369305 0.359793 0.35994 0.350558 0.339907 0.326256 0.319434 0.31637 0.300888 0.29122 0.283167 0.273838 0.265779 0.230142 0.21947 0.215918 0.206923 0.203115 0.196696 0.191524 0.186409 0.18139 0.176288 0.171192 0.164925 0.160826 0.154955 0.148367 0.139675 0.12556 0.118661 0.1138 0.110423 0.10505 0.100523 0.0962834 0.0919826 0.0879974 0.0836721 0.0792536 0.074882 0.0705497 0.0663048 0.0619733 0.0579704 0.0532277 0.0487958 0.0446049 0.0402625 0.035924 0.031634 0.0272065 0.0227763 0.0183747 0.013885 0.00943648 0.00497508 0.000452027 -0.00407492 -0.00865146 -0.013276 -0.017926 -0.0226311 -0.027244 -0.0321165 -0.0372081 -0.0419433 -0.0468903 -0.0519518 -0.0569864 -0.0628553 -0.0676691 -0.0725299 -0.0777796 -0.0827062 -0.0875285 -0.0923669 -0.097469 -0.0981935 -0.101468 -0.103659 -0.105607 -0.108103 -0.111588 -0.11349 -0.116001 -0.120765 -0.1255 -0.129175 -0.132935 -0.14047 -0.144215 -0.150034 -0.153517 -0.159318 -0.16376 -0.168594 -0.17395 -0.179362 -0.184158 -0.189137 -0.195177 -0.200188 -0.205796 -0.210299 -0.215579 -0.221685 -0.227555 -0.230074 -0.231741 -0.240795 -0.246348 -0.258302 -0.264483 -0.272571 -0.277537 -0.280529 -0.285336 -0.293659 -0.300794 -0.304702 -0.311153 -0.317013 -0.323411 -0.332733 -0.342889 -0.359831 -0.365227 -0.371444 -0.377611 -0.386867 -0.396442 -0.404914 -0.41078 -0.417258 -0.422882 -0.428319 -0.432948 -0.438707 -0.447326 -0.454017 -0.459778 -0.466214 -0.478796 -0.494166
0.636275 0.586272 0.572472 0.55107 0.533217 0.38136 0.342539 0.331508 0.328268 0.326226 0.326528 0.351987 0.386394 0.461716 0.473413 0.491919 0.479087 0.459344 0.465264 0.444468 0.439324 0.44049 0.430112 0.418559 0.416356 0.409828 0.396854 0.397034 0.386251 0.376734 0.373499 0.364322 0.363081 0.351301 0.345112 0.332259 0.328789 0.315261 0.308927 0.302729 0.283733 0.279339 0.270496 0.239159 0.229194 0.21695 0.212108 0.205943 0.201519 0.196538 0.189776 0.185529 0.179381 0.174594 0.169884 0.163046 0.155655 0.143458 0.131852 0.125679 0.121527 0.117764 0.112905 0.108732 0.104933 0.100214 0.0962035 0.091545 0.0873594 0.0831829 0.0792773 0.0749254 0.0704136 0.0662325 0.0617336 0.0575075 0.05317 0.0487701 0.0444211 0.0402637 0.0359251 0.0317043 0.0272446 0.0227459 0.0183752 0.013927 0.00946496 0.00494298 0.000449841 -0.00407613 -0.00867256 -0.0132976 -0.0180074 -0.0226854 -0.0274967 -0.0322688 -0.0369288 -0.0421613 -0.0473988 -0.0523517 -0.0575102 -0.0620039 -0.067754 -0.0724751 -0.0770404 -0.0821476 -0.086849 -0.0922272 -0.0966155 -0.0990372 -0.0999393 -0.101135 -0.103647 -0.106304 -0.109811 -0.112997 -0.117097 -0.120128 -0.125134 -0.131072 -0.134972 -0.139863 -0.144088 -0.148315 -0.15294 -0.157725 -0.163662 -0.167151 -0.172961 -0.178296 -0.18384 -0.189921 -0.194516 -0.199954 -0.205045 -0.210517 -0.21752 -0.222152 -0.22766 -0.228918 -0.233461 -0.238012 -0.245452 -0.258137 -0.268143 -0.272964 -0.278008 -0.282553 -0.287995 -0.297886 -0.302457 -0.308365 -0.312871 -0.318759 -0.330075 -0.3363 -0.352075 -0.359766 -0.366042 -0.373706 -0.380908 -0.386606 -0.395516 -0.404449 -0.408568 -0.416679 -0.421697 -0.42752 -0.432137 -0.436742 -0.441651 -0.449115 -0.45762 -0.466546 -0.48035 -0.48921
0.630849 0.611493 0.579116 0.554119 0.475771 0.368364 0.343865 0.331155 0.326586 0.32214 0.320403 0.31792 0.317239 0.341485 0.355968 0.455928 0.462907 0.456096 0.452142 0.448908 0.454083 0.437272 0.426283 0.426327 0.408874 0.412438 0.400202 0.400171 0.386706 0.378955 0.369375 0.352018 0.356173 0.353917 0.342097 0.325546 0.321561 0.303553 0.300811 0.286571 0.282626 0.246096 0.24009 0.226936 0.221825 0.21619 0.209342 0.205272 0.199975 0.194649 0.189532 0.184288 0.178485 0.172559 0.162965 0.148448 0.138549 0.134259 0.129564 0.125752 0.12084 0.117002 0.113035 0.108274 0.104257 0.100131 0.0957192 0.0918833 0.0878293 0.0832089 0.0787708 0.0749489 0.0707113 0.0660504 0.0620289 0.0574938 0.0533643 0.0488128 0.0443366 0.040132 0.0358771 0.0316449 0.0273127 0.022971 0.018381 0.0139465 0.00948841 0.0049687 0.00045279 -0.00409936 -0.00870303 -0.0133689 -0.0180413 -0.0227998 -0.0275264 -0.0325561 -0.0376148 -0.0426949 -0.0478108 -0.0523527 -0.057482 -0.0620837 -0.0669054 -0.0717838 -0.076633 -0.0815283 -0.0863899 -0.0907019 -0.0936703 -0.0937956 -0.0954917 -0.0976616 -0.101952 -0.104752 -0.108196 -0.112505 -0.116655 -0.12084 -0.125283 -0.130239 -0.134425 -0.139258 -0.143964 -0.147371 -0.152631 -0.157679 -0.163193 -0.168394 -0.173744 -0.178241 -0.183679 -0.18838 -0.19505 -0.200389 -0.205829 -0.211898 -0.216559 -0.223168 -0.227582 -0.22947 -0.232736 -0.237863 -0.246907 -0.259274 -0.269508 -0.273573 -0.28 -0.282816 -0.287962 -0.299373 -0.302341 -0.308167 -0.315315 -0.326132 -0.331684 -0.339703 -0.35296 -0.359793 -0.364568 -0.371131 -0.379202 -0.384873 -0.392535 -0.399898 -0.407137 -0.408071 -0.420421 -0.424208 -0.427858 -0.435929 -0.439353 -0.446892 -0.454607 -0.467324 -0.475697 -0.484043
0.605227 0.581814 0.570193 0.555859 0.470912 0.374299 0.345933 0.333304 0.326758 0.321197 0.316782 0.313073 0.308683 0.304501 0.308043 0.324619 0.386774 0.450432 0.444263 0.446642 0.437605 0.431109 0.412909 0.42306 0.405022 0.406593 0.391737 0.396128 0.381311 0.376533 0.372288 0.361358 0.350882 0.339061 0.327324 0.325305 0.319709 0.314606 0.294258 0.260823 0.250099 0.236991 0.23392 0.225863 0.220288 0.215328 0.208502 0.204908 0.198436 0.193438 0.187368 0.182457 0.175196 0.160091 0.146964 0.142556 0.137606 0.133537 0.128939 0.125042 0.120465 0.116939 0.112591 0.108001 0.104349 0.100135 0.0958313 0.0916548 0.0868743 0.0830025 0.0787745 0.0746388 0.0705179 0.0664227 0.0617564 0.0575448 0.0531306 0.0488425 0.0444623 0.040323 0.0359186 0.0316813 0.0273216 0.0228539 0.018442 0.0139964 0.00949659 0.00497164 0.000456108 -0.00412264 -0.00875679 -0.0134049 -0.018123 -0.0229145 -0.0278588 -0.0328859 -0.0378476 -0.0425876 -0.0473408 -0.0523143 -0.0571202 -0.0616442 -0.0664317 -0.0717674 -0.0759935 -0.0806831 -0.0851224 -0.0868906 -0.0876125 -0.0895805 -0.093084 -0.0961806 -0.100347 -0.104055 -0.10782 -0.11162 -0.116728 -0.12049 -0.125361 -0.129182 -0.134507 -0.138736 -0.143009 -0.147931 -0.153206 -0.157589 -0.163194 -0.168442 -0.172858 -0.178038 -0.182643 -0.188747 -0.194178 -0.200383 -0.206333 -0.212759 -0.217379 -0.224005 -0.22856 -0.230784 -0.233625 -0.239491 -0.244948 -0.257342 -0.267467 -0.277731 -0.281057 -0.284112 -0.293919 -0.299417 -0.304632 -0.315067 -0.321529 -0.327558 -0.331144 -0.344539 -0.351712 -0.357481 -0.36319 -0.370985 -0.376685 -0.383241 -0.390408 -0.397737 -0.404847 -0.410059 -0.416272 -0.421109 -0.426964 -0.432221 -0.438538 -0.44276 -0.454091 -0.467235 -0.475826 -0.480463
0.610572 0.611545 0.571072 0.551135 0.490966 0.385576 0.357279 0.335872 0.327652 0.321575 0.316458 0.312066 0.307498 0.302857 0.300403 0.299207 0.306875 0.31743 0.330285 0.349844 0.37766 0.382834 0.415917 0.423154 0.414283 0.412299 0.394242 0.38652 0.376001 0.369473 0.364485 0.352063 0.340922 0.331139 0.328294 0.324015 0.313597 0.271686 0.260654 0.247493 0.242169 0.235931 0.230149 0.223904 0.21919 0.213087 0.208235 0.202269 0.197245 0.191557 0.184834 0.177664 0.161663 0.151685 0.146256 0.141423 0.137571 0.132817 0.128797 0.12412 0.120814 0.116845 0.112372 0.10859 0.103794 0.100282 0.0957282 0.0911695 0.0869284 0.0825403 0.0786906 0.0743925 0.0703058 0.0661316 0.0619842 0.0573564 0.0531932 0.0486966 0.0445146 0.0403257 0.0359111 0.0317786 0.0273681 0.0229363 0.0185182 0.0140087 0.00953819 0.00500551 0.000457601 -0.00415473 -0.00876657 -0.0134516 -0.0181573 -0.0230652 -0.028105 -0.032778 -0.0372996 -0.0422961 -0.047222 -0.0517576 -0.0567012 -0.0615837 -0.065942 -0.0711876 -0.075569 -0.0789307 -0.0794372 -0.0819501 -0.0844297 -0.0876432 -0.0910536 -0.0942812 -0.0986275 -0.102598 -0.107446 -0.111593 -0.11629 -0.12039 -0.124487 -0.129225 -0.134434 -0.138741 -0.142847 -0.14725 -0.152681 -0.157502 -0.162497 -0.1683 -0.173302 -0.177081 -0.183418 -0.189063 -0.194447 -0.200324 -0.206102 -0.21171 -0.218913 -0.224905 -0.228551 -0.231911 -0.235419 -0.239415 -0.242927 -0.250706 -0.262162 -0.268852 -0.275261 -0.28262 -0.293969 -0.299237 -0.3108 -0.318186 -0.322616 -0.329559 -0.335247 -0.341721 -0.349617 -0.35344 -0.361819 -0.368785 -0.374905 -0.382171 -0.38754 -0.396061 -0.401793 -0.408821 -0.412829 -0.416206 -0.425159 -0.432878 -0.437206 -0.437575 -0.453583 -0.462668 -0.471197 -0.480042
0.584889 0.57493 0.567293 0.551799 0.506576 0.399628 0.368938 0.344678 0.330089 0.322262 0.317634 0.312048 0.30719 0.301696 0.298601 0.293264 0.291531 0.288298 0.286818 0.288923 0.291956 0.306583 0.301928 0.32849 0.343673 0.373284 0.380905 0.382574 0.375428 0.374957 0.362776 0.354938 0.343957 0.334736 0.328059 0.288395 0.271699 0.260144 0.25245 0.246085 0.240672 0.23406 0.226611 0.222673 0.217825 0.212126 0.206053 0.201456 0.194627 0.187418 0.172652 0.160108 0.153462 0.150139 0.144964 0.14082 0.137066 0.0 0.0 0.12484 0.0 0.116188 0.112219 0.0 0.0 0.0995249 0.0957615 0.0913305 0.0871556 0.0825462 0.0789396 0.0744397 0.0704879 0.0660627 0.0619715 0.0577127 0.0531529 0.0489985 0.0445797 0.0405731 0.0362203 0.0318243 0.0273478 0.0230562 0.0185896 0.0139984 0.00955683 0.00500722 0.000458609 -0.00415502 -0.00881354 -0.0135587 -0.0184821 -0.023264 -0.0277611 -0.0324852 -0.0373115 -0.0420813 -0.0467292 -0.0514545 -0.0564718 -0.0611775 -0.0654023 -0.0701175 -0.0712416 -0.0736492 -0.0770365 -0.0791378 -0.0827819 -0.0868067 -0.0901501 -0.0942886 -0.0984303 -0.102728 -0.106914 -0.11114 -0.115306 -0.120114 -0.124971 -0.129233 -0.134167 -0.138425 -0.142979 -0.147856 -0.152642 -0.157417 -0.162502 -0.167539 -0.172815 -0.178193 -0.183421 -0.188483 -0.194394 -0.2011 -0.206214 -0.213795 -0.218495 -0.225203 -0.228546 -0.231842 -0.23168 -0.230153 -0.233549 -0.237527 -0.24268 -0.246665 -0.252447 -0.259242 -0.272412 -0.294726 -0.308993 -0.316269 -0.322107 -0.327085 -0.332897 -0.340594 -0.347272 -0.352795 -0.361691 -0.36722 -0.37286 -0.377139 -0.386086 -0.391731 -0.39846 -0.406123 -0.412079 -0.416149 -0.420707 -0.429709 -0.431787 -0.444222 -0.452329 -0.459317 -0.468686 -0.471206
0.61752 0.601173 0.592304 0.563327 0.512881 0.403964 0.363855 0.353899 0.339597 0.325479 0.318417 0.311643 0.307179 0.303307 0.297088 0.292792 0.288148 0.284159 0.280176 0.277419 0.276516 0.276196 0.272277 0.271298 0.27191 0.28098 0.290074 0.308025 0.368636 0.360545 0.36216 0.36059 0.340715 0.298277 0.276707 0.270787 0.259607 0.253803 0.248411 0.241704 0.23579 0.231553 0.22638 0.220834 0.215158 0.208778 0.202422 0.197307 0.187078 0.171935 0.162867 0.157745 0.15347 0.14894 0.14514 0.140179 0.136956 0.0 0.0 0.124955 0.0 0.0 0.0 0.0 0.104191 0.100041 0.0961473 0.0912604 0.0865977 0.0829732 0.078548 0.0749264 0.0705135 0.0663634 0.0619596 0.0578456 0.0534382 0.0492738 0.0450397 0.0404878 0.0364507 0.0318617 0.0277223 0.0231142 0.0185562 0.0140903 0.00953201 0.00504521 0.00046133 -0.00418719 -0.00889768 -0.01368 -0.0183407 -0.0231102 -0.0276624 -0.0323529 0.0 -0.0412806 -0.0465392 -0.0509392 -0.0559672 -0.0606776 -0.064066 -0.0651914 -0.067946 -0.0715291 -0.0745282 -0.0780597 -0.0813547 -0.085384 -0.08973 -0.093597 -0.097562 -0.102097 -0.106511 -0.110523 -0.114974 -0.120335 -0.12465 -0.128635 -0.133628 -0.138393 -0.142988 -0.148293 -0.152783 -0.156971 -0.16251 -0.167546 -0.172625 -0.177544 -0.18322 -0.188805 -0.194236 -0.200992 -0.207973 -0.214028 -0.220094 -0.226351 -0.227062 -0.219356 -0.223058 -0.226871 -0.232344 -0.237458 -0.240245 -0.246521 -0.250063 -0.254904 -0.260592 -0.265193 -0.281962 -0.309555 -0.322084 -0.324782 -0.332706 -0.33922 -0.344679 -0.352677 -0.358748 -0.36423 -0.371096 -0.376363 -0.382299 -0.391594 -0.395329 -0.403924 -0.411932 -0.415598 -0.420555 -0.424893 -0.4289 -0.443101 -0.44925 -0.459038 -0.462418 -0.469908
0.612856 0.592183 0.577436 0.57946 0.552067 0.515636 0.393304 0.359072 0.349821 0.334757 0.31831 0.311538 0.307173 0.302539 0.298869 0.293992 0.288328 0.284067 0.279291 0.275677 0.273173 0.271725 0.270367 0.266888 0.263396 0.262101 0.260795 0.258863 0.275684 0.270846 0.290123 0.305274 0.29458 0.282518 0.267027 0.26439 0.25689 0.251837 0.246733 0.240792 0.234779 0.229167 0.223421 0.216495 0.208254 0.19869 0.183759 0.175556 0.171099 0.166654 0.161987 0.157846 0.15348 0.148993 0.144397 0.140758 0.136927 0.0 0.0 0.0 0.0 0.11604 0.112173 0.108122 0.104525 0.10005 0.0958316 0.0912946 0.0872936 0.0829343 0.0784892 0.0745993 0.0705202 0.0663881 0.0622754 0.0578672 0.0534286 0.0493463 0.0451426 0.0409025 0.0363949 0.032142 0.0276132 0.0231848 0.018693 0.0142656 0.00967636 0.00508727 0.000467227 -0.00422708 -0.00886369 -0.0135645 -0.0182805 -0.0228791 -0.0282765 -0.0321284 -0.0370378 -0.0410453 -0.0462531 -0.0514489 -0.0556087 -0.0585411 -0.060016 -0.0630511 -0.066322 -0.0703601 -0.0736179 -0.0771214 -0.0810475 -0.0853166 -0.0894718 -0.0932988 -0.0977475 -0.101772 -0.106458 -0.111094 -0.115189 -0.120098 -0.123928 -0.129214 -0.133482 -0.137879 -0.14358 -0.147832 -0.152749 -0.157299 -0.162612 -0.167316 -0.172732 -0.178207 -0.183899 -0.188865 -0.19473 -0.200887 -0.207525 -0.2138 -0.21992 -0.22472 -0.215146 -0.216273 -0.221647 -0.227269 -0.231343 -0.23746 -0.243444 -0.244681 -0.249703 -0.25483 -0.25932 -0.263062 -0.268028 -0.279083 -0.312142 -0.324357 -0.330618 -0.33592 -0.34235 -0.350049 -0.357223 -0.362502 -0.368068 -0.375225 -0.382079 -0.388994 -0.395197 -0.401147 -0.406235 -0.41294 -0.413572 -0.420296 -0.433476 -0.440926 -0.449309 -0.45385 -0.461037 -0.467161
0.648669 0.594349 0.591789 0.569956 0.563668 0.534345 0.429684 0.3657 0.347661 0.339494 0.330347 0.313892 0.306979 0.301872 0.299808 0.294179 0.288969 0.28425 0.279207 0.275682 0.273178 0.271561 0.270703 0.264934 0.261875 0.259974 0.257151 0.255816 0.254165 0.245213 0.242077 0.240829 0.243594 0.259107 0.260915 0.258593 0.253468 0.249307 0.242705 0.235936 0.226401 0.213931 0.200724 0.191913 0.186081 0.181918 0.177497 0.173241 0.168644 0.16532 0.161437 0.156856 0.154024 0.149609 0.144702 0.140729 0.137057 0.0 0.0 0.0 0.121022 0.116681 0.111864 0.108685 0.104329 0.100229 0.0955711 0.0916134 0.0871307 0.0834096 0.079006 0.074649 0.070567 0.0663952 0.0622993 0.0579693 0.0539364 0.0499204 0.0454185 0.0410401 0.0365668 0.0323359 0.0277798 0.0233738 0.0188549 0.0143048 0.00977465 0.00509315 0.000465322 -0.00416713 -0.00881823 -0.0134845 -0.0181776 -0.022965 -0.0272141 -0.0321231 -0.0365884 -0.0412991 -0.0459073 -0.0505626 -0.0529421 -0.0556345 -0.0587504 -0.0618763 -0.065573 -0.0690066 -0.0730585 -0.0769693 -0.0810088 -0.084765 -0.0891077 -0.0934498 -0.097671 -0.10224 -0.106343 -0.110678 -0.115543 -0.120429 -0.1246 -0.128848 -0.134042 -0.138739 -0.14301 -0.14793 -0.152893 -0.157129 -0.162624 -0.167519 -0.173037 -0.178772 -0.183857 -0.189404 -0.194685 -0.201284 -0.207646 -0.21427 -0.22182 -0.223396 -0.21176 -0.216156 -0.220562 -0.225243 -0.229745 -0.241557 0.0 -0.245041 -0.249563 0.0 -0.260519 -0.265118 -0.267566 -0.273417 -0.283568 -0.32345 -0.328868 -0.332544 -0.339687 -0.346041 -0.353415 -0.359081 -0.364594 -0.372066 -0.376624 -0.386401 -0.390735 -0.397596 -0.40174 -0.406367 -0.411091 -0.422643 -0.430711 -0.436634 -0.445496 -0.452498 -0.460995 -0.464425
0.642426 0.615981 0.579839 0.554334 0.559387 0.563181 0.523161 0.388515 0.361265 0.339189 0.332337 0.325271 0.309305 0.303212 0.297655 0.293168 0.290798 0.286322 0.0 0.277083 0.272844 0.271485 0.270463 0.265107 0.261082 0.25801 0.255608 0.252851 0.251026 0.244192 0.240063 0.237644 0.233284 0.231264 0.226953 0.222783 0.218811 0.216163 0.212527 0.207231 0.202757 0.196438 0.192887 0.188145 0.184682 0.180127 0.17663 0.171788 0.168511 0.164084 0.160234 0.155822 0.152709 0.149192 0.145385 0.139931 0.136362 0.131915 0.128478 0.124633 0.119969 0.11666 0.112036 0.107838 0.104163 0.0999581 0.0956359 0.0914691 0.0876072 0.0833492 0.0791256 0.0749291 0.0711453 0.0667347 0.062427 0.0584077 0.0541198 0.049899 0.0455593 0.041289 0.0368871 0.0324954 0.0280508 0.0235879 0.018962 0.0142838 0.00966051 0.00508701 0.000462203 -0.0041665 -0.00883079 -0.0133763 -0.0179656 -0.0230869 -0.0273107 -0.0319331 -0.0365346 -0.0410648 -0.044922 -0.0474698 -0.0502333 -0.053674 -0.0573162 -0.0609026 -0.0642426 -0.068397 -0.0726969 -0.0768182 -0.0807279 -0.0853381 -0.0890926 -0.0931259 -0.0976542 -0.101827 -0.106483 -0.11046 -0.115078 -0.120053 -0.124247 -0.129354 -0.133783 -0.13839 -0.142858 -0.148587 -0.152731 -0.157914 -0.16315 -0.168202 -0.17359 -0.17808 -0.184025 -0.19005 -0.194859 -0.20279 -0.209072 -0.21677 -0.222894 -0.224433 -0.211525 -0.215034 -0.218967 -0.223287 -0.227617 -0.238363 -0.243389 0.0 0.0 -0.254696 -0.262095 -0.263832 -0.266954 -0.271693 -0.277172 -0.304575 -0.327042 -0.332368 -0.340105 -0.345857 -0.351376 -0.356921 -0.364125 -0.371681 -0.374642 -0.380494 -0.38898 -0.394349 -0.398246 -0.403628 -0.412088 -0.417962 -0.427012 -0.436499 -0.440399 -0.451483 -0.456866 -0.463158
0.662057 0.599834 0.577893 0.564903 0.547447 0.541806 0.507238 0.41734 0.360855 0.343833 0.335326 0.32616 0.313857 0.304175 0.29748 0.293921 0.291539 0.285348 0.283293 0.0 0.274485 0.271836 0.269316 0.263652 0.260776 0.257788 0.254847 0.252788 0.248492 0.242735 0.23856 0.235458 0.231488 0.227038 0.223412 0.221022 0.2156 0.21232 0.208143 0.203606 0.200397 0.195815 0.192278 0.188551 0.184047 0.179667 0.176129 0.172463 0.168478 0.164053 0.160251 0.156795 0.152946 0.149208 0.145443 0.140475 0.13563 0.0 0.128972 0.124932 0.120396 0.116309 0.112752 0.108741 0.104618 0.100366 0.0959178 0.0920476 0.0877164 0.0834063 0.0793566 0.0753561 0.0711542 0.0668722 0.0627618 0.0586708 0.0544366 0.0501354 0.0459345 0.0414273 0.0371485 0.0326726 0.028017 0.0234416 0.0188444 0.0142326 0.0096361 0.0050474 0.000458968 -0.00413189 -0.00872299 -0.0133744 -0.0178965 -0.0223727 -0.0272277 -0.0320379 -0.0372808 -0.0393548 -0.0416313 -0.0454022 -0.0490356 -0.0527533 -0.0562901 -0.0602207 -0.0642524 -0.0682629 -0.0724235 -0.0763217 -0.0806182 -0.0844822 -0.0891053 -0.0927752 -0.0972002 -0.101293 -0.106434 -0.110146 -0.114991 -0.119715 -0.124262 -0.128877 -0.133681 -0.138526 -0.143664 -0.148474 -0.15332 -0.158111 -0.163026 -0.168505 -0.174195 -0.179102 -0.18471 -0.190329 -0.195631 -0.20297 -0.210784 -0.216782 -0.222846 -0.22227 -0.211665 -0.213916 -0.218854 -0.222778 -0.227565 -0.229176 -0.240138 -0.24669 -0.251314 -0.255808 -0.260538 -0.260956 -0.265496 -0.270052 -0.275023 -0.287911 -0.326793 -0.330434 -0.337541 -0.342037 -0.348289 -0.355752 -0.360394 -0.369091 -0.373978 -0.380578 -0.38521 -0.392185 -0.395754 -0.401401 -0.41197 -0.418359 -0.423848 -0.430632 -0.438978 -0.445345 -0.451198 -0.459994
0.658571 0.643168 0.59149 0.590911 0.546542 0.533986 0.534011 0.511684 0.385811 0.354228 0.339313 0.334699 0.320344 0.309238 0.301156 0.295509 0.289644 0.28707 0.281809 0.278941 0.275616 0.272781 0.268588 0.263345 0.260794 0.257096 0.252694 0.250825 0.247087 0.242533 0.238434 0.233276 0.229974 0.226921 0.222828 0.219133 0.214975 0.211075 0.207977 0.203444 0.200476 0.194963 0.191559 0.187459 0.183251 0.178041 0.176148 0.171774 0.167166 0.164312 0.160176 0.155857 0.152034 0.14901 0.144791 0.141182 0.136788 0.13248 0.128472 0.124912 0.120893 0.116357 0.112831 0.108786 0.104661 0.100746 0.0963627 0.0920084 0.0877037 0.0833943 0.079743 0.0755333 0.0716747 0.0672129 0.0631832 0.0589983 0.0546358 0.0504671 0.0463471 0.0417324 0.0368966 0.0328154 0.0279167 0.0233141 0.0188269 0.0142005 0.00958619 0.00504808 0.000456592 -0.00412038 -0.00872184 -0.0132701 -0.0178514 -0.0224355 -0.0270946 -0.0322187 -0.0342899 -0.03719 -0.0406841 -0.0446383 -0.0482162 -0.0520694 -0.0561297 -0.060176 -0.0641464 -0.0681707 -0.072151 -0.076403 -0.0803878 -0.0848528 -0.0889584 -0.0927335 -0.0971857 -0.102099 -0.106576 -0.110984 -0.115041 -0.12012 -0.124352 -0.12897 -0.133894 -0.138907 -0.143598 -0.148406 -0.153602 -0.158718 -0.163603 -0.169001 -0.174605 -0.179472 -0.18514 -0.191614 -0.197162 -0.205034 -0.212045 -0.217955 -0.224222 -0.220171 -0.213226 -0.213998 -0.215789 -0.221945 -0.226514 -0.230217 -0.234601 0.0 -0.243047 -0.24805 -0.252939 -0.258389 -0.264585 -0.268338 -0.27296 -0.286379 -0.324153 -0.33027 -0.335069 -0.340912 -0.347586 -0.353427 -0.358669 -0.365679 -0.370982 -0.378107 -0.38145 -0.386121 -0.39218 -0.402702 -0.408087 -0.414524 -0.423629 -0.426902 -0.435842 -0.442384 -0.451296 -0.457513
0.664549 0.602661 0.596994 0.569529 0.553206 0.543333 0.524629 0.513733 0.469749 0.38146 0.346286 0.341574 0.327317 0.315541 0.306805 0.297195 0.292125 0.28763 0.283157 0.280181 0.275639 0.273056 0.26919 0.265895 0.260657 0.257198 0.25419 0.251533 0.24711 0.241967 0.238096 0.234932 0.229231 0.226329 0.221039 0.218564 0.214224 0.210656 0.206946 0.203528 0.198539 0.195857 0.191297 0.186703 0.182676 0.179018 0.174668 0.171897 0.167779 0.164141 0.161366 0.156652 0.153427 0.148341 0.145814 0.140754 0.136885 0.132651 0.129153 0.124894 0.120566 0.117037 0.112783 0.108985 0.104705 0.100817 0.0965655 0.092666 0.0882319 0.0841994 0.080086 0.0758156 0.0722351 0.0680886 0.0636739 0.05955 0.0553667 0.0504337 0.0460211 0.041583 0.0368427 0.0324478 0.0278612 0.0231683 0.0187147 0.0140892 0.00958502 0.00502199 0.000456536 -0.00409246 -0.00867678 -0.0132402 -0.0176258 -0.022379 -0.0269402 -0.0292876 -0.0328218 -0.0365126 -0.040172 -0.043915 -0.0476006 -0.0520156 -0.0558513 -0.0596775 -0.0641187 -0.0678937 -0.0720541 -0.0763929 -0.0804014 -0.084484 -0.0889463 -0.0930565 -0.0970261 -0.10178 -0.106117 -0.111034 -0.115229 -0.119643 -0.124993 -0.129291 -0.133717 -0.138402 -0.143659 -0.148896 -0.153754 -0.158964 -0.165019 -0.168543 -0.174919 -0.180649 -0.185109 -0.192215 -0.199291 -0.206491 -0.213196 -0.217973 -0.222288 -0.216505 -0.213371 -0.214902 -0.216582 -0.220919 -0.225267 -0.229218 -0.234345 -0.238878 -0.242925 -0.247118 -0.252587 -0.257119 -0.262828 -0.267336 -0.273779 -0.291598 -0.322676 -0.327425 -0.332775 -0.340834 -0.346097 -0.351825 -0.358676 -0.362644 -0.369116 -0.375928 -0.381357 -0.382705 -0.391489 -0.398582 -0.407884 -0.414421 -0.419225 -0.426581 -0.433685 -0.437032 -0.444322 -0.454593
0.660293 0.628132 0.592085 0.560422 0.576611 0.535324 0.531546 0.504597 0.505821 0.421283 0.358231 0.342378 0.340665 0.322513 0.311426 0.302303 0.294518 0.287747 0.283272 0.279861 0.277035 0.273168 0.269466 0.264781 0.261325 0.256988 0.254062 0.249731 0.245639 0.242509 0.238701 0.234462 0.230233 0.22615 0.222475 0.218656 0.214314 0.210492 0.206663 0.203371 0.199277 0.195766 0.190867 0.187395 0.182429 0.178671 0.175054 0.171365 0.167457 0.163492 0.1605 0.156947 0.153183 0.14931 0.145333 0.140937 0.137102 0.132785 0.129025 0.124699 0.12134 0.117088 0.113374 0.10845 0.105546 0.101171 0.0970662 0.0926802 0.0889081 0.0845388 0.0806065 0.0767455 0.0730319 0.0684857 0.0641136 0.059575 0.055139 0.0503737 0.045708 0.0413453 0.0366904 0.0322278 0.0277168 0.0231035 0.0185577 0.0140876 0.00948926 0.00499998 0.000454535 -0.00406787 -0.00858551 -0.013108 -0.0179089 -0.0215225 -0.0245354 -0.0277368 -0.0319224 -0.0357815 -0.0394794 -0.0436042 -0.047537 -0.0516162 -0.0556074 -0.0596522 -0.0636455 -0.0676381 -0.0722202 -0.0761529 -0.0802457 -0.0844735 -0.0887211 -0.0933244 -0.0976562 -0.101706 -0.106578 -0.110987 -0.11535 -0.120157 -0.124939 -0.129463 -0.133425 -0.138947 -0.144013 -0.149217 -0.153951 -0.159755 -0.164948 -0.170237 -0.175039 -0.181576 -0.186935 -0.194613 -0.201745 -0.208339 -0.212991 -0.216722 -0.221778 -0.216408 -0.213272 -0.217193 -0.220205 -0.220879 -0.224023 0.0 -0.233538 0.0 -0.24151 -0.247144 -0.249553 -0.256916 -0.258912 -0.267283 -0.275721 -0.297958 -0.322114 -0.324083 -0.330828 -0.337989 -0.344703 -0.35014 -0.355422 -0.362288 -0.367726 -0.373187 -0.375976 -0.382618 -0.391895 -0.396983 -0.403917 -0.410397 -0.41588 -0.425419 -0.430246 -0.438566 -0.44477 -0.451908
0.631584 0.606204 0.59251 0.581741 0.577565 0.554696 0.524184 0.517027 0.497335 0.49576 0.37743 0.347498 0.337891 0.335576 0.317832 0.306768 0.297735 0.29002 0.285246 0.280675 0.276725 0.272947 0.267095 0.264731 0.261678 0.25702 0.253783 0.249762 0.247092 0.242613 0.23837 0.234279 0.230681 0.226249 0.222907 0.218685 0.214215 0.210395 0.206815 0.202066 0.199305 0.195213 0.190782 0.186755 0.182565 0.17838 0.174822 0.17134 0.166596 0.163949 0.16132 0.157517 0.153251 0.14972 0.145356 0.141365 0.137792 0.133339 0.129525 0.125182 0.122047 0.11714 0.113424 0.10905 0.105239 0.101808 0.0976219 0.0937001 0.0893642 0.0857648 0.0815031 0.0770917 0.0726507 0.0680547 0.0636939 0.0591533 0.0547938 0.0501924 0.0455677 0.0411967 0.0366866 0.0318869 0.0276247 0.0231011 0.0185258 0.0140257 0.00944734 0.00490967 0.000452783 -0.00403784 -0.00851054 -0.0133575 -0.0168663 -0.0200454 -0.023555 -0.0277508 -0.0317651 -0.035192 -0.0391856 -0.0433604 -0.0472563 -0.0515478 -0.0556353 -0.0596457 -0.0638325 -0.0680018 -0.0720593 -0.0761905 -0.0803824 -0.0848722 -0.0891923 -0.0932577 -0.0976447 -0.101694 -0.106439 -0.111565 -0.115712 -0.11947 -0.12496 -0.129787 -0.134697 -0.139452 -0.144451 -0.148342 -0.154547 -0.159054 -0.165855 -0.170643 -0.176779 -0.183058 -0.189794 -0.195376 -0.202796 -0.207478 -0.212449 -0.217845 -0.221447 -0.21426 0.0 0.0 0.0 0.0 0.0 0.0 0.0 0.0 0.0 0.0 -0.249956 0.0 -0.261414 -0.269198 -0.278067 -0.305538 -0.317593 -0.323937 -0.328462 -0.335584 -0.342699 -0.345782 -0.350451 -0.356873 -0.363818 -0.369221 -0.372144 -0.382343 -0.388148 -0.394789 -0.401182 -0.40566 -0.415895 -0.419168 -0.429291 -0.434543 -0.440361 -0.451921
0.622355 0.600467 0.578648 0.568829 0.573566 0.545217 0.545611 0.51993 0.500712 0.498385 0.43487 0.367408 0.340047 0.333896 0.32949 0.31761 0.304777 0.294896 0.288724 0.283231 0.278985 0.274835 0.270362 0.266967 0.261473 0.258238 0.254051 0.249797 0.246902 0.242648 0.238476 0.233674 0.22967 0.22676 0.222403 0.217797 0.21386 0.210553 0.207095 0.202461 0.198327 0.195186 0.191607 0.187341 0.182594 0.178833 0.174954 0.170762 0.167658 0.163496 0.160458 0.157361 0.153852 0.149487 0.145213 0.142078 0.13809 0.132829 0.12951 0.125168 0.121243 0.118088 0.113635 0.109928 0.106229 0.102615 0.0996356 0.0943087 0.0905327 0.0859659 0.0813182 0.076625 0.0723096 0.067606 0.0633438 0.058844 0.0541837 0.0498223 0.0454649 0.0409266 0.0365449 0.0319358 0.0274362 0.0229249 0.0183542 0.01393 0.00934411 0.00490787 0.000447623 -0.00404185 -0.0087505 -0.0127415 -0.0158573 -0.0202525 -0.023941 -0.0275547 -0.0312999 -0.0351886 -0.0390733 -0.0433031 -0.0471066 -0.0512282 -0.0556298 -0.0596035 -0.0636516 -0.0680775 -0.0722049 -0.0762981 -0.0807142 -0.0844807 -0.0894772 -0.0933597 -0.0975759 -0.102079 -0.106617 -0.110764 -0.115733 -0.120164 -0.125531 -0.129772 -0.134642 -0.139194 -0.144267 -0.14965 -0.154704 -0.160574 -0.166625 -0.172437 -0.178717 -0.184291 -0.19116 -0.198042 -0.200823 -0.207505 -0.212137 -0.216658 -0.219111 -0.213686 0.0 0.0 0.0 0.0 0.0 0.0 0.0 0.0 0.0 0.0 0.0 0.0 -0.26361 -0.270252 -0.280177 -0.308572 -0.317373 -0.323712 -0.329086 -0.333099 -0.338767 -0.344022 -0.351929 -0.355334 -0.359171 -0.36422 -0.374191 -0.379048 -0.386885 -0.394914 -0.39927 -0.406614 -0.411415 -0.416219 -0.425009 -0.434347 -0.439941 -0.449254
0.623379 0.602604 0.585857 0.584692 0.56796 0.539797 0.5473 0.522428 0.520134 0.501118 0.497164 0.417669 0.356685 0.334886 0.325873 0.325682 0.316005 0.308017 0.296618 0.288397 0.282617 0.275969 0.270402 0.268392 0.263115 0.260326 0.255407 0.252273 0.248213 0.244304 0.238297 0.233712 0.230055 0.226114 0.22311 0.217439 0.214283 0.210588 0.206448 0.202071 0.199251 0.194115 0.19164 0.186984 0.183115 0.178865 0.17338 0.171297 0.167688 0.163669 0.160253 0.157298 0.152374 0.149642 0.145365 0.142184 0.138744 0.133386 0.129975 0.12633 0.12154 0.118142 0.114103 0.110745 0.10825 0.104693 0.0995722 0.0948665 0.0903281 0.0857715 0.0812887 0.0767641 0.0718318 0.0674894 0.062874 0.0586472 0.0540019 0.0496285 0.045104 0.0404684 0.0360581 0.0317082 0.0272704 0.0228981 0.0183626 0.0138797 0.00940217 0.00485117 0.000460499 -0.00409853 -0.00821505 -0.012115 -0.0161031 -0.0197254 -0.0233711 -0.027317 -0.0311047 -0.0348927 -0.039263 -0.0431001 -0.047117 -0.0510507 -0.0552182 -0.059253 -0.0636459 -0.0681538 -0.0721109 -0.076291 -0.0804153 -0.084983 -0.0898965 -0.0937982 -0.0980044 -0.102343 -0.106923 -0.111608 -0.115755 -0.120682 -0.125335 -0.130326 -0.135175 -0.139985 -0.145664 -0.150147 -0.1557 -0.161416 -0.16656 -0.173133 -0.17953 -0.185928 -0.191652 -0.196171 -0.201015 -0.205765 -0.209452 -0.213161 -0.217842 -0.212933 -0.212501 0.0 0.0 -0.223137 0.0 0.0 0.0 0.0 0.0 0.0 0.0 0.0 -0.264806 -0.272096 -0.28269 -0.310229 -0.314434 -0.321564 -0.32622 -0.331487 -0.336688 -0.343251 -0.349876 -0.352881 -0.359391 -0.363304 -0.372203 -0.377031 -0.386818 -0.392535 -0.395431 -0.402721 -0.410504 -0.416463 -0.422458 -0.43067 -0.440193 -0.448949
0.618045 0.595321 0.590859 0.579568 0.573802 0.543862 0.537133 0.525245 0.520257 0.502046 0.496789 0.48466 0.370332 0.346531 0.329759 0.320279 0.316595 0.31469 0.304866 0.297301 0.287963 0.283251 0.277071 0.270636 0.265403 0.26163 0.257154 0.252848 0.247132 0.243242 0.239711 0.234888 0.230792 0.226563 0.222345 0.218135 0.213677 0.210247 0.206795 0.202593 0.198991 0.195197 0.191391 0.18663 0.181792 0.178633 0.175536 0.171633 0.167129 0.163412 0.160423 0.156509 0.153687 0.148896 0.145309 0.142292 0.139084 0.13501 0.130258 0.126425 0.123144 0.119092 0.116006 0.113066 0.109241 0.104092 0.0997527 0.0943177 0.0897809 0.0857644 0.0808625 0.0764033 0.0719439 0.0672079 0.0629894 0.0580038 0.0537175 0.0493 0.0448297 0.0403655 0.0358678 0.0314549 0.0270454 0.0226106 0.0181864 0.0137163 0.00927611 0.00505985 0.000447917 -0.00381097 -0.00783716 -0.0114924 -0.0152704 -0.0192762 -0.0232111 -0.0271383 -0.0309483 -0.0346081 -0.0392841 -0.0432561 -0.0469538 -0.0510624 -0.0553324 -0.05943 -0.0636408 -0.0680658 -0.0725418 -0.0768152 -0.0807243 -0.0857157 -0.0897285 -0.093958 -0.0982003 -0.102973 -0.107167 -0.111335 -0.115813 -0.120706 -0.125507 -0.130427 -0.13567 -0.140939 -0.145608 -0.151159 -0.155728 -0.161852 -0.168403 -0.174405 -0.180883 -0.185406 -0.190396 -0.196361 -0.197535 -0.202148 -0.207505 -0.210939 -0.216812 -0.212728 0.0 0.0 0.0 0.0 0.0 0.0 0.0 0.0 0.0 -0.250216 0.0 -0.26146 -0.266006 -0.273316 -0.283849 -0.3084 -0.31505 -0.320092 -0.324469 -0.331439 -0.333913 -0.34195 -0.344927 -0.350803 -0.35616 -0.362775 -0.368971 -0.377558 -0.382797 -0.386548 -0.395776 -0.400901 -0.407821 -0.415547 -0.419485 -0.430819 -0.43747 -0.446748
0.623869 0.593439 0.58601 0.581671 0.562287 0.551872 0.534643 0.525274 0.52049 0.510436 0.504464 0.483517 0.409548 0.367403 0.346205 0.324944 0.316372 0.311783 0.304827 0.302561 0.295877 0.291125 0.283247 0.277445 0.269296 0.262702 0.259138 0.254646 0.249273 0.244611 0.240261 0.235712 0.23174 0.226197 0.222052 0.217191 0.213976 0.210604 0.205165 0.202572 0.198733 0.194887 0.191031 0.186279 0.18172 0.178139 0.175519 0.171263 0.168148 0.16407 0.160923 0.156176 0.153983 0.149701 0.146466 0.142929 0.139466 0.134314 0.130689 0.127554 0.1231 0.120408 0.115997 0.1118 0.107761 0.103689 0.0992866 0.094388 0.0898234 0.0850824 0.0802826 0.0757096 0.0716443 0.0668533 0.0624349 0.0581116 0.0533893 0.049256 0.0447036 0.0402851 0.0360134 0.0312625 0.0269841 0.0225035 0.0179904 0.0139004 0.00928829 0.00472319 0.000407813 -0.00356624 -0.00751956 -0.0113114 -0.0151173 -0.0191137 -0.0230874 -0.0268423 -0.0310714 -0.0349745 -0.0389677 -0.0429742 -0.0469506 -0.0513734 -0.0551252 -0.059662 -0.0634812 -0.0683083 -0.0725584 -0.0770402 -0.0814226 -0.0855563 -0.0897753 -0.0938671 -0.0988058 -0.103269 -0.107444 -0.112279 -0.116622 -0.121297 -0.125936 -0.13087 -0.135658 -0.141249 -0.146676 -0.151189 -0.156683 -0.162019 -0.169923 -0.175774 -0.180328 -0.185087 -0.189193 -0.192754 -0.195301 -0.201575 -0.205279 -0.211901 -0.21484 -0.212223 -0.214796 0.0 0.0 -0.226556 0.0 0.0 0.0 0.0 0.0 0.0 0.0 0.0 0.0 -0.274303 -0.286529 -0.308199 -0.313938 -0.318374 -0.321871 -0.327327 -0.333782 -0.339316 -0.342162 -0.347351 -0.355645 -0.361399 -0.367863 -0.374579 -0.382051 -0.3877 -0.393277 -0.398677 -0.403995 -0.413578 -0.420716 -0.428032 -0.439506 -0.448811
0.622768 0.62479 0.586491 0.56892 0.559306 0.539994 0.535417 0.518999 0.517977 0.511079 0.500135 0.423174 0.377858 0.369642 0.358906 0.343829 0.324701 0.315867 0.307262 0.302614 0.296272 0.290925 0.286941 0.282302 0.273594 0.270395 0.263759 0.257513 0.251717 0.245762 0.241465 0.235901 0.231648 0.226517 0.222701 0.219077 0.214858 0.211406 0.206198 0.202372 0.19836 0.19516 0.189822 0.18643 0.182953 0.178124 0.174521 0.171553 0.168233 0.164009 0.16049 0.157484 0.154813 0.150163 0.146873 0.143891 0.139809 0.135446 0.13149 0.128008 0.12371 0.11924 0.114841 0.110413 0.106253 0.102272 0.098255 0.0938669 0.0894988 0.0853334 0.0801672 0.0758717 0.0713846 0.0667756 0.0623452 0.0579803 0.0531649 0.048969 0.0445532 0.0400721 0.0357251 0.0310184 0.0268934 0.0223717 0.0179644 0.0126422 0.00834644 0.00430087 0.000387327 -0.00351013 -0.00741036 -0.0111871 -0.0150927 -0.0191126 -0.0235173 -0.0275216 -0.0315219 -0.0352977 -0.0389534 -0.0429717 -0.0471508 -0.0511502 -0.0553591 -0.0599127 -0.0639426 -0.0682011 -0.0726194 -0.077289 -0.081636 -0.0853723 -0.0900903 -0.0946438 -0.0991496 -0.103597 -0.107183 -0.112272 -0.117024 -0.12196 -0.126622 -0.131352 -0.136508 -0.141602 -0.147371 -0.152417 -0.157859 -0.164043 -0.170607 -0.174566 -0.177765 -0.181505 -0.187581 -0.190205 -0.196797 -0.1999 -0.205601 -0.210842 -0.213403 -0.21148 0.0 0.0 0.0 0.0 0.0 0.0 0.0 0.0 0.0 0.0 0.0 -0.261403 -0.267104 -0.275452 -0.289693 -0.307192 -0.310273 -0.314062 -0.320387 -0.327291 -0.33181 -0.335706 -0.340854 -0.347587 -0.354483 -0.361262 -0.36705 -0.374046 -0.377749 -0.38434 -0.390582 -0.398732 -0.404573 -0.410662 -0.418513 -0.426888 -0.437242 -0.448419
0.647145 0.606207 0.580337 0.576401 0.553316 0.54164 0.535886 0.530643 0.519455 0.469347 0.401219 0.383597 0.369525 0.363901 0.358215 0.352286 0.344035 0.323538 0.311554 0.302064 0.295133 0.290056 0.28559 0.281381 0.275091 0.270292 0.264665 0.258785 0.253192 0.247432 0.242672 0.237087 0.230863 0.226498 0.20975 0.202103 0.213875 0.211705 0.206182 0.203205 0.19882 0.195088 0.19049 0.186971 0.182506 0.179808 0.175493 0.171238 0.168123 0.164765 0.160479 0.156791 0.153962 0.151013 0.147114 0.143923 0.140547 0.135247 0.131519 0.127502 0.123084 0.11867 0.114006 0.10964 0.105217 0.101223 0.0964961 0.0925742 0.0886111 0.0843269 0.080163 0.0756592 0.0710472 0.0663119 0.0618951 0.0572908 0.0528673 0.0484931 0.0443787 0.0393827 0.0354372 0.0307834 0.0261341 0.0209231 0.0161257 0.0120223 0.0080698 0.00425109 0.000385968 -0.00347488 -0.00735446 -0.0111901 -0.0150777 -0.0189803 -0.0235305 -0.0269655 -0.0309044 -0.0350574 -0.0388067 -0.0427304 -0.0468874 -0.0511476 -0.0554749 -0.0599096 -0.0644046 -0.0685685 -0.0732269 -0.0774693 -0.0815588 -0.0860053 -0.0904062 -0.09503 -0.0989105 -0.103621 -0.107778 -0.112495 -0.117699 -0.122413 -0.127016 -0.132176 -0.137124 -0.142801 -0.147901 -0.152921 -0.157981 -0.164621 -0.16962 -0.172502 -0.1755 0.0 -0.184838 -0.190034 -0.194622 0.0 -0.20536 -0.208919 -0.212442 0.0 0.0 0.0 0.0 0.0 0.0 0.0 0.0 0.0 0.0 0.0 0.0 0.0 -0.269397 -0.277077 -0.290785 -0.303755 -0.308594 -0.313362 -0.322146 -0.326481 -0.327998 -0.334335 -0.340277 -0.347461 -0.353047 -0.358382 -0.366532 -0.371667 -0.37682 -0.384903 -0.388201 -0.396109 -0.401496 -0.409028 -0.418577 -0.426952 -0.434876 -0.448595
0.653795 0.593923 0.577297 0.55821 0.550464 0.541486 0.534896 0.517451 0.42733 0.393808 0.385503 0.371334 0.367662 0.36235 0.357905 0.349858 0.346189 0.341152 0.326078 0.310288 0.298614 0.291716 0.285817 0.279486 0.273789 0.269169 0.26542 0.258614 0.253997 0.248811 0.242655 0.236858 0.229664 0.212072 0.181526 0.180007 0.18203 0.212702 0.207716 0.20295 0.199163 0.195076 0.191557 0.187127 0.183689 0.179533 0.176207 0.171683 0.168113 0.164133 0.160751 0.157829 0.154219 0.151264 0.148569 0.144807 0.140501 0.135431 0.131034 0.127033 0.122632 0.118532 0.113394 0.109359 0.105212 0.10057 0.0961411 0.0922096 0.0876507 0.0838106 0.0789453 0.0751138 0.0709853 0.0667878 0.0616175 0.0572245 0.0529241 0.0485046 0.04386 0.0388156 0.0332944 0.0284555 0.023785 0.0197668 0.0157755 0.0118633 0.00806436 0.00422815 0.000386562 -0.00346378 -0.00733334 -0.0111967 -0.0150249 -0.0193496 -0.0235296 -0.0270737 -0.030855 -0.034709 -0.0389981 -0.0432068 -0.047364 -0.0513812 -0.0558792 -0.0601069 -0.0645569 -0.0695135 -0.0736604 -0.0778118 -0.0818951 -0.0864861 -0.0908832 -0.0953612 -0.0995189 -0.103769 -0.107805 -0.113279 -0.118239 -0.122866 -0.127815 -0.132888 -0.138093 -0.142875 -0.147562 -0.154153 -0.157929 -0.162123 -0.166635 -0.170344 -0.174559 -0.179723 -0.184467 -0.188968 -0.194503 -0.199929 0.0 -0.209253 -0.212429 -0.211813 0.0 0.0 0.0 0.0 0.0 0.0 0.0 0.0 0.0 -0.251514 -0.257281 -0.262499 -0.270844 -0.278548 -0.291881 -0.302352 -0.306343 -0.3125 -0.317691 -0.322734 -0.325863 -0.333058 -0.337802 -0.346145 -0.350123 -0.358258 -0.363521 -0.369002 -0.375403 -0.38216 -0.387455 -0.393598 -0.40345 -0.409947 -0.41854 -0.426806 -0.439035 -0.45113
0.645793 0.596462 0.563858 0.562652 0.549025 0.54113 0.470639 0.40615 0.398719 0.383313 0.378431 0.372875 0.367831 0.360426 0.356571 0.348913 0.343713 0.338534 0.331789 0.325982 0.30868 0.296157 0.288117 0.282727 0.276016 0.270178 0.26463 0.259208 0.253235 0.248724 0.241992 0.229118 0.192629 0.186722 0.0 0.0 0.181119 0.206818 0.208634 0.204091 0.199391 0.19466 0.191548 0.187285 0.183681 0.178623 0.17563 0.172584 0.168155 0.165373 0.161118 0.158323 0.154965 0.152376 0.14944 0.14391 0.139552 0.134817 0.13044 0.126139 0.122146 0.117766 0.11339 0.109417 0.104296 0.100284 0.0958409 0.0916399 0.086961 0.082666 0.0782141 0.0740269 0.0695302 0.0647974 0.0595186 0.0531992 0.047953 0.0429846 0.0390716 0.0352556 0.0315171 0.0274773 0.0233979 0.0194929 0.015765 0.0120592 0.00808968 0.00424141 0.000387037 -0.00347463 -0.00733542 -0.0111717 -0.0151479 -0.0190387 -0.0230042 -0.0269804 -0.0309021 -0.0354235 -0.0395517 -0.0430992 -0.047406 -0.0515368 -0.0559282 -0.0603591 -0.0639732 -0.0690784 -0.0736142 -0.077763 -0.0821351 -0.086177 -0.09088 -0.0954696 -0.100362 -0.104343 -0.109162 -0.113439 -0.118166 -0.123462 -0.128431 -0.133714 -0.138868 -0.143392 -0.149092 -0.152222 -0.15669 -0.161438 -0.165 -0.169573 -0.174355 -0.17851 -0.184459 -0.189328 -0.193846 -0.197929 -0.202907 -0.207913 -0.211591 0.0 0.0 0.0 0.0 0.0 0.0 0.0 0.0 0.0 0.0 0.0 -0.257564 -0.261043 -0.270828 -0.277747 -0.294418 -0.299899 -0.304922 -0.312397 -0.316224 -0.319253 -0.325931 -0.331966 -0.337328 -0.345571 -0.351502 -0.356529 -0.362055 -0.366929 -0.371914 -0.377618 -0.38692 -0.392643 -0.400178 -0.40854 -0.418512 -0.428848 -0.442097 -0.456022
0.64576 0.578481 0.561172 0.550058 0.490346 0.432394 0.409546 0.397953 0.386859 0.381382 0.375237 0.371488 0.364631 0.358508 0.353182 0.348712 0.34297 0.337175 0.332127 0.325534 0.318152 0.310022 0.295968 0.284751 0.279769 0.272293 0.265394 0.259122 0.254047 0.249522 0.241982 0.201959 0.190395 0.0 0.0 0.0 0.0 0.193297 0.206213 0.20366 0.199977 0.195756 0.191542 0.188666 0.183512 0.180101 0.175935 0.172528 0.16943 0.165512 0.162141 0.157772 0.15558 0.152371 0.149268 0.143379 0.139195 0.134166 0.130068 0.125495 0.120769 0.116339 0.112813 0.107911 0.104117 0.100281 0.0954338 0.0910968 0.0861986 0.081033 0.0748567 0.0675818 0.0620889 0.0577272 0.0534847 0.0497812 0.0457696 0.0421315 0.0382462 0.0346228 0.0308158 0.0269837 0.0232859 0.0195546 0.0155599 0.0118249 0.0080051 0.00424667 0.000386054 -0.00347455 -0.00734913 -0.0112632 -0.0151476 -0.0190442 -0.0230684 -0.0270638 -0.0313826 -0.0353576 -0.0392612 -0.0434036 -0.0474338 -0.0518028 -0.0559946 -0.0603577 -0.0646501 -0.0695919 -0.0737652 -0.0781068 -0.0825943 -0.0867359 -0.0911717 -0.0959703 -0.100359 -0.105191 -0.109633 -0.114324 -0.119152 -0.123529 -0.129049 -0.134542 -0.138084 -0.142824 -0.1478 -0.151662 -0.154837 -0.160483 0.0 -0.169567 0.0 -0.178705 -0.184041 -0.188478 -0.193407 0.0 0.0 -0.207964 0.0 0.0 0.0 0.0 0.0 0.0 0.0 0.0 0.0 0.0 0.0 -0.251637 -0.258896 -0.263687 -0.27128 -0.280012 -0.293128 -0.299724 -0.304662 -0.308024 -0.313313 -0.319498 -0.325037 -0.331594 -0.337131 -0.342059 -0.348217 -0.351774 -0.358672 -0.364375 -0.369323 -0.3776 -0.38456 -0.391179 -0.399322 -0.409157 -0.420749 -0.431006 -0.445057 -0.47133
0.62653 0.561634 0.507231 0.436733 0.418959 0.408022 0.394843 0.391731 0.385214 0.380263 0.374134 0.369031 0.364042 0.358117 0.351205 0.347133 0.341869 0.334301 0.328415 0.323181 0.317887 0.309677 0.303574 0.294677 0.282244 0.275121 0.26771 0.262693 0.255387 0.248046 0.241976 0.196212 0.0 0.0 0.0 0.0 0.0 0.178011 0.195196 0.191233 0.185083 0.187799 0.189493 0.188662 0.185081 0.181211 0.176862 0.173786 0.169427 0.16642 0.162652 0.159953 0.156683 0.154174 0.147804 0.143538 0.138524 0.134126 0.129771 0.124959 0.120732 0.116403 0.112779 0.1084 0.103733 0.0977981 0.0913863 0.0830106 0.0766579 0.0725046 0.0680786 0.064307 0.0605568 0.0569348 0.053037 0.0492696 0.0457836 0.0419685 0.0382087 0.0345225 0.0310423 0.0269574 0.0233004 0.0194487 0.0156945 0.0118662 0.00810728 0.00424527 0.000385318 -0.00347998 -0.00734671 -0.0112666 -0.0152091 -0.019032 -0.0231543 -0.0269877 -0.0314784 -0.0354113 -0.0397431 -0.0435358 -0.0474186 -0.0517234 -0.0561632 -0.0606655 -0.0649593 -0.0694466 -0.073895 -0.0784975 -0.0826172 -0.086862 -0.0917315 -0.0961364 -0.100328 -0.105585 -0.109884 -0.114552 -0.11973 -0.124658 -0.129998 -0.133557 -0.136676 -0.141251 0.0 0.0 -0.15479 0.0 -0.163597 0.0 0.0 -0.176139 -0.182544 -0.188896 -0.191567 -0.197034 -0.201538 0.0 -0.210575 0.0 0.0 0.0 0.0 0.0 0.0 0.0 0.0 0.0 0.0 0.0 -0.258964 -0.264894 -0.270732 -0.280004 -0.293121 -0.298093 -0.300281 -0.306003 -0.311942 -0.316893 -0.32661 -0.329978 -0.335218 -0.340945 -0.346433 -0.351764 -0.357507 -0.36251 -0.369114 -0.375079 -0.383429 -0.392302 -0.399728 -0.40978 -0.421704 -0.436223 -0.453767 -0.495485
0.625271 0.510243 0.440015 0.418152 0.4058 0.400146 0.394733 0.389243 0.382045 0.378044 0.372343 0.368341 0.361819 0.356307 0.350358 0.343808 0.338774 0.331969 0.324531 0.31875 0.314807 0.30757 0.302577 0.295488 0.288728 0.279529 0.270495 0.263146 0.258227 0.250175 0.241973 0.197628 0.0 0.0 0.0 0.0 0.0 0.175925 0.187213 0.184385 0.180514 0.167073 0.163427 0.16251 0.163376 0.166846 0.167909 0.169039 0.167259 0.161572 0.157229 0.152946 0.150841 0.148066 0.144503 0.138472 0.134555 0.128607 0.122555 0.116917 0.111973 0.107825 0.103436 0.0979764 0.0930203 0.0875045 0.0836713 0.0791737 0.0749408 0.0718051 0.0681885 0.0638687 0.0601246 0.056732 0.0528477 0.0492852 0.0455179 0.041806 0.0382084 0.0345667 0.0307856 0.0270783 0.0232483 0.019461 0.0156395 0.0119417 0.00811491 0.00423989 0.000386655 -0.00348216 -0.00735824 -0.0112524 -0.0151472 -0.0192646 -0.0233266 -0.0270716 -0.0313531 -0.0355521 -0.0398997 -0.043934 -0.0478534 -0.0519904 -0.0561967 -0.0605743 -0.0653272 -0.0697964 -0.0743748 -0.078497 -0.082641 -0.087499 -0.0923724 -0.0967787 -0.101524 -0.106071 -0.110422 -0.115997 -0.120309 -0.123491 -0.12879 -0.13314 -0.136675 0.0 -0.145305 -0.149093 0.0 0.0 0.0 -0.166698 0.0 -0.17674 -0.181924 -0.186996 -0.190377 -0.196093 0.0 -0.204605 0.0 0.0 0.0 0.0 0.0 0.0 0.0 0.0 0.0 0.0 0.0 0.0 0.0 -0.264891 -0.272582 -0.281336 -0.289845 -0.294843 -0.300443 -0.305245 -0.311853 -0.317928 -0.324233 -0.328546 -0.333674 -0.338641 -0.34176 -0.350622 -0.354907 -0.362603 -0.368021 -0.374873 -0.382915 -0.390336 -0.397735 -0.409669 -0.421483 -0.437634 -0.478387 -0.540797
0.625388 0.484442 0.423409 0.411052 0.403538 0.400148 0.392637 0.389348 0.382762 0.37553 0.370063 0.364723 0.357771 0.355929 0.347363 0.341502 0.33714 0.330001 0.323916 0.319619 0.314039 0.30732 0.301172 0.29557 0.289771 0.28402 0.276614 0.266954 0.260248 0.252969 0.244501 0.205922 0.19199 0.0 0.0 0.0 0.0 0.0 0.167911 0.166874 0.167226 0.172878 0.163428 0.159568 0.15578 0.153861 0.151662 0.149096 0.144315 0.141754 0.139703 0.135795 0.131638 0.128887 0.125 0.121006 0.118213 0.11491 0.111179 0.107417 0.103421 0.0998116 0.0966768 0.093133 0.0901661 0.0857281 0.0819992 0.0785559 0.0744996 0.0711064 0.067085 0.0638897 0.0601444 0.0564376 0.0529853 0.0491736 0.0451642 0.0416844 0.0380117 0.0345113 0.0308843 0.0270524 0.0234192 0.0195294 0.0157294 0.0119002 0.00810725 0.00422516 0.000387143 -0.00348655 -0.00738371 -0.0112948 -0.0152708 -0.01939 -0.0232332 -0.027265 -0.0313243 -0.0358341 -0.0402375 -0.0440934 -0.047984 -0.0521949 -0.0564849 -0.0611376 -0.0656181 -0.0701882 -0.0746151 -0.0790044 -0.083588 -0.0881878 -0.0928805 -0.0970306 -0.101787 -0.106497 -0.110295 -0.113992 -0.118706 -0.122926 -0.126853 0.0 -0.13566 0.0 -0.144891 0.0 -0.154394 -0.158986 -0.162016 -0.166508 0.0 0.0 -0.180586 0.0 -0.189514 -0.194822 0.0 0.0 0.0 0.0 0.0 0.0 0.0 0.0 0.0 0.0 0.0 0.0 0.0 0.0 -0.260229 -0.266106 -0.272043 -0.281415 -0.28777 -0.293709 -0.298547 -0.305331 -0.310151 -0.31542 -0.319928 -0.325335 -0.331138 -0.336343 -0.341668 -0.346833 -0.351928 -0.363288 -0.368122 -0.373771 -0.380474 -0.390648 -0.402341 -0.413278 -0.430625 -0.458995 -0.50401 -0.639829
0.6287 0.56557 0.431946 0.411499 0.403333 0.397924 0.390862 0.387598 0.378177 0.375236 0.367987 0.362775 0.357201 0.351565 0.34606 0.340864 0.334511 0.329024 0.322777 0.318064 0.31191 0.306485 0.302502 0.294762 0.289857 0.284971 0.280104 0.27145 0.26347 0.255472 0.247899 0.229461 0.192898 0.0 0.0 0.178544 0.0 0.0 0.171811 0.0 0.165331 0.163767 0.16485 0.165234 0.15486 0.152168 0.149439 0.147129 0.141363 0.139261 0.136947 0.133022 0.129958 0.126566 0.123749 0.119549 0.116564 0.113009 0.109929 0.106387 0.103456 0.0996142 0.0960722 0.0925211 0.0891372 0.0856164 0.082162 0.0782479 0.0745986 0.0711306 0.0672844 0.0637028 0.0600666 0.0563646 0.0526078 0.0491901 0.0455186 0.041793 0.0380367 0.0346115 0.0308748 0.0270959 0.0234566 0.0195917 0.0157296 0.0119531 0.0081278 0.00426004 0.000389217 -0.00351289 -0.00735834 -0.011355 -0.0153944 -0.0194021 -0.02337 -0.0276183 -0.0315652 -0.0360079 -0.0402862 -0.0441072 -0.0481296 -0.0521798 -0.0567566 -0.0615015 -0.066278 -0.0704157 -0.0751181 -0.0796509 -0.0839047 -0.0880614 -0.0921599 -0.0966964 -0.100942 -0.105373 -0.109379 -0.113501 -0.118605 -0.121302 -0.126525 0.0 -0.135662 -0.140205 0.0 -0.149052 0.0 0.0 -0.162437 -0.167274 -0.170919 -0.174533 0.0 -0.183834 -0.190435 -0.19477 0.0 -0.203916 0.0 0.0 0.0 0.0 0.0 0.0 0.0 0.0 0.0 0.0 0.0 0.0 0.0 0.0 -0.271817 -0.27938 -0.2861 -0.290955 -0.296738 -0.302319 -0.310072 -0.313869 -0.318177 -0.324628 -0.331055 -0.334694 -0.341209 -0.345609 -0.352128 -0.356663 -0.365063 -0.373278 -0.382621 -0.391999 -0.403502 -0.418592 -0.443968 -0.489737 -0.569952 -0.710565
0.64737 0.573336 0.492202 0.422772 0.404536 0.398047 0.390879 0.385751 0.37707 0.374849 0.368102 0.361909 0.355093 0.350344 0.343076 0.337925 0.332979 0.327156 0.32129 0.31634 0.309785 0.304983 0.300113 0.294692 0.289707 0.284902 0.281431 0.274733 0.270586 0.25923 0.251661 0.243575 0.204804 0.189314 0.0 0.178549 0.0 0.0 0.0 0.0 0.1667 0.0 0.161391 0.159686 0.164143 0.157684 0.150841 0.144508 0.141317 0.139457 0.135876 0.132844 0.129254 0.125838 0.122749 0.119592 0.115938 0.112936 0.109343 0.106247 0.102566 0.0992853 0.0959468 0.0922473 0.0887567 0.0855901 0.0817053 0.0781981 0.0745021 0.0710622 0.0671534 0.0637458 0.0600089 0.0559608 0.0529354 0.0489836 0.0454163 0.0418074 0.0380251 0.0345457 0.0309346 0.0270359 0.0233828 0.0197101 0.0158448 0.0119534 0.00815865 0.00427754 0.000389834 -0.00349104 -0.00740014 -0.0114047 -0.0154232 -0.0193966 -0.023428 -0.0277197 -0.0318546 -0.0361822 -0.0402388 -0.043962 -0.048145 -0.0526839 -0.0574863 -0.0621386 -0.06626 -0.0707881 -0.0754472 -0.0789609 -0.0835665 -0.0881653 -0.0915472 -0.0958319 -0.100536 -0.104828 0.0 0.0 -0.117551 0.0 0.0 -0.131596 -0.1359 0.0 -0.144232 -0.149313 -0.153432 0.0 -0.162581 -0.166706 -0.17112 -0.175141 -0.179513 0.0 -0.188172 -0.193007 -0.197928 0.0 -0.207512 0.0 0.0 0.0 0.0 0.0 0.0 0.0 0.0 0.0 0.0 0.0 -0.261883 -0.267031 -0.271132 -0.279312 -0.284434 -0.290154 -0.294521 -0.29948 -0.304887 -0.312237 -0.317574 -0.32223 -0.328077 -0.333144 -0.337487 -0.344865 -0.350315 -0.359506 -0.364979 -0.372691 -0.380804 -0.393357 -0.407495 -0.431021 -0.465493 -0.525722 -0.677433 -0.711603
0.660255 0.62061 0.611719 0.543659 0.442946 0.40722 0.39468 0.390328 0.383218 0.373462 0.36723 0.35968 0.351738 0.347132 0.338413 0.334529 0.325725 0.31446 0.309581 0.30646 0.300315 0.297176 0.291935 0.286727 0.282193 0.277828 0.273313 0.268504 0.264091 0.259463 0.254922 0.247132 0.237036 0.193011 0.185609 0.180595 0.0 0.0 0.0 0.0 0.0 0.0 0.160773 0.158416 0.15677 0.155518 0.152606 0.147139 0.142111 0.137686 0.134806 0.132257 0.129613 0.125585 0.122336 0.119597 0.11551 0.112255 0.109457 0.106215 0.102569 0.0988912 0.0952166 0.0925569 0.0888773 0.0856211 0.0816809 0.0779174 0.0747987 0.0709712 0.0671776 0.0634141 0.0600107 0.0566804 0.052937 0.0493523 0.0455356 0.0418221 0.0383585 0.0345134 0.030827 0.0272183 0.023428 0.0196672 0.0158302 0.011965 0.00813075 0.00427632 0.000388749 -0.00351306 -0.00747208 -0.0114085 -0.0154474 -0.0195463 -0.0236299 -0.0278382 -0.0319517 -0.036194 -0.0403244 -0.0445211 -0.0491616 -0.053393 -0.0581149 -0.062322 -0.0661844 -0.0703369 -0.0744234 -0.0785945 -0.0835449 -0.0877855 0.0 0.0 0.0 -0.104101 0.0 0.0 -0.117282 0.0 0.0 0.0 -0.134499 -0.139891 -0.143656 -0.148976 -0.15269 -0.158003 -0.162959 -0.166378 -0.171175 -0.175148 -0.178644 -0.183214 0.0 -0.192242 0.0 -0.201156 -0.205631 -0.210239 0.0 0.0 0.0 0.0 0.0 0.0 0.0 0.0 0.0 0.0 0.0 -0.266513 -0.270297 -0.277363 -0.281894 -0.288709 -0.292145 -0.296897 -0.303541 -0.310782 -0.316449 -0.31966 -0.325286 -0.329758 -0.338253 -0.343179 -0.351009 -0.3566 -0.364901 -0.373015 -0.382049 -0.396167 -0.417462 -0.453857 -0.493588 -0.63485 -0.698018 -0.71008
0.669859 0.65006 0.653188 0.658563 0.641827 0.575132 0.531879 0.522445 0.495139 0.45282 0.401701 0.360197 0.343759 0.330808 0.326448 0.321726 0.317294 0.312423 0.308986 0.303183 0.298627 0.293832 0.289389 0.286502 0.281411 0.275956 0.272557 0.267761 0.262387 0.259627 0.255444 0.248636 0.242062 0.229019 0.193259 0.187507 0.176817 0.0 0.0 0.0 0.163928 0.162046 0.159589 0.157259 0.154445 0.149748 0.148785 0.146086 0.143103 0.137741 0.135607 0.131763 0.129575 0.126451 0.122175 0.11871 0.115594 0.112678 0.109315 0.105508 0.102883 0.0983325 0.0954439 0.0922849 0.0886161 0.0852862 0.0814684 0.078487 0.0747282 0.0711837 0.0671802 0.0638128 0.0604842 0.056701 0.0530765 0.049434 0.0459797 0.0421619 0.0383846 0.0344149 0.0309564 0.0272972 0.0235849 0.0197238 0.0159307 0.0120523 0.00817708 0.00427915 0.000390468 -0.00351429 -0.00756955 -0.0114654 -0.015543 -0.0196067 -0.0238967 -0.0279569 -0.0320684 -0.0363472 -0.040736 -0.0450807 -0.0497435 -0.0535837 0.0 -0.0621246 -0.0662258 0.0 -0.0745573 0.0 -0.083184 0.0 0.0 0.0 0.0 0.0 -0.109105 0.0 0.0 0.0 -0.126026 -0.130434 -0.135286 -0.138689 -0.14441 -0.147358 -0.151685 -0.157739 -0.161339 -0.165718 -0.171184 -0.175157 -0.178757 -0.182749 -0.186515 0.0 0.0 0.0 -0.205643 -0.209587 0.0 0.0 0.0 -0.229522 0.0 0.0 0.0 0.0 0.0 0.0 -0.260273 -0.266759 -0.271009 0.0 -0.281115 -0.285806 -0.290845 -0.296834 -0.302029 -0.307602 -0.313746 -0.319504 -0.323769 -0.329414 -0.336971 -0.343015 -0.350362 -0.355749 -0.365028 -0.372943 -0.38666 -0.401876 -0.433717 -0.472354 -0.577081 -0.689071 -0.692219 -0.703086
0.674246 0.662469 0.666875 0.655131 0.652674 0.641686 0.650638 0.636478 0.630775 0.57509 0.450877 0.388219 0.355367 0.331314 0.326571 0.32157 0.318686 0.310929 0.307338 0.302341 0.297542 0.293942 0.288834 0.284572 0.281435 0.274403 0.270798 0.268163 0.263381 0.258692 0.254453 0.248656 0.242081 0.237028 0.201048 0.186995 0.180181 0.0 0.170176 0.169456 0.162219 0.159386 0.0 0.153326 0.153316 0.153416 0.148743 0.145439 0.143457 0.138662 0.135101 0.13209 0.129051 0.125684 0.122892 0.118798 0.114422 0.111924 0.109137 0.105976 0.102511 0.0990333 0.0955766 0.0919218 0.0883853 0.0854598 0.0819042 0.0780017 0.0750507 0.0709542 0.0675589 0.0643165 0.0 0.0568878 0.0530447 0.0494363 0.0 0.0420556 0.0385463 0.0345606 0.030869 0.0273244 0.0236083 0.0197371 0.0160113 0.0120529 0.00821582 0.00431686 0.000392922 -0.00356158 -0.00752129 -0.0114907 -0.0156245 -0.0196255 -0.0239984 -0.0279582 -0.0323779 -0.0370754 -0.0405811 0.0 0.0 -0.0534133 0.0 0.0 0.0 -0.0702606 -0.074823 0.0 0.0 -0.0874619 0.0 -0.0958718 -0.0997893 -0.103868 -0.108257 -0.112762 -0.117328 -0.122488 -0.125411 -0.130668 -0.134278 -0.139181 -0.143962 -0.147453 -0.152354 -0.157613 -0.161349 -0.165585 -0.170019 -0.174163 -0.176708 -0.183024 -0.186527 -0.190883 -0.194286 -0.198753 -0.204416 -0.209602 0.0 -0.217776 -0.220607 -0.227378 -0.23185 -0.237015 -0.239514 0.0 0.0 -0.254108 -0.258803 -0.265339 -0.269565 -0.275128 -0.279781 -0.284532 -0.290127 -0.295517 -0.300692 -0.306071 -0.311049 -0.317122 -0.322529 -0.329628 -0.33448 -0.340487 -0.347509 -0.355783 -0.364964 -0.374986 -0.390769 -0.412548 -0.455531 -0.51877 -0.667268 -0.688921 -0.688311 -0.703043
0.678988 0.669955 0.668615 0.665592 0.658682 0.66017 0.660266 0.642142 0.603073 0.480001 0.393842 0.381607 0.364282 0.336104 0.32567 0.319851 0.316356 0.312306 0.307018 0.302286 0.296633 0.292121 0.289195 0.284275 0.279379 0.275297 0.270592 0.265905 0.262583 0.257834 0.254333 0.248679 0.244121 0.236367 0.221776 0.188523 0.179617 0.176486 0.169448 0.0 0.0 0.0 0.0 0.0 0.152568 0.150883 0.147357 0.149743 0.1413 0.139296 0.135064 0.131508 0.12906 0.125865 0.122901 0.118563 0.115059 0.111779 0.108444 0.105627 0.102105 0.0986422 0.0955507 0.0919276 0.0890089 0.0852958 0.0822599 0.0785215 0.0752514 0.0712147 0.067607 0.0645079 0.0 0.05702 0.0 0.0494072 0.0458812 0.042085 0.0384254 0.0348065 0.0309694 0.0273345 0.0236988 0.0199184 0.0160471 0.0121442 0.00823417 0.00431576 0.000392821 -0.00356506 -0.0075703 -0.0116008 -0.0157298 -0.0199131 -0.0238415 -0.0284052 -0.0327262 0.0 0.0 -0.0452713 0.0 0.0 0.0 0.0 -0.0661552 0.0 0.0 -0.0787445 -0.082756 -0.0876967 -0.0920185 -0.0954303 -0.100233 0.0 -0.10896 -0.112243 -0.11737 -0.121683 0.0 -0.130223 -0.134405 -0.138828 -0.1431 -0.147848 -0.151485 -0.15681 -0.160245 -0.164022 -0.169297 -0.172719 -0.176825 -0.182195 -0.18584 -0.190898 -0.193736 -0.19796 0.0 -0.208292 0.0 -0.217732 -0.222231 0.0 -0.23107 -0.235403 0.0 -0.242962 0.0 -0.254132 -0.259201 -0.263771 -0.266657 -0.273506 -0.278212 -0.282693 -0.288918 -0.294374 -0.300382 -0.30619 -0.310994 -0.315727 -0.320932 -0.326535 -0.334423 -0.341189 -0.347932 -0.357286 -0.366589 -0.379146 -0.396516 -0.437583 -0.479765 -0.633654 -0.6738 -0.683442 -0.685519 -0.693611
0.679081 0.677456 0.675575 0.680003 0.672039 0.667282 0.654265 0.616339 0.498065 0.399398 0.38446 0.374217 0.360759 0.339856 0.326367 0.320076 0.315577 0.309299 0.307143 0.302496 0.296839 0.292829 0.288815 0.283575 0.279252 0.275013 0.270545 0.266087 0.262313 0.256392 0.253277 0.247358 0.244217 0.238509 0.230445 0.198995 0.183567 0.17941 0.172992 0.0 0.0 0.0 0.0 0.0 0.0 0.150154 0.148405 0.145615 0.140672 0.137052 0.135029 0.131473 0.128584 0.125316 0.1222 0.118451 0.11491 0.111369 0.108305 0.105351 0.102387 0.0989477 0.0955897 0.0919649 0.0889859 0.0856122 0.0822658 0.0787588 0.0750359 0.0713362 0.0679428 0.0642828 0.0608874 0.0 0.053481 0.0494104 0.0458399 0.042223 0.0385386 0.0348087 0.0309911 0.0274574 0.0237894 0.0199072 0.0160332 0.0121072 0.00826283 0.00435087 0.000395891 -0.00358502 -0.00762169 -0.0116969 -0.0159826 -0.0200755 0.0 0.0 -0.0326705 0.0 0.0 0.0 -0.0494908 0.0 0.0 0.0 0.0 0.0 -0.0745485 -0.0785424 -0.0826889 -0.0874733 -0.0909288 -0.0959125 -0.100211 -0.103912 -0.108588 -0.112745 -0.117003 -0.121374 -0.125247 -0.129931 -0.13379 -0.137872 -0.142904 -0.147047 -0.150837 -0.155103 -0.158817 -0.16289 -0.167841 -0.171428 -0.175759 -0.180311 -0.18402 -0.190252 0.0 -0.197979 -0.200967 -0.204751 -0.212405 -0.216747 -0.220584 -0.22657 -0.232563 -0.234203 -0.240116 -0.244542 -0.249123 -0.253501 -0.257738 -0.262662 -0.268232 -0.272752 -0.277046 -0.282888 -0.288292 -0.293989 -0.298202 -0.305188 -0.31024 -0.314784 -0.320246 -0.326392 -0.334185 -0.339715 -0.347015 -0.357625 -0.370894 -0.382911 -0.415307 -0.45912 -0.581804 -0.664624 -0.668512 -0.676883 -0.685281 -0.660565
0.687263 0.682276 0.691081 0.683498 0.680018 0.666426 0.634414 0.518561 0.401515 0.385156 0.379651 0.366342 0.353092 0.341712 0.327727 0.31966 0.313894 0.310238 0.305245 0.300714 0.296624 0.291102 0.287943 0.283531 0.279689 0.275049 0.269805 0.266045 0.261747 0.25635 0.251936 0.24597 0.242993 0.237786 0.232417 0.223608 0.191066 0.187896 0.173693 0.16508 0.0 0.0 0.0 0.0 0.0 0.148738 0.146608 0.144821 0.140637 0.136009 0.134154 0.131486 0.128109 0.12649 0.12171 0.118665 0.11496 0.111112 0.109015 0.105751 0.102774 0.0989892 0.0956296 0.0926779 0.0891109 0.0855627 0.0823803 0.0786363 0.0749192 0.0718778 0.0683455 0.0 0.0 0.0 0.0 0.0496696 0.0 0.0421179 0.0387138 0.0348556 0.0312007 0.0275891 0.0237986 0.0199583 0.0160093 0.0121722 0.00830691 0.00435922 0.000398843 -0.00361707 -0.00772871 -0.0118674 -0.015865 -0.0200531 -0.0242473 0.0 -0.0326825 -0.0368331 -0.0404924 0.0 0.0 -0.0532508 0.0 0.0 -0.0656411 0.0 0.0 -0.077972 -0.0824283 -0.0866638 -0.0899736 -0.0953889 -0.0996357 -0.103373 -0.108027 -0.112294 -0.116433 -0.120253 -0.124453 -0.128657 -0.133568 -0.137119 -0.141339 -0.145906 -0.148914 -0.154348 -0.158181 -0.162332 -0.166535 -0.171445 -0.17454 -0.177902 -0.185282 -0.188614 -0.193605 -0.197364 -0.20158 -0.205679 0.0 0.0 -0.221187 -0.224959 0.0 0.0 -0.238688 -0.242311 -0.246995 -0.251994 -0.257696 -0.261481 -0.266181 -0.271924 -0.276603 -0.281545 -0.287918 -0.292184 -0.297561 -0.302199 -0.308261 -0.313489 -0.320292 -0.327083 -0.331991 -0.341566 -0.348028 -0.360607 -0.375504 -0.400946 -0.436657 -0.523534 -0.647339 -0.66239 -0.667108 -0.67666 -0.680303 -0.595049
0.704107 0.705752 0.690758 0.689522 0.673445 0.650997 0.547462 0.407192 0.384011 0.377363 0.368094 0.358766 0.346779 0.33958 0.330779 0.319342 0.313489 0.309122 0.30397 0.299805 0.295557 0.291062 0.287986 0.281944 0.275402 0.27438 0.269069 0.265778 0.261036 0.255136 0.250959 0.245791 0.241285 0.236588 0.234124 0.226268 0.216879 0.195819 0.176748 0.169709 0.162108 0.0 0.0 0.0 0.0 0.0 0.144243 0.143726 0.141983 0.13708 0.133093 0.131272 0.128389 0.124868 0.122266 0.117866 0.114618 0.111238 0.10862 0.106047 0.102475 0.0989324 0.0957024 0.0926559 0.0892369 0.0858245 0.0821449 0.0786691 0.0751957 0.0714413 0.0681969 0.0 0.0609562 0.0575486 0.0 0.0497377 0.0 0.0 0.0386801 0.0349805 0.0313414 0.0276173 0.0238526 0.0200408 0.0161405 0.0121996 0.00836899 0.00441854 0.000403992 -0.00367109 -0.00775712 -0.0118719 0.0 -0.0198995 0.0 -0.0281339 0.0 -0.0359358 -0.0407733 -0.0450155 -0.0487878 -0.053271 -0.0571532 -0.0615275 0.0 -0.0700335 -0.0743643 -0.0777943 -0.0826785 -0.0866206 -0.0906235 -0.0945866 -0.0989734 -0.102349 -0.106993 -0.111581 -0.114943 -0.119487 -0.12366 -0.127875 -0.131785 -0.136287 -0.140523 -0.144125 -0.148402 -0.153143 -0.15657 -0.162303 -0.16572 -0.170861 -0.174199 -0.179295 -0.183358 -0.187862 -0.192667 -0.19652 -0.201604 0.0 -0.20851 0.0 -0.217171 -0.222631 -0.226744 -0.233037 -0.237403 -0.24192 -0.246381 -0.251589 -0.256166 -0.261215 -0.266838 -0.272278 -0.277283 -0.280775 -0.285898 -0.29248 -0.296584 -0.302419 -0.308397 -0.313538 -0.32007 -0.325662 -0.334381 -0.341716 -0.352223 -0.363693 -0.38547 -0.425122 -0.473813 -0.627438 -0.648601 -0.653373 -0.663563 -0.67056 -0.679758 -0.509363
0.716874 0.700946 0.691445 0.682981 0.668177 0.594793 0.427821 0.387169 0.376522 0.370984 0.362996 0.353739 0.344622 0.339641 0.332057 0.320969 0.314727 0.308191 0.302787 0.298553 0.295095 0.290101 0.287455 0.28199 0.27649 0.274267 0.268105 0.263687 0.259579 0.254514 0.250203 0.245615 0.241391 0.235871 0.231677 0.224985 0.221552 0.212657 0.193429 0.167792 0.164089 0.160751 0.0 0.0 0.0 0.0 0.0 0.0 0.14067 0.137049 0.136944 0.131652 0.128448 0.124796 0.121528 0.118163 0.114434 0.111897 0.108448 0.106165 0.103104 0.0990754 0.0957125 0.0926655 0.0892167 0.0858897 0.08272 0.0789346 0.0753013 0.0714949 0.0683582 0.0647585 0.0609816 0.057333 0.0530819 0.0498861 0.0 0.042599 0.0387821 0.0350502 0.0314726 0.0276112 0.0238027 0.0200612 0.0162519 0.012299 0.00841579 0.00447656 0.000409389 0.0 -0.00779948 0.0 -0.0161291 0.0 -0.0243162 0.0 0.0 0.0 -0.0407408 0.0 -0.0493001 -0.0529142 -0.057023 -0.0613152 -0.0652651 0.0 -0.0736944 -0.0775943 -0.0813506 -0.0858382 -0.0899373 -0.0935892 -0.0976988 -0.102268 -0.106149 -0.110376 -0.114307 -0.117945 -0.121917 -0.127057 -0.131214 -0.135254 -0.139708 -0.143371 -0.148331 -0.152074 -0.157334 -0.159982 -0.16574 -0.170028 -0.174737 -0.17916 -0.182787 -0.187001 -0.190656 -0.195911 -0.200331 -0.204163 -0.209402 0.0 -0.218615 0.0 -0.226176 -0.230552 -0.237438 -0.241886 -0.245123 -0.250309 -0.255982 -0.260725 -0.264949 -0.2702 -0.274692 -0.278628 -0.286111 -0.290431 -0.295355 -0.302298 -0.306867 -0.313325 -0.318313 -0.32572 -0.333693 -0.343106 -0.356426 -0.374599 -0.40783 -0.446803 -0.588428 -0.635924 -0.644638 -0.653072 -0.662183 -0.669488 -0.663859 -0.446731
0.716798 0.70042 0.690593 0.676779 0.647051 0.493208 0.391559 0.384451 0.372205 0.36713 0.358499 0.3495 0.343243 0.336664 0.331747 0.321217 0.311876 0.30825 0.302315 0.297567 0.293952 0.289565 0.285353 0.281471 0.276058 0.272818 0.267377 0.263505 0.25895 0.254337 0.24974 0.245018 0.240665 0.235295 0.231983 0.2266 0.22062 0.216672 0.208259 0.180311 0.163877 0.160775 0.0 0.0 0.0 0.0 0.0 0.144219 0.140147 0.136683 0.136635 0.132262 0.127845 0.124339 0.121293 0.1183 0.114645 0.110997 0.109161 0.106356 0.102807 0.0994515 0.0963617 0.0929829 0.0895507 0.0862097 0.0829721 0.078969 0.075653 0.0719689 0.0685864 0.0650784 0.0611649 0.0 0.0537581 0.0499871 0.046225 0.0423462 0.0388723 0.0352313 0.0314955 0.0276226 0.0238497 0.0201751 0.0163384 0.0124777 0.00858808 0.00448907 0.0 0.0 -0.00778173 0.0 0.0 0.0 -0.0241461 -0.0282991 0.0 -0.0364092 0.0 0.0 -0.0485361 -0.0528567 -0.057012 0.0 0.0 -0.0694909 0.0 -0.0768876 -0.0812866 -0.0853883 -0.088717 -0.092285 -0.096863 -0.100941 -0.105243 0.0 -0.113877 -0.116827 0.0 -0.126657 -0.130019 -0.134949 -0.138064 -0.142491 -0.146237 -0.152502 -0.155866 -0.160051 -0.164586 -0.168442 -0.174297 -0.177337 -0.182165 -0.186973 -0.19074 -0.195535 -0.198943 -0.204073 -0.206906 -0.214031 -0.218328 -0.219619 -0.226947 -0.230453 -0.236367 -0.241644 -0.245813 -0.251085 -0.255579 -0.260315 -0.26461 -0.269384 -0.273782 -0.278679 -0.284759 -0.28973 -0.29524 -0.301402 -0.306397 -0.312581 -0.318102 -0.325691 -0.335161 -0.346495 -0.366124 -0.39499 -0.426639 -0.543367 -0.627071 -0.629751 -0.644666 -0.648959 -0.658338 -0.663082 -0.644206 -0.418142
0.710817 0.699796 0.688645 0.673542 0.603361 0.419924 0.389546 0.3778 0.371879 0.363582 0.354503 0.347617 0.341676 0.334547 0.329755 0.32415 0.313034 0.307866 0.302113 0.295977 0.292985 0.288445 0.281516 0.279244 0.275231 0.270978 0.266033 0.262869 0.257426 0.253943 0.248557 0.245063 0.239594 0.234858 0.230481 0.225982 0.221625 0.217784 0.211081 0.202482 0.170555 0.162138 0.0 0.0 0.0 0.0 0.0 0.0 0.14071 0.13704 0.133707 0.133191 0.12773 0.124227 0.121895 0.117951 0.114661 0.111812 0.109212 0.106726 0.102924 0.0995968 0.0970121 0.0929639 0.0896502 0.0864743 0.0830361 0.079262 0.0753921 0.0721639 0.0690363 0.0652112 0.0 0.0575667 0.0 0.0 0.0464811 0.0426081 0.0387534 0.0353239 0.0313706 0.0277728 0.024001 0.0202519 0.0164352 0.0126793 0.0 0.00444934 0.0 0.0 -0.00776174 0.0 0.0 -0.0200965 -0.0241056 0.0 0.0 0.0 -0.040158 -0.0446173 -0.0483529 0.0 0.0 0.0 0.0 0.0 0.0 -0.0768505 -0.0800815 0.0 -0.0881927 -0.0925481 0.0 -0.100253 -0.104718 -0.109778 -0.113482 -0.117514 -0.122168 -0.125501 -0.13031 -0.133959 -0.138166 -0.141527 -0.146258 -0.15121 -0.155237 -0.160313 -0.16363 -0.169473 -0.172468 -0.175781 -0.181653 -0.185786 -0.190827 -0.19412 -0.199448 -0.203926 -0.207311 -0.212683 -0.215346 -0.221623 -0.224448 -0.230018 -0.234952 -0.240132 -0.244778 -0.249298 -0.254582 -0.258541 -0.263811 -0.269358 -0.273756 -0.279384 -0.282751 -0.287941 -0.295215 -0.299298 -0.306637 -0.313182 -0.319077 -0.32659 -0.338131 -0.353972 -0.384211 -0.412466 -0.488374 -0.613045 -0.620789 -0.627722 -0.637371 -0.645919 -0.655042 -0.662579 -0.588059 -0.405463
0.710426 0.697273 0.681717 0.666047 0.551345 0.402126 0.387013 0.377581 0.366345 0.36004 0.353991 0.346622 0.34166 0.333769 0.329269 0.321359 0.313015 0.303901 0.300768 0.294826 0.292537 0.287918 0.284229 0.278407 0.274968 0.270404 0.266476 0.26056 0.256655 0.251786 0.24839 0.242698 0.239292 0.234904 0.230458 0.224511 0.218441 0.214094 0.207961 0.201851 0.193987 0.162108 0.160161 0.154092 0.0 0.0 0.0 0.0 0.0 0.0 0.133729 0.131527 0.12775 0.123342 0.12116 0.118658 0.115464 0.112133 0.11037 0.106705 0.102938 0.0993455 0.0971212 0.0932834 0.090163 0.0865141 0.0830741 0.0797104 0.0759664 0.072453 0.0 0.0651359 0.0616118 0.0 0.0 0.0500788 0.046472 0.0428028 0.0389675 0.0352394 0.0316114 0.027828 0.0241377 0.0203227 0.016697 0.0126695 0.00859003 0.00450483 0.000407572 0.0 -0.00776265 -0.0117884 -0.0159347 -0.0199795 0.0 0.0 0.0 0.0 -0.0399335 0.0 0.0 -0.0523027 0.0 0.0 0.0 0.0 -0.0726934 0.0 0.0 0.0 -0.0874018 0.0 -0.0955444 0.0 0.0 -0.109366 -0.113123 -0.118061 0.0 0.0 -0.12986 -0.13414 -0.13881 -0.14249 -0.145575 -0.151007 -0.155308 -0.15881 -0.16243 -0.168596 -0.171002 -0.176866 -0.180061 -0.185098 -0.189389 -0.194038 -0.198833 -0.201909 -0.207349 -0.210707 -0.2159 -0.221338 -0.225293 -0.230335 -0.234304 -0.238624 -0.244035 -0.248615 -0.252917 -0.256771 -0.262706 -0.267371 -0.273255 -0.277656 -0.283226 -0.287836 -0.29383 -0.299625 -0.305033 -0.312181 -0.320874 -0.33072 -0.342793 -0.366869 -0.400579 -0.448622 -0.593861 -0.612388 -0.617676 -0.628701 -0.637632 -0.64204 -0.651972 -0.656848 -0.504239 -0.399174
0.706972 0.691502 0.680679 0.654071 0.509684 0.39296 0.38312 0.373843 0.367463 0.358419 0.351994 0.346612 0.338075 0.333472 0.32541 0.321532 0.315004 0.307114 0.299693 0.294375 0.290637 0.286554 0.280565 0.277248 0.271662 0.269203 0.263511 0.260008 0.255513 0.251547 0.246564 0.241968 0.236416 0.23078 0.226412 0.221003 0.216356 0.211227 0.206576 0.202012 0.198064 0.182196 0.158542 0.153342 0.151594 0.0 0.0 0.0 0.0 0.0 0.133611 0.130274 0.128436 0.124955 0.12072 0.118312 0.115758 0.112722 0.110314 0.106686 0.103401 0.0999572 0.0971676 0.0940644 0.0908242 0.0870629 0.083221 0.0794382 0.0762717 0.0 0.0689441 0.0651657 0.0 0.0578027 0.0533136 0.0500375 0.0463896 0.0428084 0.0389849 0.0353217 0.0316155 0.0279788 0.0243044 0.0206486 0.0 0.0 0.00855529 0.00448262 0.0 0.0 -0.00769416 0.0 0.0 -0.0198327 0.0 0.0 0.0 0.0 0.0 0.0 0.0 0.0 0.0 0.0 0.0 0.0 -0.0725286 0.0 0.0 0.0 0.0 0.0 0.0 0.0 0.0 -0.107934 -0.113515 0.0 -0.121728 -0.125652 -0.12906 -0.133799 -0.136962 -0.142128 -0.144586 -0.149855 -0.152262 -0.158263 -0.163096 -0.167519 -0.171806 -0.175947 -0.181068 -0.185188 -0.187896 -0.194075 -0.197452 -0.202673 -0.20486 -0.211819 -0.215944 -0.220334 -0.225339 -0.229701 -0.233728 -0.238392 -0.243727 -0.247789 -0.251778 -0.257512 -0.261992 -0.264836 -0.270998 -0.276582 -0.282796 -0.287232 -0.292705 -0.298569 -0.305019 -0.312883 -0.321861 -0.334396 -0.354011 -0.389558 -0.417733 -0.560261 -0.597087 -0.605406 -0.61437 -0.623074 -0.632242 -0.639339 -0.648374 -0.647741 -0.442295 -0.398272
0.706264 0.691138 0.67599 0.646373 0.49524 0.392858 0.379968 0.370525 0.365417 0.359325 0.351594 0.343471 0.335944 0.330895 0.324278 0.319953 0.313084 0.307285 0.301096 0.294799 0.289599 0.284604 0.280552 0.276012 0.271568 0.266033 0.261712 0.25702 0.25295 0.247114 0.241703 0.238473 0.232844 0.22748 0.223173 0.219537 0.214854 0.21083 0.205567 0.202054 0.197689 0.19299 0.172793 0.155152 0.151298 0.0 0.0 0.0 0.0 0.0 0.0 0.0 0.128326 0.125107 0.12233 0.118454 0.115659 0.112703 0.110259 0.106989 0.103624 0.100471 0.0972789 0.0942328 0.0908974 0.0 0.0835039 0.0801206 0.0 0.0725206 0.0692196 0.0648413 0.0617078 0.0 0.0538546 0.0500607 0.0463667 0.0428415 0.0389904 0.0354043 0.0316298 0.0284416 0.0248061 0.0206577 0.0166065 0.0125481 0.0084515 0.00445105 0.0 0.0 0.0 0.0 0.0 0.0 0.0 0.0 0.0 0.0 0.0 0.0 0.0 0.0 0.0 0.0 0.0 0.0 -0.0718837 0.0 0.0 0.0 0.0 0.0 0.0 0.0 0.0 -0.107952 0.0 -0.118099 -0.121785 -0.124954 0.0 0.0 -0.138025 -0.141382 -0.145097 -0.149791 0.0 -0.158819 -0.161851 -0.166594 -0.171117 -0.175348 -0.180238 -0.183896 -0.188217 -0.192378 -0.197729 -0.201083 -0.206014 -0.211298 -0.215862 -0.220185 -0.224453 -0.229616 -0.232114 -0.237456 -0.242054 -0.247627 -0.250493 -0.255978 -0.260277 -0.265766 -0.271385 -0.276651 -0.282536 -0.287641 -0.293975 -0.299427 -0.305714 -0.314127 -0.325306 -0.341492 -0.37563 -0.4003 -0.515273 -0.592189 -0.594871 -0.602052 -0.612704 -0.622835 -0.630008 -0.637925 -0.646295 -0.616578 -0.417185 -0.398611
