59954 60122 60854 60218 61107 60056 59848 64220 65198 65230 65197 65293 65387 65421 65434 65437 65442 65441 0 65439 65427 65421 65406 65409 65411 65406 65397 65384 65369 65379 65370 65355 65339 65320 65305 65312 65298 65289 65293 65315 65328 65340 65354 65370 65370 65373 65369 65370 65377 65384 65380 65382 65367 65379 65408 65442 65446 65451 65441 65439 65438 65435 65439 65437 65437 65435 65436 65434 65434 65434 65434 65426 65394 65395 65387 65381 65383 65388 65392 65393 65393 65392 65395 65402 65419 65428 65428 65431 65430 65430 65427 65428 65434 65391 65417 65419 65418 65403 65326 65271 65293 65316 65327 65331 65373 65385 65387 65396 65402 65406 65409 65414 65412 65412 65415 65415 65416 65418 65421 65419 65423 65424 65419 65418 65423 65423 65425 65423 65424 65426 65428 65425 65426 65418 65411 65396 65385 65380 65443 65438 65434 65438 65444 65441 65450 65458 0 65456 65442 65432 65433 65434 65429 65398 65412 65414 65409 65410 65409 65407 65402 65400 65395 65391 65388 65382 65387 65388 65368 65341 65330 65318 65306 65303 65296 65291
60122 60486 60486 60311 60218 60624 59624 62768 65131 65183 65187 65261 65351 65396 65417 65435 65440 65442 65444 0 65433 65425 65419 65418 65417 65418 65411 65403 65395 65400 65397 65386 65374 65367 65359 65361 65360 65357 65362 65369 65377 65388 65391 65397 65397 65393 65381 65373 65387 65391 65387 65383 65385 65395 65396 65433 65443 0 65443 65442 65438 65439 65438 65433 65437 65436 65437 65433 65433 65436 65434 65426 65393 65394 65387 65386 65394 65398 65398 65395 65400 65415 65426 65431 65432 65431 65433 65429 65432 65429 65425 65425 65429 65435 65419 65382 65327 65287 65276 65306 65318 65348 65350 65369 65387 65397 65403 65406 65407 65407 65413 65419 65415 65418 65418 65419 65419 65420 65420 65422 65422 65420 65423 65421 65422 65425 65423 65426 65426 65428 65429 65428 65427 65414 65402 65388 65368 65398 65449 65442 65441 65441 65444 65451 65452 65457 65460 65451 65434 65438 65438 65433 65433 65410 65406 65414 65410 65410 65408 65403 65401 65399 65393 65392 65389 65388 65393 65383 65346 65339 65326 65315 65308 65303 65296 65295
60122 60780 60973 60780 60056 60570 60056 59624 64301 65053 65204 65223 65315 65366 65393 65420 65431 65437 65439 65436 65367 65429 65425 65422 65421 65422 65418 65410 65405 65414 65415 65412 65402 65393 65383 65380 65385 65377 65381 65384 65391 65400 65408 65413 65412 65408 65394 65399 65407 65397 65393 65393 65402 65408 65400 65411 65440 65436 65443 65442 65438 65433 65432 65437 65431 65433 65436 65436 65435 65432 65432 65425 65394 65392 65389 65388 65397 65400 65411 65424 65430 65427 65431 65430 65430 65430 65432 65430 65428 65428 65426 65428 65428 65427 65422 65346 65290 65290 65302 65332 65341 65366 65372 65385 65396 65402 65406 65410 65407 65411 65417 65421 65422 65419 65421 65422 65421 65419 65423 65423 65424 65423 65425 65425 65423 65427 65423 65426 65426 65429 65431 65426 65420 65407 65391 65371 65369 65413 65450 65451 65447 65443 65441 65447 65453 0 65460 65457 65449 65441 65437 65436 65432 65412 65408 65414 65413 65410 65406 65405 65401 65399 65395 65390 65390 65394 65390 65361 65345 65335 65323 65313 65309 65308 65302 65297
60400 60703 60703 60926 60122 60311 59738 60056 59954 64471 65187 65202 65278 65338 65372 65403 65419 65428 65435 65430 65431 65428 65426 65427 65427 65426 65423 65415 65422 65426 65428 65427 65419 65418 65414 65406 65400 65392 65388 65390 65391 65407 65413 65415 65417 65413 65405 65409 65418 65414 65402 65403 65404 65410 65400 65401 65436 65442 65443 65441 65438 65437 65433 65434 65434 65430 65435 65437 65432 65434 65432 65425 65402 65400 65396 65403 65420 65429 65430 65429 65432 65430 65431 65430 65428 65427 65429 65427 65425 65426 65425 65419 65421 65395 65330 65286 65296 65314 65339 65352 65365 65369 65377 65395 65397 65403 65409 65410 65412 65414 65419 65422 65425 65423 65425 65425 65426 65425 65425 65429 65427 65425 65428 65427 65426 65422 65417 65426 65428 65429 65429 65421 65414 65400 65387 65377 65391 65427 65451 65455 65457 65452 65449 65447 65449 65449 65447 65444 65444 65442 65442 65438 65434 65405 65411 65414 65412 65410 65407 65402 65399 65397 65395 65393 65394 65393 65373 65352 65338 65328 65322 65318 65311 65307 65302 65301
60056 60624 60486 59624 60400 60400 59954 59848 59624 62768 65068 65229 65215 65296 65351 65373 65399 65410 65426 65428 65429 65434 65433 65429 65424 65428 65426 65422 65424 65431 65434 65433 65429 65421 65417 65414 65418 65409 65404 65394 65394 65404 65411 65416 65419 65422 65415 65416 65422 65408 65394 65396 65390 65401 65398 65396 65431 65440 65438 65439 65438 65435 65432 65437 65431 65434 65435 65430 65432 65435 65433 65415 65412 65417 65419 65426 65426 65431 65429 65429 65429 65430 65430 65429 65431 65429 65426 65424 65425 65428 65425 65417 65318 65282 65340 65350 65341 65351 65371 65382 65386 65386 65392 65403 65408 65411 65412 65417 65419 65423 65424 65428 65427 65426 65426 65426 65427 65429 65429 65427 65428 65427 65429 65429 65427 65425 65425 65425 65428 65427 65421 65415 65406 65399 65426 65429 65410 65436 65452 65456 65460 65460 65459 0 65456 0 65451 65451 65449 65448 65445 65442 65432 65397 65410 65414 65412 65409 65403 65403 65400 65396 65394 65396 65398 65386 65359 65343 65334 65329 65326 65321 65319 65311 65309 65306
60122 60703 60570 60311 60570 60056 59026 59624 59423 60056 64391 65191 65236 65226 65304 65344 65373 65391 65412 65420 65427 65431 65428 65429 65430 65431 65428 65425 65431 65435 65437 65437 65433 65429 65425 65429 65421 65416 65416 65409 65409 65413 65425 65430 65429 65427 65417 65418 65418 65406 65400 65387 65391 65397 65406 65396 65413 65438 65431 65440 65434 65436 65434 65431 65435 65432 65435 65434 65432 65436 65435 65435 65434 65433 65430 65425 65426 65425 65426 65426 65429 65430 65428 65425 65426 65426 65431 65428 65426 65424 65397 65252 65290 65348 65349 65316 65351 65386 65393 65398 65401 65398 65406 65412 65410 65413 65418 65421 65425 65423 65423 65428 65432 65431 65428 65431 65431 65430 65426 65428 65427 65429 65429 65426 65429 65426 65425 65424 65426 65424 65414 65414 65408 65430 65421 65413 65405 65441 0 0 0 0 0 0 0 0 0 0 65457 0 65452 65446 65427 65385 65414 65411 65410 65408 65405 65398 65399 65397 65396 65402 65396 65367 65352 65342 65337 65333 65328 65320 65318 65317 65314 65305
60311 60780 60926 60973 60624 59624 60218 59296 59738 60056 61558 64932 65232 65249 65245 65297 65329 65359 65386 65405 65418 65421 65425 65429 65428 65430 65429 65432 65433 65438 65441 65437 65433 65434 65435 65434 65427 65422 65419 65422 65420 65420 65429 65431 65431 65423 65418 65413 65411 65412 65406 65382 65396 65400 65401 65394 65400 65440 65433 65437 65436 65433 65435 65434 65436 65431 65431 65430 65436 65438 65441 65440 65437 65437 65434 65433 65432 65429 65429 65427 65426 65426 65425 65425 65428 65428 65426 65428 65421 65365 65233 65273 65224 65227 65256 65301 65338 65382 65400 65406 65409 65411 65412 65410 65416 65410 65420 65421 65424 65422 65424 65431 65431 65431 65432 65430 65430 65429 65432 65432 65429 65430 65428 65430 65428 65425 65420 65423 65422 65419 65415 65415 65428 65419 65414 65420 65430 65444 0 0 0 0 0 0 0 0 0 0 0 0 65450 65445 65425 65392 65417 65413 65411 65405 65404 65401 65398 65400 65403 65403 65375 65357 65347 65340 65337 65333 65328 65321 65325 65318 65316 65307
60311 60400 60703 60854 60311 58626 59738 59954 58881 59624 59624 62966 65063 65248 65273 65253 65288 65307 65348 65375 65401 65413 65418 65421 65426 65426 65433 65431 65435 65440 65439 65433 65432 65437 65437 65435 65432 65427 65428 65427 65420 65424 65426 65426 65424 65419 65418 65418 65418 65410 65405 65379 65395 65402 65400 65393 65394 65432 65434 65435 65438 65436 65437 65433 65424 65425 65434 65435 65439 65438 65440 65431 65437 65438 65437 65435 65435 65432 65435 65434 65429 65430 65423 65421 65423 65422 65423 65410 65271 65208 65272 65254 65230 65278 65322 65350 65373 65376 65405 65423 65418 65420 65419 65418 65415 65413 65414 65422 65424 65423 65422 65429 65431 65433 65434 65432 65430 65431 65428 65430 65431 65429 65430 65430 65430 65426 65418 65420 65418 65412 65423 65423 65420 65425 65434 65437 65438 65448 65454 0 0 0 0 0 0 0 0 0 0 0 65448 65439 65421 65401 65413 65411 65410 65409 65403 65402 65404 65406 65405 65378 65363 65350 65343 65340 65336 65334 65333 65331 65331 65324 65315 65309
60400 60703 60570 60311 59624 60056 59954 59624 59423 59423 59026 58463 63496 65128 65264 65295 65280 65269 65295 65332 65361 65384 65398 65410 65420 65420 65423 65430 65432 65436 65434 65432 65434 65437 65437 65435 65433 65438 65431 65428 65421 65424 65429 65431 65429 65421 65417 65418 65414 65405 65406 65394 65394 65399 65398 65396 65394 65426 65431 65436 65434 65433 65420 65408 65418 65426 65430 65435 65437 65436 65435 65436 65435 65434 65434 65434 65438 65436 65436 65436 65435 65426 65433 65432 65426 65421 65385 65193 65220 65253 65300 65338 65372 65359 65359 65377 65386 65395 65418 65414 65423 65423 65422 65419 65417 65417 65423 65418 65425 65419 65425 65425 65431 65432 65435 65432 65429 65432 65431 65430 65430 65431 65430 65428 65428 65421 65418 65416 65420 65424 65419 65424 65437 65442 65441 65442 65436 65451 0 0 0 0 0 0 0 0 0 65461 0 65453 65447 65439 65418 65410 65414 65411 65411 65409 65404 65407 65409 65409 65388 65365 65350 65343 65347 65344 65337 65342 65337 65338 65328 65328 65320 65307
60056 60703 60311 60570 60056 59296 59738 60311 58881 59423 60218 59026 60056 64391 65208 65286 65312 65327 65323 65325 65335 65345 65365 65384 65402 65413 65421 65419 65427 65430 65432 65433 65437 65436 65436 65434 65433 65436 65435 65429 65423 65428 65426 65425 65427 65425 65414 65420 65413 65413 65407 65403 65396 65396 65396 65393 65388 65430 65434 65438 65435 65424 65423 65418 65414 65420 65422 65427 65430 65436 65436 65433 65433 65436 65436 65435 65436 65433 65432 65429 65430 65430 65432 65431 65424 65326 65212 65209 65268 65338 65361 65386 65367 65347 65340 65332 65337 65391 65427 65412 65422 65418 65421 65423 65423 65417 65421 65421 65426 65428 65429 65427 65434 65434 65434 65435 65432 65429 65431 65431 65431 65431 65432 65428 65427 65422 65414 65418 65423 65427 65434 65441 65444 65442 65443 65443 65434 65453 65456 0 0 65459 0 0 0 0 0 0 0 0 0 65436 65408 65412 65411 65414 65414 65409 65407 65408 65407 65396 65371 65355 65354 65348 65348 65346 65345 65344 65340 65338 65335 65331 65319 65305
60400 60854 60624 60122 59954 60056 59848 59738 59738 59423 60218 62794 64713 65199 65338 65292 65299 65325 65343 65352 65358 65357 65361 65366 65379 65388 65397 65409 65417 65426 65428 65434 65435 65429 65424 65421 65429 65434 65435 65427 65428 65427 65425 65420 65423 65427 65423 65417 65415 65417 65411 65404 65390 65388 65389 65384 65394 65433 65436 65430 65432 65434 65434 65432 65432 65424 65421 65420 65423 65426 65432 65428 65433 65434 65433 65427 65430 65428 65427 65427 65425 65427 65420 65396 65267 65284 65301 65323 65347 65384 65387 65380 65337 65289 65179 65139 65270 65395 65419 65423 65425 65426 65424 65427 65426 65421 65420 65425 65429 65429 65431 65428 65432 65431 65429 65431 65431 65430 65429 65431 65430 65431 65430 65428 65426 65413 65415 65423 65436 65441 65443 65446 65442 65447 65445 65444 65440 65456 0 0 0 0 0 0 0 0 0 0 0 65453 65445 65436 65405 65414 65414 65415 65412 65411 65410 65413 65400 65371 65360 65355 65356 65351 65349 65348 65346 65346 65345 65340 65337 65331 65315 65289
60311 60570 60122 60122 60122 59624 59848 59624 58881 62117 64411 65099 65347 65383 65377 65368 65324 65308 65340 65366 65385 65382 65386 65383 65383 65389 65397 65406 65412 65418 65425 65423 65419 65413 65406 65416 65416 65435 65434 65430 65428 65432 65419 65423 65429 65426 65416 65415 65410 65406 65404 65402 65390 65371 65383 65392 65408 65437 65430 65432 65437 65437 65436 65434 65436 65437 65431 65431 65424 65419 65420 65424 65426 65434 65427 65430 65432 65428 65425 65420 65411 65399 65334 65280 65341 65350 65357 65371 65379 65391 65402 65385 65300 65211 65296 65393 65416 65420 65426 65428 65432 65434 65423 65428 65424 65425 65421 65426 65430 65432 65427 65427 65434 65432 65432 65434 65433 65431 65431 65430 65429 65429 65426 65425 65419 65418 65432 65437 65443 0 65448 65445 65447 0 65442 65443 65440 0 0 0 0 0 0 0 0 0 0 0 0 0 65442 65430 65408 65415 65417 65415 65409 65414 65414 65406 65378 65365 65358 65358 65357 65353 65352 65352 65351 65349 65343 65341 65339 65327 65306 65267
60400 60780 60218 59848 59954 60122 59164 60056 63758 64956 65298 65379 65385 65382 65380 65374 65368 65345 65317 65345 65374 65398 65402 65405 65404 65403 65401 65402 65406 65414 65419 65410 65395 65396 65432 65433 65424 65427 65438 65438 65433 65432 65426 65433 65432 65426 65419 65413 65410 65399 65398 65398 65393 65371 65376 65404 65431 65438 65438 65437 65437 65432 65433 65433 65435 65436 65438 65432 65431 65428 65424 65422 65417 65413 65418 65415 65409 65398 65382 65346 65312 65316 65338 65358 65362 65376 65381 65384 65393 65399 65415 65413 65393 65287 65397 65431 65429 65423 65419 65427 65431 65435 65428 65430 65426 65421 65422 65427 65425 65428 65428 65427 65431 65430 65431 65433 65428 65431 65429 65430 65427 65425 65424 65418 65430 65437 65440 65443 65444 65448 65450 65448 65446 65446 0 65447 65441 65459 0 0 0 0 65460 0 0 0 0 65459 65455 65451 65442 65435 65406 65421 65417 65419 65417 65416 65412 65379 65369 65363 65363 65359 65357 65357 65353 65347 65351 65351 65348 65344 65338 65322 65289 65228
60624 60703 60400 60122 60311 60311 62180 64631 65198 65366 65384 65383 65380 65379 65373 65373 65371 65370 65361 65338 65331 65370 65393 65402 65410 65413 65416 65416 65412 65411 65408 65390 65418 65441 0 0 65440 65405 65436 65432 65429 65427 65430 65433 65433 65424 65422 65422 65414 65408 65402 65385 65384 65369 65383 65434 65444 65442 65438 65437 65434 65432 65431 65431 65432 65433 65434 65433 65434 65429 65423 65406 65387 65363 65343 65340 65344 65360 65361 65367 65369 65363 65377 65392 65391 65385 65372 65374 65388 65409 65426 65429 65428 65427 65430 65433 65419 65400 65393 65413 65429 65433 65425 65426 65419 65428 65424 65426 65427 65429 65427 65426 65432 65433 65431 65431 65429 65426 65427 65424 65424 65422 65425 65436 65444 65442 65446 65450 65449 65449 65446 65444 65445 65447 65449 65446 65447 0 0 0 0 0 0 0 0 0 0 0 65458 65449 65444 65435 65408 65423 65419 65418 65417 65418 65385 65371 65368 65364 65365 65360 65358 65360 65356 65356 65354 65350 65346 65341 65328 65309 65257 65171
60400 60703 60854 60218 62289 64282 64989 65301 65375 65382 65379 65376 65377 65373 65370 65370 65368 65373 65370 65368 65363 65348 65361 65386 65403 65406 65413 65418 65416 65411 65395 65386 65441 0 0 0 0 65379 65383 65414 65417 65417 65413 65427 65427 65424 65427 65422 65403 65408 65396 65383 65359 65364 65425 65439 65442 65439 65437 65435 65433 65430 65430 65426 65429 65426 65427 65418 65405 65382 65359 65344 65357 65373 65384 65393 65393 65404 65406 65401 65412 65409 65410 65421 65424 65428 65417 65411 65420 65423 65429 65428 65427 65427 65433 65424 65405 65378 65385 65406 65427 65435 65427 65428 65430 65424 65423 65425 65424 65427 65426 65429 65433 65429 65424 65429 65426 65426 65425 65422 65428 65434 65439 65442 65450 65450 0 65451 0 65446 65449 65446 65447 0 0 65450 0 0 0 0 0 0 0 0 0 0 0 65460 65456 65450 65442 65431 65409 65423 65421 65419 65417 65383 65374 65371 65371 65368 65364 65363 65363 65360 65356 65359 65355 65351 65346 65339 65320 65281 65213 65069
60703 61041 62289 64293 64989 65264 65355 65370 65373 65372 65376 65371 65365 65368 65370 65366 65370 65371 65375 65377 65380 65387 65392 65377 65383 65397 65409 65412 65419 65415 65382 65405 0 0 0 0 0 65430 65335 65311 65323 65349 65356 65380 65396 65402 65407 65406 65397 65393 65382 65359 65334 65394 65428 65429 65432 65428 65428 65422 65418 65413 65411 65403 65393 65369 65346 65341 65359 65369 65388 65399 65403 65407 65410 65410 65410 65411 65416 65416 65413 65419 65424 65431 65418 65426 65428 65430 65430 65432 65428 65429 65429 65436 65428 65423 65384 65376 65370 65405 65433 65432 65427 65432 65428 65424 65424 65426 65422 65423 65423 65427 65423 65428 65427 65425 65421 65423 65423 65435 65440 65445 0 0 65452 0 65454 0 0 65448 65448 65446 65448 65448 65451 0 65452 0 0 0 0 0 0 0 0 0 0 0 65456 65451 65443 65433 65417 65421 65421 65420 65389 65378 65375 65376 65371 65368 65366 65367 65366 65362 65360 65360 65356 65352 65343 65328 65291 65234 65133 64978
60854 62743 64867 65272 65362 65369 65375 65370 65365 65371 65371 65366 65366 65368 65365 65370 65371 65371 65371 65381 65388 65401 65405 65407 65392 65379 65395 65406 65414 65410 65380 65397 0 0 0 0 0 65429 65369 65354 65334 65382 65387 65373 65350 65336 65341 65333 65316 65308 65307 65291 65299 65372 65370 65370 65359 65350 65339 65338 65337 65334 65331 65332 65343 65364 65372 65387 65398 65389 65373 65402 65409 65409 65414 65413 65419 65418 65419 65424 65425 65428 65433 65436 65435 65423 65424 65431 65429 65435 65436 65435 65434 65431 65429 65423 65392 65377 65380 65408 65428 65431 65431 65424 65425 65423 65422 65421 65425 65422 65421 65424 65427 65425 65423 65425 65429 65435 65440 65443 65450 0 65454 65455 65455 0 0 65456 0 65451 65450 65447 65446 65449 0 65453 0 0 0 0 0 0 0 0 0 0 0 0 0 65453 65443 65433 65428 65427 65419 65392 65382 65380 65376 65373 65371 65371 65367 65366 65372 65366 65365 65360 65358 65353 65335 65304 65253 65164 65014 64946
61172 63785 65240 65374 65379 65375 65372 65366 65363 65364 65363 65367 65363 65365 65368 65369 65369 65370 65373 65378 65385 65393 65402 65405 65405 65405 65387 65398 65403 65405 65390 65367 65438 0 0 0 0 0 65435 65430 65400 65349 65384 65398 65387 65379 65371 65363 65362 65356 65348 65350 65358 65369 65374 65383 65386 65385 65383 65385 65388 65387 65389 65396 65394 65402 65409 65408 65417 65418 65417 65413 65421 65419 65417 65425 65423 65428 65427 65430 65435 65431 65432 65433 65434 65434 65422 65432 65438 65439 65440 65434 65429 65424 65426 65431 65403 65383 65380 65416 65427 65424 65427 65425 65424 65423 65417 65422 65422 65424 65426 65428 65426 65429 65438 65441 65445 65449 65453 0 65454 0 65456 0 65455 65452 65453 65451 0 0 0 0 65447 65449 0 0 0 0 0 0 0 0 0 0 0 0 0 0 65458 65451 65446 65436 65437 65433 65429 65408 65385 65381 65380 65375 65374 65374 65373 65371 65372 65364 65367 65366 65358 65348 65319 65274 65189 65052 65001 64883
60854 62117 64915 65354 65372 65365 65362 65352 65356 65355 65358 65357 65359 65362 65357 65363 65364 65360 65364 65367 65370 65375 65380 65389 65393 65399 65397 65388 65391 65403 65392 65352 65425 0 0 65437 0 0 65443 65444 65433 65420 65384 65369 65378 65389 65384 65387 65386 65388 65385 65381 65382 65393 65398 65403 65402 65402 65403 65402 65403 65401 65402 65410 65414 65414 65417 65421 65422 65427 65429 65426 65425 65429 65428 65428 65425 65427 65435 65434 65437 65433 65434 65437 65434 65433 65427 65435 65434 65437 65435 65432 65426 65408 65405 65405 65400 65395 65400 65425 65431 65440 65430 65425 65427 65424 65424 65423 65427 65431 65442 65443 65448 65447 65451 65449 65451 65455 65454 0 65455 65455 0 65454 0 0 65449 65448 65450 65456 0 65453 65448 65449 0 65453 0 0 0 0 0 0 0 0 0 0 0 0 0 0 65448 65442 65437 65436 65434 65429 65400 65383 65379 65376 65377 65375 65375 65372 65373 65369 65366 65362 65357 65336 65289 65210 65078 65009 64946 64913
61335 61335 63368 65162 65340 65344 65345 65343 65346 65345 65344 65346 65344 65339 65340 65342 65347 65349 65348 65354 65363 65362 65359 65363 65367 65368 65371 65376 65373 65400 65393 65374 65376 65439 0 65433 0 0 0 0 65444 0 65424 65408 65346 65338 65373 65389 65393 65393 65391 65396 65395 65396 65402 65412 65413 65413 65414 65418 65415 65410 65414 65417 65424 65423 65423 65426 65429 65431 65435 65433 65433 65434 65434 65430 65429 65433 65435 65437 65437 65436 65433 65433 65433 65435 65430 65435 65437 65431 65432 65429 65408 65394 65396 65401 65413 65408 65419 65430 65437 65434 65429 65426 65421 65427 65435 65446 65447 65449 65451 65454 65454 65454 0 0 65456 0 0 65454 65454 0 65449 65450 65444 0 65446 65446 65445 65445 65453 0 65453 65450 65451 65451 65456 0 0 0 0 0 0 0 0 0 0 0 65460 65457 65451 65443 65438 65436 65435 65434 65415 65384 65381 65382 65379 65377 65379 65377 65375 65373 65368 65363 65350 65312 65242 65121 65013 64998 64934 65010
61504 62445 62794 64158 65122 65252 65273 65272 65284 65290 65300 65301 65312 65319 65333 65360 65389 65404 65403 65404 65403 65402 65406 65410 65415 65415 65421 65423 65423 65421 65407 65390 65356 65408 65435 65414 0 0 0 0 0 0 65439 65428 65415 65384 65377 65385 65394 65405 65404 65405 65405 65409 65412 65414 65416 65422 65419 65423 65420 65421 65420 65422 65427 65426 65425 65428 65432 65433 65435 65432 65435 65435 65436 65435 65438 65436 65435 65436 65432 65434 65434 65434 65434 65434 65434 65435 65435 65426 65419 65399 65394 65389 65397 65422 65426 65419 65423 65431 65433 65428 65431 65439 65446 65450 65452 65455 65453 65455 0 0 0 65456 0 0 65456 0 0 0 65450 65447 65447 65446 65444 65442 65441 65444 65442 65442 65444 65451 0 65456 0 65452 65454 65456 0 0 0 0 0 0 0 0 0 0 0 65455 65448 65444 65440 65439 65436 65429 65405 65387 65384 65382 65383 65382 65382 65380 65377 65373 65364 65357 65332 65280 65166 65010 65036 64938 65025 65038
63258 63715 64267 64565 64531 64550 64605 64596 64666 64755 64995 65226 65366 65411 65420 65425 65424 65424 65421 65426 65426 65427 65428 65427 65430 65433 65433 65436 65431 65436 65426 65424 65392 65341 65381 65373 65433 0 0 0 65431 65438 65434 65422 65423 65422 65405 65398 65401 65408 65411 65414 65412 65413 65416 65418 65422 65426 65429 65428 65423 65426 65426 65423 65427 65423 65426 65432 65435 65436 65431 65433 65437 65439 65437 65441 65439 65442 65439 65435 65431 65435 65435 65436 65434 65436 65434 65433 65431 65417 65398 65394 65384 65395 65400 65433 65422 65426 65434 65432 65440 65444 0 65454 65456 0 65454 0 65456 0 0 0 0 0 65455 0 0 0 65451 65449 65447 65446 65443 65442 65444 65442 65439 65441 65437 65439 65444 65445 65449 0 0 0 65453 65453 0 0 0 65460 0 0 0 0 0 0 65454 65449 65448 0 65439 65439 65429 65414 65398 65390 65388 65385 65385 65382 65380 65381 65378 65371 65362 65347 65302 65218 65063 65061 64960 65006 65076 65023
64430 64666 64718 64713 64654 64615 64541 64565 64571 64426 64732 65198 65358 65421 65424 65427 65419 65423 65429 65429 65430 65434 65434 65432 65431 65437 65438 65439 65441 65442 65436 65443 65431 65388 65313 65391 65400 0 65412 65421 65438 65442 0 65438 65425 65401 65405 65409 65410 65415 65418 65418 65416 65415 65416 65422 65427 65427 65430 65429 65429 65427 65425 65431 65430 65432 65430 65433 65436 65436 65435 65442 0 65444 65440 65441 0 65442 65440 65440 65436 65433 65433 65431 65436 65437 65436 65435 65425 65401 65408 65398 65388 65398 65409 65431 65426 65440 65449 0 0 65458 0 0 0 65457 65456 0 0 65456 0 65456 65454 65454 65451 65450 65450 65447 65445 65446 65443 65446 65441 65442 65441 65439 65438 65440 65438 65439 65444 65443 65444 65450 65455 65458 65454 65452 0 65456 65455 65455 65456 65456 65456 0 0 65454 65450 65449 65446 65442 65436 65422 65413 65407 65397 65392 65393 65390 65387 65385 65383 65381 65375 65368 65354 65325 65268 65135 65052 65017 64999 65083 65095 65011
64969 64844 64770 64783 64799 64802 64867 64881 64792 64883 65200 65300 65331 65395 65425 65426 65424 65427 65428 65434 65433 65433 65435 65437 65436 65438 65440 65440 65443 65439 65443 65444 65445 65430 65359 65384 65391 65372 65415 0 0 0 0 0 65440 65424 65419 65401 65422 65417 65422 65424 65423 65420 65416 65419 65426 65424 65427 65428 65425 65425 65423 65425 65430 65435 65434 65437 65438 65434 65438 65443 0 65443 0 65441 65442 65442 65441 65440 65438 65435 65428 65433 65437 65438 65436 65426 65401 65403 65399 65390 65383 65404 65434 65438 65455 0 0 65460 0 0 0 0 65458 0 0 65455 65457 65455 65455 65451 65448 0 65446 65444 65443 65445 0 65442 65441 65440 65439 65438 65440 65437 65438 65442 65441 65441 65441 65443 65444 65444 65448 65455 0 65453 0 65452 65453 0 65454 65454 0 65452 0 65450 65448 65446 65439 65431 65418 65412 65405 65401 65399 65393 65394 65391 65388 65385 65381 65378 65372 65362 65334 65294 65200 65066 65088 64976 65072 65117 65101 65010
65056 64942 64879 64850 64919 64984 64965 64882 64916 65188 65286 65322 65337 65357 65416 65425 65427 65429 65429 65432 65435 65435 65432 65437 65440 65438 65442 65439 65440 65443 65442 65443 65439 65426 65402 65352 65369 65366 65400 0 0 0 0 0 0 65439 65427 65421 65425 65424 65418 65423 65422 65423 65422 65422 65422 65425 65419 65425 65424 65427 65426 65429 65435 65434 65437 65439 65433 65431 65441 65443 65446 0 65444 65442 65440 65444 65443 65439 65436 65436 65431 65435 65436 65435 65427 65405 65398 65401 65396 65393 65406 65437 0 0 65455 0 0 0 65456 0 0 0 0 0 65457 65452 65454 65449 65449 65443 65440 65440 65440 65438 65440 65438 65437 65437 65438 65436 65435 65434 65435 65438 65441 65440 65439 65440 65443 65444 65445 65443 0 65448 65454 65458 65454 65451 65449 65448 65452 65449 65450 65451 65447 65449 65443 65433 65424 65418 65412 65406 65404 65402 65397 65392 65393 65392 65392 65387 65384 65377 65363 65343 65309 65239 65097 65101 64991 65065 65121 65115 65098 64993
65094 65000 64948 65013 65028 64983 64893 64905 65162 65262 65309 65334 65344 65354 65398 65425 65427 65431 65431 65434 65434 65434 65438 65438 65437 65438 65441 65441 65439 65437 65435 65433 65432 65432 65422 65387 65346 65317 65375 65430 0 0 0 0 0 65441 65423 65424 65427 65433 65422 65425 65422 65422 65423 65420 65422 65421 65424 65429 65423 65426 65431 65433 65433 65435 65432 65438 65435 65435 65440 65443 0 0 0 65444 0 65443 65445 65440 65441 65440 65434 65435 65433 65425 65403 65396 65400 65408 65417 65428 65448 65454 65455 0 65454 65455 65455 0 0 65454 0 0 65448 0 0 65451 65444 65446 65441 65437 65440 65436 65438 65437 65438 65436 65439 65440 65440 65441 65441 65440 65444 65443 65445 65444 65445 65446 65442 65447 65444 65447 65445 65447 65449 65451 0 0 65452 65450 0 0 65449 65447 65445 65437 65427 65420 65413 65412 65410 65405 65404 65402 65401 65397 65397 65397 65391 65387 65380 65369 65350 65317 65267 65154 65105 65041 65042 65139 65148 65148 65094 65058
65043 65012 65033 65056 65018 64928 64881 65109 65234 65287 65318 65337 65348 65362 65378 65420 65430 65431 65431 65430 65434 65438 65437 65439 65435 65437 65437 65438 65433 65433 65430 65431 65432 65432 65428 65413 65377 65287 65368 65393 65432 0 0 0 0 0 65432 65419 65405 65415 65423 65426 65426 65427 65424 65423 65423 65425 65427 65424 65428 65427 65433 65438 65432 65434 65434 65435 65433 65434 65441 0 65444 65447 0 65442 0 0 65445 65440 65441 65438 65435 65429 65425 65417 65411 65409 65414 65432 65449 65454 0 65459 0 65454 0 65453 65454 65454 65454 65452 65450 65448 0 65447 65445 65443 65439 65433 65439 65438 65440 65439 65438 65439 65441 65440 65442 65442 65440 65443 65441 65444 65443 65444 65443 65443 65446 65444 65445 65444 65443 65446 65443 65447 65448 0 65454 0 65460 65454 65450 65448 65445 65439 65428 65422 65420 65417 65412 65408 65405 65407 65405 65402 65401 65401 65400 65396 65389 65386 65374 65360 65327 65282 65190 65109 65094 65048 65135 65159 65156 65154 65082 65189
65043 65038 65039 65044 64972 64878 65041 65208 65273 65304 65323 65339 65353 65364 65376 65409 65424 65432 65431 65433 65435 65437 65434 65436 65437 65429 65433 65427 65427 65426 65430 65429 65429 65432 65432 65431 65412 65371 65306 65401 65409 65431 0 0 0 0 0 0 65420 65421 65401 65416 65428 65430 65428 65429 65422 65428 65427 65426 65429 65430 65431 65435 65433 65434 65437 65433 65432 65437 65440 65442 65445 65446 65439 65441 0 65444 65443 65439 65442 65436 65434 65431 65422 65419 65422 65428 65446 0 65457 0 65456 0 65455 0 0 0 65453 0 65451 65450 65449 65446 65449 0 65448 65445 65439 65442 65443 65440 65442 65444 65444 65445 65447 65443 65448 65445 65447 65445 65445 65447 65443 65447 65443 65447 65446 65444 65444 65443 65446 65445 65446 65447 65446 65450 65448 0 65458 0 65454 65436 65432 65426 65424 65420 65415 65414 65413 65409 65409 65408 65408 65404 65403 65397 65400 65396 65392 65385 65368 65335 65289 65215 65111 65124 65032 65122 65166 65173 65165 65155 65066 65311
65040 65058 65052 65032 64933 64898 65161 65248 65281 65306 65326 65342 65354 65366 65380 65397 65426 65433 65436 65432 65433 65427 65430 65432 65429 65428 65426 65423 65426 65425 65425 65427 65424 65422 65425 65423 65427 65408 65364 65349 65405 65420 0 0 0 0 0 65446 65439 65432 65419 65410 65429 65430 65431 65432 65429 65427 65423 65426 65429 65432 65432 65433 65434 65435 65434 65438 65434 65436 65443 65445 65446 0 65444 65444 65444 65442 65440 65442 65438 65437 65437 65428 65422 65421 65436 65455 0 0 65457 0 0 0 65453 65454 0 65452 0 0 65451 65450 65450 0 0 65453 0 65452 65450 65446 65446 65450 65447 65444 65444 0 65449 65447 0 65448 65450 65445 65449 65445 65445 65446 65446 65448 65443 65446 65442 65448 65446 65448 65448 65446 65447 65443 65449 65451 65449 65453 65434 65429 65420 65421 65419 65419 65418 65412 65409 65412 65410 65409 65407 65403 65405 65401 65400 65395 65387 65379 65352 65304 65221 65113 65149 65053 65107 65167 65177 65177 65171 65142 65052 65385
65042 65062 65052 65005 64869 65058 65219 65267 65297 65318 65335 65348 65360 65370 65380 65391 65419 65433 65433 65429 65428 65426 65424 65421 65420 65422 65420 65418 65417 65417 65418 65418 65414 65414 65412 65410 65406 65401 65388 65355 65370 65391 0 0 0 0 0 0 65445 65439 65429 65415 65431 65431 65431 65433 65428 65430 65426 65423 65429 65433 65433 65434 65436 65437 65438 65434 65435 65439 65446 65447 0 65446 0 0 65446 65438 65440 65442 65436 65437 65433 65431 65425 65439 0 65454 0 0 65453 0 0 65452 65453 0 0 0 65453 65454 65454 0 0 0 0 0 0 65451 65456 0 65447 65448 0 65452 65452 65448 65453 65456 65450 65450 65452 65449 65449 65447 65449 65444 65449 65447 65447 65447 65444 65445 65445 65447 65445 65446 65444 65446 65447 65446 65444 65427 65423 65422 65423 65420 65418 65417 65415 65413 65411 65410 65411 65409 65407 65407 65403 65403 65404 65396 65385 65366 65328 65241 65110 65144 65093 65100 65172 65188 65179 65177 65181 65136 65093 65412
65043 65069 65056 64971 64864 65150 65242 65280 65305 65323 65337 65350 65360 65372 65382 65391 65408 65433 65427 65425 65421 65418 65414 65412 65414 65411 65414 65412 65410 65409 65405 65405 65402 65399 65402 65403 65408 65414 65417 65408 65364 65389 65401 65434 0 0 0 0 0 0 65433 65415 65429 65436 65434 65429 65431 65434 65428 65427 65431 65434 65432 65434 65436 65438 65438 65437 65439 65444 0 65446 65447 0 0 65445 65444 65438 65438 65440 65438 65433 65431 65433 65437 65453 65455 65455 65454 0 65453 65451 65453 65454 0 0 0 0 65455 0 0 65459 0 0 0 0 65449 0 0 0 65458 0 65455 0 0 65444 65451 65453 0 0 65452 65451 65450 65453 65448 65450 65448 65448 65448 65445 65447 65445 65446 65445 65445 65446 65445 65442 65445 65443 65422 65419 65421 65423 65421 65419 65419 65415 65417 65414 65411 65411 65409 65411 65409 65407 65406 65405 65401 65393 65377 65348 65286 65143 65141 65126 65094 65174 65204 65210 65197 65184 65174 65122 65204 65421
65066 65078 65066 64950 64915 65185 65257 65287 65312 65332 65345 65355 65365 65372 65381 65386 65398 65409 65421 65417 65416 65413 65409 65409 65410 65411 65408 65405 65401 65399 65404 65404 65406 65409 65415 65415 65424 65428 65428 65429 65403 65357 65401 65418 65416 0 0 0 0 0 65442 65436 65422 65421 65430 65432 65434 65433 65429 65430 65426 65429 65433 65431 65436 65439 65439 65439 65440 0 65444 65446 0 65448 65446 65443 65444 65437 65437 65438 65435 65429 65434 65441 0 0 65453 65453 0 0 65455 0 0 65457 0 0 0 0 0 0 0 0 0 0 0 0 65449 0 0 0 0 0 0 0 0 65446 65436 0 65452 65452 65453 65451 65452 65450 65449 65451 65449 65450 65447 65449 65447 65445 65445 65445 65444 65444 65447 65446 65441 65422 65419 65421 65421 65422 65421 65419 65416 65417 65415 65415 65414 65412 65414 65411 65409 65410 65406 65405 65400 65387 65362 65314 65196 65118 65157 65078 65165 65203 65219 65206 65205 65189 65172 65104 65326 65429
65084 65088 65073 64949 64944 65199 65269 65297 65315 65334 65350 65358 65367 65374 65381 65390 65395 65400 65403 65401 65407 65405 65408 65405 65407 65405 65402 65403 65404 65408 65411 65413 65419 65420 65424 65426 65425 65422 65432 65429 65421 65389 65356 65407 65413 0 0 0 0 0 0 0 65441 65433 65426 65430 65435 65432 65429 65432 65431 65430 65429 65430 65437 0 65441 65441 0 65442 65446 65446 65445 0 65441 65440 65439 65438 65435 65435 65432 65431 65441 65447 65450 65454 65452 65455 0 0 0 0 0 0 0 0 0 0 0 0 0 0 0 0 0 0 65450 0 0 0 0 0 0 0 0 65445 0 65446 65453 65454 0 0 65453 65451 65452 65448 0 65447 65449 65449 65446 65447 65445 65449 65442 65447 65442 65438 65421 65421 65423 65422 65421 65419 65420 65420 65417 65413 65417 65416 65416 65414 65392 65412 65413 65409 65408 65403 65394 65371 65335 65251 65111 65178 65079 65150 65208 65220 65224 65212 65201 65194 65172 65094 65387 65429
65080 65094 65072 64982 64929 65208 65269 65305 65324 65339 65350 65357 65367 65373 65383 65389 65394 65401 65406 65406 65399 65400 65405 65403 65403 65406 65410 65413 65417 65419 65423 65424 65426 65425 65427 65431 65429 65432 65430 65429 65430 65422 65396 65366 65388 65430 0 0 0 0 0 0 65448 65443 65430 65435 65435 65429 65429 65428 65431 65432 65426 65433 65440 65437 65441 65440 65442 65442 65444 65441 0 65440 65440 65440 65440 65435 65430 65433 65430 65447 65443 65445 0 0 0 0 0 0 0 0 0 0 0 0 0 0 0 0 0 0 0 0 0 0 65450 0 0 0 0 0 0 0 0 0 0 0 0 0 65452 65449 65451 65451 65447 65450 65449 65447 65450 65443 65450 65444 65447 65447 65447 65445 65430 65420 65420 65422 65421 65421 65422 65419 65419 65419 65419 65412 65416 65417 65417 65417 65414 65413 65413 65411 65408 65400 65382 65351 65294 65154 65185 65115 65139 65202 65225 65216 65219 65219 65202 65188 65147 65135 65410 65428
65086 65094 65088 65018 64928 65199 65278 65311 65326 65339 65351 65359 65366 65375 65383 65386 65395 65399 65406 65413 65411 65405 65401 65404 65409 65412 65419 65423 65428 65429 65429 65430 65429 65430 65431 65433 65431 65433 65432 65427 65428 65431 65423 65394 65369 65392 65421 0 0 0 0 0 0 0 0 65439 65437 65433 65430 65427 65432 65430 65433 65435 65440 65439 65440 0 65437 65442 65437 65440 65444 65442 65440 65444 65441 65435 65431 65434 65446 65449 65444 0 0 0 0 0 0 0 0 0 0 0 0 0 0 0 0 0 0 0 0 0 0 0 65448 65454 0 0 0 0 0 0 0 0 0 0 65450 0 65450 65448 65450 65447 65449 65450 65446 65451 65445 65448 65446 65445 65447 65446 65446 65427 65423 65423 65424 65422 65422 65421 65421 65420 65419 65420 65420 65416 65418 65415 65417 65418 65416 65415 65412 65413 65405 65391 65366 65322 65209 65173 65143 65132 65202 65227 65232 65221 65225 65213 65205 65199 65154 65252 65421 65428
65084 65104 65092 65044 64946 65150 65263 65303 65326 65340 65351 65360 65366 65374 65379 65384 65390 65398 65402 65408 65413 65417 65411 65410 65413 65421 65426 65432 65431 65431 65433 65431 65429 65433 65435 65435 65433 65432 65434 65424 65424 65430 65430 65425 65410 65371 65403 65413 65430 0 65446 0 0 65446 65443 0 65439 65435 65431 65427 65431 65433 65432 65437 65439 65440 65441 65436 65436 65437 65442 0 65443 65443 0 65442 65439 65431 65432 65450 0 65447 0 0 0 0 0 0 0 0 65457 0 0 0 0 0 65456 0 0 0 0 65451 65448 65450 0 0 0 0 0 0 65453 0 0 0 0 0 0 0 0 65443 65448 65448 65447 65448 65446 65444 65449 65443 65447 65448 65448 65450 65442 65446 65421 65422 65422 65421 65423 65420 65423 65421 65422 65418 65421 65418 65419 65420 65415 65414 65417 65415 65415 65411 65411 65407 65397 65372 65337 65259 65181 65173 65114 65193 65236 65232 65236 65229 65228 65220 65214 65200 65136 65350 65425 65427
65101 65103 65102 65076 64985 65002 65223 65286 65317 65333 65347 65358 65366 65373 65378 65384 65390 65391 65401 65406 65408 65413 65419 65419 65411 65407 65413 65422 65429 65432 65436 65433 65436 65436 65436 65435 65434 65435 65433 65431 65433 65429 65429 65429 65430 65412 65382 65414 65430 65434 65444 0 0 0 0 65447 65435 65439 65433 65431 65434 65434 65433 65437 65434 65439 65439 65435 65436 65436 0 65443 65440 65439 65445 65441 65430 65431 65450 65450 65452 0 0 0 0 0 0 0 0 0 0 0 0 65451 0 65451 0 65449 0 0 0 65448 0 65448 65454 65452 0 0 0 0 0 0 0 0 0 0 0 0 0 65453 0 65450 65446 65447 65445 65447 65445 65446 65448 65445 65447 65445 65443 65423 65421 65421 65422 65423 65422 65423 65424 65421 65422 65418 65421 65417 65419 65419 65419 65420 65419 65419 65417 65412 65409 65403 65381 65349 65289 65197 65202 65124 65181 65232 65248 65236 65242 65239 65233 65217 65213 65187 65140 65395 65423 65424
65100 65103 65117 65101 65041 64949 65086 65240 65297 65322 65338 65352 65363 65368 65377 65384 65390 65395 65400 65403 65410 65413 65414 65420 65421 65422 65414 65407 65412 65409 65420 65429 65434 65435 65434 65432 65431 65429 65430 65428 65427 65423 65425 65429 65439 65442 65422 65381 65411 65429 0 0 0 0 0 0 65442 65438 65432 65435 65440 65440 65435 65438 65436 65438 65435 65432 65434 65438 65436 65438 65439 65434 65437 65433 65436 65450 0 65453 65456 0 0 65454 0 0 0 0 0 0 0 0 0 0 65448 65447 65448 65446 65450 65451 65450 0 65450 0 0 0 0 0 0 0 0 0 0 0 0 0 0 0 0 0 65456 0 0 65451 65449 65448 65446 65447 65445 65447 65447 65441 65423 65418 65423 65421 65423 65421 65421 65420 65421 65421 65421 65419 65419 65420 65421 65419 65421 65421 65419 65417 65415 65412 65405 65387 65355 65301 65213 65227 65141 65176 65237 65251 65252 65245 65244 65242 65235 65222 65226 65189 65198 65411 65423 65425
65094 65104 65124 65116 65093 65037 64961 65114 65250 65296 65326 65342 65353 65366 65374 65381 65388 65391 65394 65401 65405 65410 65414 65419 65420 65422 65422 65424 65420 65415 65403 65401 65408 65408 65421 65423 65426 65427 65427 65423 65426 65425 65423 65424 65425 65431 65434 65424 65398 65394 65430 65441 0 0 0 0 65442 65438 65438 65441 0 65443 65438 65440 65441 65435 65429 65431 65437 65438 65435 65436 65438 65436 65435 65438 65448 65449 0 0 65453 0 0 0 65452 0 0 65450 65451 65447 0 65448 0 65448 65448 65448 0 0 65449 0 0 0 65449 65454 0 0 0 0 0 0 0 0 0 0 0 0 0 0 0 0 0 0 0 65457 0 65447 65448 65446 65444 65447 65430 65422 65422 65422 65423 65422 65419 65423 65422 65422 65422 65420 65421 65422 65421 65420 65422 65421 65419 65421 65414 65414 65413 65409 65393 65364 65314 65229 65244 65171 65155 65237 65258 65258 65252 65255 65256 65243 65238 65235 65225 65164 65307 65421 65422 65423
65103 65114 65120 65134 65120 65101 65029 64975 65146 65254 65299 65326 65340 65359 65371 65380 65383 65386 65396 65402 65405 65409 65410 65414 65420 65420 65424 65423 65429 65429 65428 65426 65417 65406 65399 65402 65408 65415 65415 65416 65420 65418 65417 65415 65416 65415 65422 65425 65425 65407 65390 65418 65434 65439 0 65444 65437 0 65440 65442 0 65441 65442 65438 65440 65434 65439 65438 65436 65434 65439 65438 65435 65440 0 65452 0 0 0 0 65452 0 65450 65450 65446 0 65441 65439 65438 65437 65437 65438 65441 65443 65447 0 0 65454 65452 0 0 0 0 0 0 0 0 0 0 0 0 0 0 0 0 0 0 0 0 65449 65448 65443 65445 65444 65446 65452 65448 65447 65447 65431 65422 65423 65425 65420 65421 65423 65420 65424 65424 65423 65423 65422 65422 65423 65422 65419 65419 65421 65423 65420 65411 65414 65409 65397 65371 65326 65240 65255 65216 65159 65213 65258 65260 65256 65251 65252 65256 65249 65241 65237 65216 65149 65372 65422 65422 65422
65105 65103 65132 65133 65143 65150 65108 65034 64992 65151 65246 65300 65330 65351 65367 65378 65384 65390 65392 65397 65403 65408 65410 65415 65420 65421 65424 65428 65425 65428 65429 65427 65432 65432 65430 65419 65410 65408 65405 65407 65407 65411 65410 65409 65408 65403 65406 65405 65408 65409 65406 65391 65401 65421 65430 65433 65435 65438 65440 65441 65443 65443 65441 65437 65440 65441 0 65440 65436 65441 65437 65436 0 65454 0 65455 0 0 0 0 65449 65450 0 65449 65450 65450 0 65449 65450 65449 65450 0 65451 65450 65452 0 0 0 0 0 0 65454 0 0 0 0 0 0 0 0 0 0 0 0 0 65453 0 65453 65437 65438 65436 65435 65438 65450 65455 65452 65448 65446 65425 65420 65423 65422 65425 65422 65423 65423 65423 65422 65423 65423 65424 65424 65422 65421 65425 65418 65424 65423 65423 65419 65415 65412 65401 65377 65341 65259 65256 65250 65164 65218 65253 65264 65266 65268 65256 65262 65260 65252 65248 65232 65203 65168 65400 65423 65421 65419
65105 65100 65122 65144 65144 65155 65158 65116 65047 64997 65156 65253 65304 65336 65355 65370 65379 65384 65393 65399 65404 65407 65411 65413 65415 65421 65422 65425 65426 65426 65430 65430 65430 65432 65432 65432 65433 65432 65427 65413 65404 65409 65410 65414 65418 65419 65423 65423 65427 65427 65428 65431 65428 65419 65419 65421 65429 65432 65437 65440 65441 65441 65441 65441 65445 65447 65444 65444 65445 65443 65439 65448 0 0 0 0 0 0 0 0 65453 0 0 0 0 0 0 0 0 0 0 0 0 0 0 0 65453 0 0 0 0 0 0 0 65451 0 0 0 0 0 0 0 0 0 0 0 0 65450 65446 65449 65448 0 0 0 0 65453 0 65425 65426 65424 65424 65423 65422 65423 65424 65421 65424 65424 65423 65425 65424 65425 65422 65424 65424 65425 65425 65422 65421 65416 65413 65405 65388 65353 65279 65246 65273 65161 65202 65258 65271 65272 65271 65266 65268 65261 65259 65250 65242 65242 65185 65260 65414 65420 65421 65419
65109 65122 65126 65136 65135 65162 65170 65162 65136 65058 65015 65134 65257 65313 65342 65359 65376 65382 65390 65397 65400 65405 65406 65411 65415 65417 65419 65425 65421 65424 65430 65430 65430 65430 65431 65432 65432 65434 65434 65431 65425 65412 65425 65435 65433 65439 65436 65435 65436 65439 65439 65438 65440 65441 65442 65443 65444 0 0 65444 65439 65438 65441 65442 65447 65445 65445 65447 0 65438 65446 65453 0 0 0 0 0 0 0 0 0 0 0 0 0 0 0 0 0 0 0 0 0 65454 0 65453 0 0 0 0 0 0 0 0 65453 0 0 0 0 0 0 0 0 0 0 0 65456 0 0 65456 0 0 0 0 0 65444 65429 65426 65423 65423 65425 65425 65424 65424 65421 65426 65423 65425 65424 65424 65426 65426 65425 65427 65425 65425 65423 65423 65419 65415 65408 65392 65362 65304 65242 65285 65194 65201 65254 65263 65268 65269 65271 65268 65266 65259 65259 65251 65253 65240 65184 65350 65417 65421 65418 65419
65111 65126 65138 65145 65156 65168 65170 65183 65183 65151 65071 65010 65132 65258 65316 65341 65365 65375 65389 65395 65399 65403 65405 65411 65410 65415 65419 65420 65427 65430 65429 65421 65430 65432 65431 65432 65433 65433 65432 65431 65433 65431 65417 65424 65435 0 65442 0 65441 0 65443 65443 0 65443 65444 0 0 65446 0 0 65448 65447 65443 65444 65444 65448 0 65447 65444 65449 0 0 0 0 0 0 0 0 0 0 0 0 0 0 0 0 0 0 0 0 0 0 0 0 0 0 0 65452 0 0 0 0 0 0 0 0 0 0 0 0 65452 0 65452 0 0 0 0 0 0 0 0 0 0 0 65440 65431 65426 65425 65427 65425 65426 65424 65427 65422 65425 65424 65424 65425 65424 65425 65427 65427 65427 65426 65424 65424 65425 65422 65415 65412 65398 65373 65322 65239 65291 65220 65189 65248 65271 65270 65267 65259 65264 65268 65266 65266 65264 65253 65251 65227 65186 65390 65417 65417 65416 65415
65123 65141 65154 65159 65166 65172 65181 65181 65195 65196 65164 65085 65022 65138 65270 65317 65348 65368 65380 65391 65398 65402 65405 65409 65413 65412 65416 65422 65422 65426 65430 65428 65427 65425 65432 65421 65429 65432 65431 65432 65432 65433 65429 65421 65419 65436 65440 65444 65444 65445 0 65446 65448 0 0 0 0 65447 65446 0 0 0 65451 0 65452 65450 65450 0 0 0 0 0 0 0 0 0 65454 0 0 0 0 0 0 0 0 0 0 0 0 0 0 0 0 0 0 65454 0 0 0 0 0 0 0 0 0 0 0 0 0 0 65455 0 65452 0 65453 65453 0 0 0 0 0 0 0 65439 65432 65430 65428 65428 65427 65426 65426 65425 65426 65425 65426 65425 65427 65426 65426 65427 65428 65427 65426 65427 65428 65424 65424 65416 65412 65400 65382 65340 65252 65292 65251 65183 65246 65277 65273 65279 65277 65267 65269 65264 65257 65256 65256 65250 65249 65221 65242 65404 65413 65418 65413 65415
65126 65139 65153 65158 65173 65178 65188 65187 65187 65204 65206 65170 65106 65050 65143 65264 65323 65351 65370 65384 65394 65395 65404 65407 65409 65413 65416 65419 65421 65425 65426 65428 65429 65429 65430 65430 65431 65430 65433 65432 65427 65433 65434 65430 65424 65423 65433 65440 65441 65444 0 65445 0 65449 65448 0 0 65448 0 0 0 0 0 0 0 0 0 0 0 0 0 0 0 0 0 0 0 0 65454 0 0 0 0 0 0 0 0 0 0 0 0 0 0 0 0 0 65451 0 0 0 0 0 0 0 0 0 0 0 0 0 65453 0 0 0 0 0 0 0 0 0 0 65455 65439 65433 65430 65430 65426 65427 65427 65426 65428 65426 65426 65427 65427 65425 65426 65427 65428 65429 65426 65426 65430 65428 65426 65424 65420 65414 65402 65383 65351 65277 65283 65274 65185 65240 65276 65285 65280 65278 65276 65273 65278 65273 65271 65258 65261 65256 65252 65205 65330 65414 65416 65416 65415 65413
65126 65149 65151 65156 65177 65183 65193 65200 65200 65206 65222 65219 65192 65136 65069 65154 65272 65323 65353 65376 65386 65394 65398 65400 65410 65413 65414 65418 65417 65422 65425 65426 65427 65427 65428 65428 65430 65428 65432 65433 65432 65432 65433 65431 65432 65424 65424 65437 65440 0 65444 0 0 0 0 0 0 0 0 0 0 0 0 0 0 0 0 0 0 0 0 0 0 0 0 0 0 65452 0 0 0 0 0 0 0 0 0 0 0 0 0 0 0 0 0 0 0 0 0 0 0 0 0 0 0 0 0 0 0 0 0 0 0 0 0 0 0 0 0 0 0 65441 65434 65432 65432 65429 65429 65428 65427 65428 65427 65428 65428 65427 65424 65427 65429 65429 65428 65430 65429 65431 65427 65428 65427 65424 65416 65404 65388 65359 65297 65284 65292 65185 65228 65272 65280 65287 65278 65280 65279 65278 65283 65277 65276 65268 65267 65258 65242 65199 65382 65415 65413 65414 65412 65412
65143 65155 65149 65153 65174 65180 65193 65205 65208 65215 65221 65224 65222 65199 65136 65056 65159 65272 65328 65357 65373 65383 65395 65401 65403 65411 65414 65416 65420 65423 65424 65423 65427 65427 65429 65431 65430 65430 65428 65432 65432 65433 65434 65434 65433 65435 65422 0 65437 0 0 0 65448 0 0 65446 0 65448 0 0 0 0 0 0 0 0 0 0 0 0 0 0 0 0 0 0 0 0 0 0 0 0 0 0 0 0 0 0 0 0 0 0 0 0 0 0 0 0 0 0 0 0 0 0 0 0 0 0 0 0 0 0 0 0 0 0 0 0 0 0 65438 65435 65432 65431 65431 65431 65431 65428 65428 65426 65427 65425 65429 65429 65429 65429 65425 65431 65429 65430 65431 65428 65427 65424 65424 65419 65410 65390 65368 65311 65279 65303 65189 65226 65274 65290 65279 65278 65283 65285 65286 65284 65276 65273 65278 65268 65268 65262 65236 65236 65399 65411 65414 65412 65408 65408
65148 65161 65160 65166 65177 65186 65203 65203 65220 65223 65230 65232 65243 65236 65203 65111 65102 65159 65273 65332 65359 65373 65386 65390 65402 65409 65412 65417 65420 65417 65423 65425 65421 65426 65428 65427 65430 65431 65431 65432 65431 65431 65434 65432 65433 65433 65430 0 0 65443 0 0 0 0 0 0 0 0 0 0 0 0 0 0 0 0 0 0 0 0 0 0 0 0 0 0 0 0 0 0 0 0 0 0 0 0 0 0 0 0 0 0 65453 0 0 0 0 0 0 0 0 0 0 0 0 0 0 0 0 0 0 0 0 0 0 0 0 0 65441 65433 65436 65433 65429 65431 65431 65429 65429 65429 65427 65426 65430 65430 65428 65430 65428 65430 65431 65432 65430 65431 65427 65429 65427 65425 65418 65410 65395 65374 65320 65270 65309 65226 65223 65264 65294 65297 65282 65272 65274 65274 65282 65277 65274 65270 65268 65260 65264 65269 65216 65316 65410 65411 65411 65410 65408 65407
65151 65159 65170 65170 65183 65202 65209 65212 65223 65223 65238 65241 65244 65247 65234 65183 65148 65165 65211 65274 65330 65358 65374 65388 65397 65405 65412 65414 65417 65417 65420 65423 65427 65426 65429 65428 65430 65430 65431 65432 65433 65433 65433 65434 65435 65435 65434 65447 0 65444 0 0 0 0 0 65451 0 0 0 0 0 0 0 0 0 0 0 0 0 0 0 0 0 0 65453 0 0 0 0 0 0 0 0 0 0 65456 0 0 0 0 0 0 0 0 0 0 0 0 0 65455 0 0 0 0 0 0 0 0 0 0 0 0 0 0 0 0 0 65440 65437 65436 65433 65432 65433 65432 65431 65429 65431 65430 65430 65430 65427 65432 65430 65432 65429 65433 65432 65433 65431 65430 65431 65427 65424 65419 65414 65401 65376 65334 65263 65303 65254 65215 65269 65280 65302 65304 65289 65282 65282 65278 65281 65273 65276 65275 65266 65266 65264 65263 65213 65372 65411 65409 65409 65410 65405 65406
65134 65161 65174 65180 65188 65202 65218 65225 65229 65234 65242 65252 65252 65257 65260 65220 65159 65239 65324 65228 65269 65324 65357 65378 65390 65400 65406 65412 65414 65415 65423 65423 65425 65427 65425 65427 65432 65432 65432 65430 65433 65431 65435 65435 65433 65435 65431 65431 0 0 0 0 0 0 0 0 0 65447 0 0 0 0 0 0 0 0 0 0 0 0 0 0 0 0 0 0 0 0 0 0 0 0 0 0 0 0 0 0 0 0 0 0 0 0 0 0 0 0 0 0 0 0 0 0 0 0 0 0 0 0 0 0 0 0 0 0 65439 65437 65436 65434 65434 65430 65432 65433 65430 65431 65430 65431 65429 65430 65432 65432 65430 65430 65431 65432 65433 65431 65431 65430 65428 65426 65420 65414 65404 65382 65342 65266 65304 65268 65212 65269 65296 65296 65291 65303 65290 65288 65290 65284 65274 65267 65273 65281 65272 65269 65263 65248 65234 65394 65408 65408 65409 65405 65404 65401
65154 65166 65185 65188 65193 65211 65230 65235 65238 65240 65231 65247 65249 65252 65259 65234 65165 65225 65335 65357 65230 65268 65328 65359 65380 65391 65403 65407 65411 65414 65420 65420 65421 65425 65425 65430 65430 65429 65431 65432 65433 65434 65434 65430 65437 65437 65438 65435 65437 0 0 65448 0 0 0 0 0 0 65448 0 0 0 0 0 0 0 0 0 0 0 0 0 0 0 0 0 0 0 0 0 0 0 0 0 0 0 0 0 0 0 0 0 0 0 0 0 0 0 0 0 0 0 0 0 0 0 0 0 0 0 0 0 0 0 65445 65439 65437 65437 65429 65433 65434 65432 65430 65433 65433 65430 65432 65432 65431 65432 65430 65433 65433 65433 65433 65433 65432 65433 65430 65427 65426 65425 65416 65404 65387 65348 65271 65302 65286 65222 65273 65298 65304 65303 65301 65302 65296 65297 65294 65289 65281 65282 65271 65270 65269 65269 65264 65239 65307 65403 65408 65408 65407 65405 65401 65404
65165 65161 65189 65200 65209 65215 65223 65224 65241 65245 65245 65251 65246 65258 65259 65249 65210 65182 65306 65392 65358 65232 65263 65323 65360 65378 65392 65403 65405 65415 65417 65419 65424 65425 65427 65429 65430 65430 65431 65432 65432 65433 65433 65435 65435 65438 65437 65437 65430 65439 65445 65447 0 0 65446 65449 65450 0 65447 65447 0 0 0 0 0 0 0 0 0 0 0 0 0 0 0 0 0 0 0 0 0 0 0 0 0 0 0 0 0 0 0 0 0 0 0 0 0 0 0 0 0 0 0 0 0 0 0 0 0 0 0 0 0 65440 65438 65437 65436 65435 65434 65435 65432 65429 65433 65432 65431 65431 65431 65433 65433 65432 65433 65435 65435 65433 65433 65434 65433 65432 65429 65427 65424 65417 65408 65391 65355 65287 65313 65288 65218 65252 65304 65309 65313 65311 65304 65299 65300 65302 65291 65288 65285 65282 65271 65269 65271 65262 65256 65226 65366 65409 65406 65404 65406 65405 65400 65399
65174 65180 65197 65199 65210 65223 65220 65236 65247 65249 65247 65250 65256 65259 65263 65260 65237 65176 65264 65383 65399 65354 65237 65257 65322 65359 65378 65394 65404 65411 65416 65419 65423 65426 65428 65429 65431 65432 65430 65431 65429 65434 65435 65435 65436 65435 0 65439 65435 65428 0 0 65449 0 0 65447 0 65448 0 0 0 0 0 0 0 0 0 0 0 0 0 0 0 0 0 0 0 0 0 0 0 0 0 0 0 0 0 0 0 0 0 0 0 0 0 0 0 0 65452 0 0 0 0 0 0 0 65452 65454 0 0 0 0 65436 65437 65436 65434 65436 65437 65434 65432 65434 65433 65433 65432 65431 65433 65430 65434 65433 65432 65435 65434 65435 65434 65435 65433 65431 65430 65428 65425 65418 65408 65394 65363 65294 65335 65298 65216 65263 65295 65316 65307 65310 65311 65300 65307 65300 65298 65294 65285 65291 65284 65282 65279 65273 65268 65251 65239 65389 65406 65403 65404 65401 65401 65401 65398
65183 65191 65207 65208 65207 65223 65226 65237 65248 65247 65247 65248 65258 65264 65269 65261 65251 65207 65217 65337 65405 65398 65361 65245 65250 65321 65357 65381 65393 65403 65412 65417 65421 65424 65426 65429 65429 65431 65431 65431 65432 65433 65434 65435 65437 65436 65438 65438 65439 65439 65428 65444 0 0 0 65447 0 0 0 0 0 65449 0 0 0 0 0 0 0 0 0 0 0 0 0 0 0 0 0 0 0 0 0 0 0 0 0 0 0 0 0 0 0 0 65452 0 0 0 0 0 65453 0 0 0 0 0 0 0 0 0 0 65435 65436 65435 65437 65434 65436 65435 65435 65432 65432 65434 65432 65434 65435 65431 65433 65433 65433 65435 65433 65430 65436 65436 65434 65433 65429 65428 65425 65420 65412 65399 65373 65307 65338 65328 65218 65259 65304 65312 65314 65313 65314 65311 65308 65307 65297 65298 65300 65288 65294 65290 65282 65282 65281 65275 65242 65308 65398 65404 65404 65403 65400 65401 65399 65398
65193 65210 65214 65223 65218 65230 65234 65242 65244 65248 65251 65259 65262 65264 65271 65266 65268 65244 65190 65294 65397 65403 65393 65359 65165 65237 65314 65359 65382 65395 65406 65414 65418 65423 65425 65423 65428 65429 65429 65432 65435 65431 65434 65435 65438 65434 65438 65440 65439 65441 65440 65426 65443 0 0 65446 65447 0 0 65447 65447 0 0 0 0 0 0 0 0 0 0 0 0 0 0 0 0 0 0 0 0 0 0 0 0 0 0 0 0 0 0 0 0 0 0 0 0 0 0 65453 0 0 0 0 0 0 0 0 0 65437 65434 65435 65435 65436 65434 65433 65434 65434 65435 65433 65435 65436 65434 65433 65433 65431 65435 65436 65436 65436 65437 65436 65435 65435 65434 65433 65430 65425 65421 65413 65403 65381 65318 65324 65351 65233 65254 65300 65317 65319 65314 65314 65318 65310 65309 65304 65289 65303 65300 65293 65295 65292 65291 65287 65279 65276 65234 65362 65404 65403 65402 65398 65399 65397 65397 65395
65210 65218 65227 65224 65218 65233 65234 65241 65245 65245 65243 65260 65258 65260 65264 65266 65274 65262 65211 65249 65370 65407 65405 65394 65272 65100 65232 65316 65359 65383 65395 65406 65414 65421 65425 65426 65425 65424 65431 65432 65434 65434 65431 65437 65439 65438 65439 65438 65441 65439 65440 65440 65427 65446 0 0 0 65447 0 65448 0 0 0 0 0 0 0 0 0 0 0 0 0 0 0 0 0 0 0 0 0 0 0 0 0 0 0 0 0 0 0 0 0 65453 0 0 0 0 0 0 0 0 0 0 0 0 0 0 65436 65436 65435 65437 65434 65436 65435 65434 65435 65433 65432 65434 65436 65436 65432 65432 65435 65436 65436 65435 65437 65434 65436 65436 65436 65432 65433 65429 65428 65422 65413 65404 65387 65336 65312 65360 65267 65244 65292 65318 65320 65320 65322 65314 65313 65314 65313 65298 65297 65304 65303 65301 65290 65291 65287 65293 65283 65271 65245 65385 65400 65402 65397 65398 65397 65397 65394 65393
65216 65221 65220 65218 65215 65229 65238 65235 65244 65243 65251 65255 65251 65260 65263 65270 65269 65266 65244 65200 65320 65404 65407 65405 65370 65109 65126 65219 65311 65358 65383 65396 65409 65414 65420 65425 65426 65427 65430 65429 65433 65434 65435 65433 65438 65438 0 65439 65437 65441 0 65443 65441 65429 0 0 0 0 0 0 0 0 65450 0 0 0 0 0 0 0 0 0 0 0 0 0 0 0 0 0 0 0 0 0 0 0 0 0 0 0 0 0 0 0 0 0 0 0 0 0 0 0 0 0 0 0 65444 65436 65436 65437 65436 65435 65435 65436 65434 65434 65436 65435 65436 65436 65434 65434 65435 65436 65437 65436 65436 65436 65437 65438 65434 65436 65433 65434 65429 65429 65423 65416 65405 65387 65348 65309 65362 65312 65242 65280 65317 65325 65323 65318 65324 65317 65312 65314 65308 65304 65304 65303 65304 65303 65292 65289 65297 65289 65284 65255 65312 65396 65402 65395 65399 65396 65392 65394 65395 65389
65210 65220 65221 65220 65227 65229 65235 65227 65238 65249 65251 65255 65258 65257 65262 65273 65266 65266 65256 65205 65281 65391 65411 65413 65397 65251 65165 65142 65206 65307 65356 65382 65397 65406 65417 65419 65425 65427 65424 65430 65432 65433 65436 65433 65437 65437 65438 65438 65438 65442 65442 65443 65443 65437 65427 0 0 0 0 0 65446 65446 0 0 65449 65447 0 0 0 0 0 0 0 0 0 0 0 0 0 0 0 0 0 0 0 0 0 0 0 0 0 0 0 0 0 0 0 0 0 0 0 0 0 65453 0 65438 65436 65437 65435 65433 65436 65437 65436 65437 65437 65435 65436 65438 65435 65431 65436 65432 65436 65432 65438 65437 65438 65439 65437 65438 65438 65437 65434 65431 65430 65425 65417 65407 65393 65356 65304 65368 65333 65246 65290 65325 65332 65322 65321 65324 65318 65316 65310 65309 65303 65300 65303 65307 65301 65304 65305 65295 65296 65295 65283 65250 65360 65398 65394 65398 65397 65393 65392 65391 65387 65387
65215 65216 65222 65219 65228 65224 65234 65236 65236 65245 65246 65252 65260 65259 65261 65269 65270 65270 65266 65240 65231 65346 65411 65417 65414 65385 65221 65194 65150 65205 65307 65356 65381 65395 65408 65417 65421 65426 65427 65429 65433 65432 65435 65436 65437 65433 65438 0 65439 65442 65441 65442 65442 65445 65433 65429 0 0 0 0 0 65446 0 65448 0 0 0 0 0 0 0 0 0 0 0 0 0 0 0 0 0 0 0 0 0 0 0 65452 0 0 65455 0 0 0 0 0 0 0 0 0 0 0 0 0 65438 65435 65438 65436 65436 65436 65437 65438 65436 65436 65437 65436 65438 65437 65436 65434 65437 65436 65439 65438 65437 65438 65437 65438 65438 65437 65436 65434 65431 65432 65425 65417 65407 65390 65363 65302 65364 65343 65245 65285 65321 65332 65333 65327 65325 65326 65321 65316 65315 65315 65312 65305 65302 65307 65300 65304 65305 65298 65298 65293 65279 65269 65381 65395 65397 65395 65394 65389 65388 65389 65387 65387
65205 65208 65220 65224 65225 65227 65222 65234 65230 65241 65250 65254 65256 65253 65260 65267 65276 65275 65272 65253 65205 65304 65406 65423 65429 65419 65364 65236 65204 65150 65194 65298 65356 65379 65397 65408 65415 65420 65425 65424 65431 65435 65433 65433 65436 65439 65439 65440 65440 0 0 65443 65442 65443 0 65429 65436 65449 0 0 65447 0 0 0 0 65448 0 0 0 0 0 0 0 0 0 0 0 0 0 0 0 0 0 0 0 0 0 0 0 0 0 0 0 0 0 0 0 0 0 0 0 0 0 65438 65435 65438 65437 65437 65437 65434 65437 65438 65437 65436 65437 65437 65438 65437 65436 65438 65437 65439 65439 65438 65440 65440 65437 65438 65438 65435 65435 65433 65432 65428 65420 65406 65396 65367 65300 65362 65347 65247 65286 65314 65327 65329 65333 65325 65329 65329 65321 65315 65316 65314 65314 65306 65299 65303 65300 65308 65308 65297 65293 65290 65266 65324 65391 65395 65394 65394 65391 65389 65389 65387 65385 65385
65208 65213 65221 65222 65218 65233 65224 65240 65236 65245 65248 65247 65249 65257 65252 65263 65273 65275 65278 65257 65225 65256 65378 65427 65427 65423 65412 65367 65244 65204 65153 65182 65294 65352 65381 65397 65407 65415 65422 65424 65428 65430 65434 65434 65435 65439 65439 65438 65440 0 65441 65441 0 0 0 65443 65425 65442 0 0 0 65446 0 65447 0 0 0 0 0 0 0 0 0 0 0 0 0 0 0 0 0 0 0 0 0 0 0 0 0 0 0 0 0 0 0 0 65451 0 0 0 0 65442 65439 65439 65438 65438 65437 65436 65438 65437 65439 65439 65439 65437 65439 65439 65436 65439 65439 65438 65438 65437 65438 65439 65438 65438 65437 65437 65436 65434 65434 65432 65429 65420 65410 65390 65367 65306 65357 65354 65253 65280 65313 65326 65332 65327 65333 65330 65326 65321 65318 65317 65320 65319 65314 65316 65310 65309 65298 65305 65304 65293 65293 65287 65261 65363 65394 65392 65391 65387 65390 65388 65387 65384 65384 65381
65207 65203 65212 65220 65221 65233 65235 65232 65234 65238 65235 65248 65258 65260 65262 65271 65269 65277 65275 65275 65242 65217 65311 65400 65420 65418 65418 65408 65374 65256 65210 65171 65179 65287 65352 65381 65395 65408 65415 65421 65425 65425 65431 65433 65435 65435 65438 65437 65441 65441 0 65442 0 65444 0 0 0 65422 0 0 0 0 65447 65444 0 0 0 0 0 0 0 0 0 0 0 0 0 0 65453 0 0 0 0 0 0 0 0 0 0 0 0 0 0 65452 0 0 0 0 0 0 65440 65440 65438 65436 65438 65436 65437 65439 65438 65438 65438 65438 65440 65438 65437 65435 65439 65438 65437 65439 65438 65437 65438 65438 65438 65439 65437 65438 65436 65436 65429 65431 65419 65409 65394 65367 65308 65352 65353 65265 65281 65318 65333 65338 65336 65336 65333 65334 65327 65323 65315 65320 65316 65315 65315 65309 65309 65294 65297 65303 65299 65294 65294 65286 65291 65381 65387 65392 65387 65387 65389 65385 65385 65382 65380 65376
65211 65209 65212 65216 65219 65220 65226 65231 65232 65237 65242 65249 65260 65261 65264 65266 65270 65274 65282 65286 65266 65216 65226 65309 65391 65415 65415 65416 65409 65382 65263 65212 65179 65184 65276 65339 65380 65396 65405 65413 65420 65427 65429 65431 65432 65435 65438 65441 65440 65438 65439 65443 0 0 65443 0 0 65434 65429 0 0 0 0 0 65447 0 65449 0 0 0 0 0 0 0 0 0 0 0 0 0 0 0 0 0 0 0 0 0 0 0 0 0 0 0 0 0 0 0 0 65439 65438 65440 65438 65437 65437 65438 65439 65439 65438 65439 65438 65438 65439 65439 65438 65438 65438 65439 65440 65440 65441 65437 65440 65440 65440 65439 65435 65439 65434 65432 65429 65422 65412 65398 65365 65307 65349 65357 65276 65285 65321 65335 65336 65336 65334 65328 65335 65331 65332 65321 65320 65319 65317 65316 65316 65314 65305 65304 65305 65293 65299 65298 65294 65272 65340 65390 65391 65388 65386 65386 65386 65382 65380 65380 65377 65377
65236 65223 65225 65216 65220 65222 65216 65231 65232 65239 65242 65249 65259 65257 65263 65271 65275 65267 65285 65289 65283 65254 65214 65248 65308 65382 65411 65413 65409 65405 65383 65266 65232 65194 65187 65271 65341 65374 65392 65402 65415 65422 65425 65427 65430 65436 65437 65439 65440 65439 0 65441 65442 65445 65445 0 0 65446 65430 65438 0 0 0 0 0 0 65449 0 0 0 0 0 0 0 0 0 0 0 0 0 0 0 0 0 0 0 0 0 0 0 0 0 0 0 0 0 0 65444 65438 65440 65440 65439 65438 65439 65439 65440 65438 65439 65440 65437 65439 65439 65439 65440 65440 65436 65439 65442 65440 65439 65439 65440 65441 65440 65441 65437 65438 65437 65431 65430 65423 65411 65396 65364 65302 65345 65362 65285 65278 65318 65343 65340 65335 65331 65334 65335 65337 65334 65331 65317 65322 65328 65322 65319 65317 65313 65306 65315 65303 65301 65296 65293 65293 65279 65371 65391 65389 65387 65386 65383 65384 65381 65377 65376 65374 65374
65249 65228 65221 65220 65219 65227 65222 65228 65242 65241 65251 65249 65255 65251 65259 65272 65271 65273 65277 65288 65286 65270 65220 65258 65325 65309 65380 65411 65411 65415 65409 65390 65287 65230 65201 65182 65259 65329 65369 65385 65404 65413 65418 65425 65430 65434 65436 65437 65440 0 65441 65444 65442 65418 65444 0 0 0 0 65425 0 0 0 0 0 0 0 0 0 0 0 0 0 0 0 65450 0 0 0 0 65449 0 65451 0 0 0 0 0 0 0 0 0 0 0 0 0 65443 65440 65439 0 65439 65440 65441 65437 65439 65438 65439 65439 65437 65441 65439 65437 65439 65436 65441 65440 65441 65440 65441 65440 65441 65440 65439 65440 65441 65438 65435 65433 65430 65425 65413 65397 65365 65306 65341 65360 65291 65272 65309 65336 65347 65339 65340 65335 65334 65334 65337 65336 65331 65321 65322 65326 65324 65317 65319 65319 65315 65309 65307 65307 65302 65299 65283 65314 65385 65390 65384 65385 65383 65380 65379 65378 65377 65374 65372 65370
65254 65240 65223 65206 65213 65219 65224 65232 65227 65240 65247 65249 65252 65254 65258 65263 65275 65279 65279 65286 65291 65275 65246 65260 65338 65345 65303 65375 65410 65412 65413 65412 65395 65313 65242 65222 65190 65249 65322 65360 65386 65403 65413 65421 65424 65426 65432 65436 65439 65439 65439 65439 65442 0 65441 0 65445 0 65446 65442 65430 0 0 0 0 0 0 0 0 0 65449 0 0 0 0 0 0 0 0 0 0 0 0 0 0 0 0 0 0 0 0 0 0 0 0 65442 65440 65440 65439 65441 65439 65441 65439 65440 65441 65438 0 65439 65440 65439 65438 65441 65441 65440 65441 65441 65444 65441 65441 65442 65442 65442 65441 65440 65439 65439 65436 65431 65425 65415 65397 65371 65304 65333 65361 65303 65274 65311 65329 65337 65340 65339 65345 65338 65341 65337 65332 65337 65335 65330 65330 65328 65322 65319 65322 65317 65310 65305 65299 65304 65301 65299 65282 65360 65390 65387 65384 65381 65382 65379 65372 65374 65373 65371 65368 65367
65259 65231 65223 65214 65218 65215 65218 65223 65232 65242 65246 65252 65257 65256 65261 65270 65277 65277 65280 65286 65286 65287 65267 65231 65312 65375 65346 65300 65367 65410 65411 65415 65412 65401 65333 65250 65230 65190 65236 65303 65357 65385 65401 65410 65420 65425 65426 65434 65435 65435 65437 65438 65440 0 0 0 65444 0 0 0 65436 0 0 0 0 0 0 0 0 0 0 0 0 0 0 0 0 0 0 0 0 0 0 0 0 0 0 0 0 0 0 0 0 65448 65442 65440 0 65440 65441 65439 65437 65439 65441 65440 65441 65441 65440 65439 65441 0 65442 0 65443 65441 65442 65442 65440 65444 65441 65442 65441 65441 65441 65439 65439 65437 65431 65424 65411 65404 65374 65312 65333 65362 65310 65264 65301 65334 65337 65326 65319 65338 65345 65338 65340 65330 65334 65338 65335 65330 65326 65324 65320 65322 65316 65315 65310 65307 65300 65299 65297 65296 65296 65378 65388 65383 65383 65380 65379 65374 65373 65372 65370 65368 65367 65366
65250 65238 65226 65215 65213 65224 65222 65234 65233 65235 65247 65249 65256 65264 65266 65271 65271 65275 65277 65286 65291 65294 65277 65255 65278 65362 65380 65346 65307 65364 65409 65414 65416 65413 65405 65352 65262 65241 65197 65225 65289 65351 65382 65400 65409 65418 65428 65431 65434 65435 65437 65439 65438 65441 0 65442 65444 0 0 0 0 65425 65446 0 0 0 0 0 0 0 0 0 0 0 0 0 0 0 0 0 0 0 0 0 0 0 0 0 0 0 0 0 0 65442 65442 65442 65441 0 65441 65440 65441 0 0 65439 65440 65440 65441 65438 65441 65442 65441 65441 65441 65442 65443 65441 65442 65442 65443 65442 65442 65442 65441 65439 65437 65432 65426 65414 65404 65380 65322 65331 65363 65318 65269 65314 65338 65347 65353 65352 65357 65355 65348 65343 65336 65327 65332 65336 65332 65317 65325 65321 65319 65319 65323 65320 65311 65309 65303 65295 65299 65293 65331 65388 65385 65381 65377 65375 65372 65368 65370 65369 65369 65365 65361 65360
65238 65237 65223 65223 65215 65219 65226 65230 65232 65230 65238 65243 65255 65262 65263 65273 65276 65281 65281 65288 65300 65291 65283 65280 65248 65326 65381 65379 65348 65303 65353 65410 65415 65415 65416 65410 65367 65265 65245 65206 65211 65274 65344 65378 65397 65412 65419 65427 65431 65436 65435 65438 65441 65441 65441 65442 0 65443 65445 65446 0 65443 65433 0 0 0 0 0 0 0 0 0 0 0 0 65452 0 0 0 0 0 0 0 0 0 0 0 0 0 0 0 0 0 65442 65441 0 65440 65442 65440 65443 65438 65441 65442 65441 65440 65441 65443 65440 65442 65440 65442 65442 65443 65443 65445 65443 65444 65442 65443 65442 65441 65440 65440 65437 65436 65426 65416 65406 65383 65328 65327 65363 65323 65271 65313 65343 65351 65353 65356 65367 65373 65366 65358 65342 65335 65297 65334 65333 65330 65323 65326 65323 65324 65324 65323 65315 65315 65311 65304 65297 65299 65289 65363 65385 65381 65378 65376 65373 65374 65370 65365 65368 65365 65361 65358 65356
65212 65217 65232 65230 65227 65211 65220 65230 65235 65241 65238 65245 65255 65257 65257 65270 65277 65280 65286 65292 65291 65298 65305 65293 65252 65291 65372 65386 65378 65344 65281 65352 65407 65412 65417 65418 65408 65381 65283 65253 65209 65193 65272 65337 65374 65398 65411 65422 65427 65430 65436 65436 65436 65439 65442 65443 65442 65445 0 0 0 65447 0 0 65448 0 0 0 0 0 0 0 0 0 0 0 0 0 0 0 0 0 0 0 0 0 0 0 0 0 65444 65442 65443 65442 65439 65441 65441 65442 65442 65442 65442 65443 65443 65441 65440 65442 65439 65442 0 65442 65443 65444 0 65444 65444 65443 65442 65442 65442 65441 65441 65441 65438 65435 65430 65418 65406 65385 65336 65324 65358 65324 65271 65317 65339 65347 65348 65348 65342 65349 65359 65367 65356 65339 65337 65338 65335 65337 65336 65331 65326 65328 65330 65324 65321 65318 65312 65309 65296 65293 65297 65307 65371 65388 65383 65376 65373 65371 65370 65367 65363 65362 65361 65360 65358 65352
65180 65198 65223 65233 65230 65223 65223 65225 65237 65245 65240 65242 65251 65253 65255 65266 65273 65278 65284 65288 65294 65300 65305 65297 65280 65265 65337 65383 65385 65368 65280 65271 65344 65407 65414 65415 65419 65414 65393 65297 65251 65218 65203 65258 65323 65371 65399 65411 65420 65423 65432 65435 65438 65439 65440 65441 0 65443 65444 0 0 0 0 65430 0 0 0 65447 0 0 0 0 0 0 0 0 0 0 0 0 0 0 0 0 0 0 0 0 0 65444 65442 65442 65442 65443 65442 65443 65441 65441 65442 65441 65443 65442 65441 65443 65442 65443 0 0 65440 65445 65442 65443 65445 65443 65444 65442 65444 65441 65441 65441 65440 65436 65435 65429 65421 65409 65389 65341 65321 65358 65330 65268 65309 65345 65348 65347 65340 65342 65338 65345 65352 65347 65344 65339 65339 65338 65334 65332 65332 65331 65327 65328 65326 65319 65319 65318 65312 65305 65296 65299 65290 65342 65381 65382 65379 65371 65370 65370 65369 65364 65363 65358 65358 65355 65352 65352
65171 65189 65201 65211 65222 65227 65227 65241 65247 65241 65238 65241 65246 65255 65268 65269 65277 65273 65283 65287 65299 65307 65303 65301 65290 65255 65300 65376 65381 65377 65345 65260 65267 65337 65402 65415 65417 65418 65415 65402 65321 65268 65243 65201 65245 65314 65367 65397 65411 65417 65427 65432 65434 65437 65439 65441 65441 65443 0 65444 0 65446 0 65441 65434 0 0 0 0 0 0 0 0 0 0 0 0 0 0 0 0 0 0 0 0 0 0 65448 65444 65443 65444 0 0 0 0 65443 65443 65441 65443 0 65441 65440 65442 0 65443 65443 65442 65445 65443 65445 0 65445 65443 0 0 65442 65443 65441 65442 65438 65438 65435 65427 65419 65411 65393 65349 65320 65361 65333 65274 65312 65345 65354 65352 65343 65338 65344 65341 65350 65346 65345 65341 65339 65341 65336 65330 65332 65328 65328 65328 65324 65318 65319 65322 65315 65313 65307 65304 65302 65293 65357 65382 65383 65376 65370 65369 65368 65365 65362 65358 65353 65353 65352 65348 65345
