-0.44673 -0.447957 -0.443983 -0.44733 -0.443642 -0.442162 -0.441393 -0.441155 -0.439178 -0.437996 -0.44022 -0.436096 -0.435116 -0.435706 -0.431453 -0.432232 -0.42965 -0.427772 -0.42978 -0.426116 -0.424873 -0.422955 -0.42379 -0.422151 -0.419413 -0.419079 -0.418583 -0.419033 -0.416174 -0.414434 -0.413894 -0.410227 -0.412165 -0.411738 -0.414025 -0.413192 -0.41355 -0.413157 -0.41109 -0.411727 -0.410018 -0.409579 -0.401265 -0.384341 -0.354305 -0.340139 -0.330515 -0.329352 -0.328697 -0.32805 -0.32666 -0.333527 -0.360875 -0.401011 -0.402101 -0.38541 -0.318655 -0.269083 -0.252429 -0.245169 -0.242148 -0.239218 -0.238614 -0.237766 -0.236923 -0.23683 -0.237567 0.0 -0.237318 -0.238315 -0.237582 0.0 0.0 0.0 0.0 0.0 0.0 0.0 0.0 0.0 0.0 0.0 0.0 0.0 0.0 0.0 0.0 0.0 -0.232749 0.0 -0.232674 0.0 0.0 -0.234194 0.0 0.0 -0.234185 0.0 0.0 -0.233055 0.0 0.0 0.0 0.0 0.0 0.0 -0.235751 0.0 -0.236972 -0.237135 -0.237302 -0.23706 -0.238642 -0.242133 -0.24497 -0.252452 -0.273126 -0.293659 -0.289575 -0.309234 -0.390966 -0.406725 -0.403883 -0.402709 -0.40304 -0.404046 -0.405395 -0.405585 -0.405367 -0.405991 -0.40746 -0.406347 -0.407249 -0.407825 -0.408327 -0.406991 -0.409694 -0.409299 -0.409584 -0.411311 -0.411447 -0.411254 -0.413435 -0.413514 -0.41538 -0.415987 -0.413974 -0.417145 -0.418376 -0.41783 -0.419082 -0.421026 -0.421788 -0.42179 -0.42317 -0.422247 -0.404418 -0.390418 -0.387405 -0.387493 -0.388452 -0.38553 -0.388233 -0.386182 -0.386388 -0.39086 -0.385079 -0.386172 -0.386664 -0.383751 -0.382324 -0.382475 -0.385177 -0.385781 -0.383307 -0.381975
-0.453887 -0.447331 -0.452894 -0.448692 -0.450938 -0.452023 -0.448211 -0.44895 -0.445787 -0.444145 -0.443753 -0.437977 -0.441137 -0.438302 -0.437594 -0.436279 -0.435765 -0.434821 -0.433625 -0.430516 -0.433271 -0.430535 -0.429903 -0.427889 -0.427712 -0.426069 -0.425478 -0.420742 -0.42199 -0.42238 -0.418033 -0.419994 -0.417312 -0.41791 -0.420577 -0.420244 -0.419321 -0.417208 -0.418787 -0.415414 -0.415813 -0.415281 -0.416208 -0.409986 -0.395016 -0.365195 -0.345964 -0.335856 -0.331625 -0.332155 -0.33108 -0.331792 -0.336233 -0.353954 -0.400314 -0.408443 -0.397912 -0.340821 -0.282195 -0.258955 -0.249729 -0.245737 -0.242933 -0.242154 -0.241128 -0.241621 -0.240269 0.0 0.0 -0.240608 0.0 0.0 0.0 0.0 0.0 0.0 0.0 0.0 0.0 0.0 0.0 0.0 0.0 0.0 0.0 0.0 0.0 0.0 0.0 0.0 0.0 0.0 0.0 0.0 0.0 0.0 0.0 0.0 0.0 0.0 0.0 0.0 0.0 -0.237724 0.0 -0.239443 0.0 -0.240089 -0.241342 -0.240837 -0.241511 -0.242359 -0.243043 -0.248528 -0.253348 -0.275271 -0.295282 -0.293824 -0.315054 -0.396977 -0.411966 -0.409325 -0.409141 -0.40871 -0.409302 -0.409394 -0.410766 -0.411045 -0.410569 -0.411035 -0.412868 -0.412247 -0.41325 -0.413241 -0.415371 -0.415551 -0.413008 -0.415938 -0.417769 -0.416873 -0.417526 -0.41613 -0.418174 -0.41877 -0.420494 -0.420852 -0.421219 -0.421336 -0.423968 -0.422116 -0.424685 -0.425707 -0.425524 -0.428131 -0.4264 -0.425196 -0.411082 -0.400346 -0.397464 -0.397558 -0.394765 -0.39487 -0.39551 -0.392369 -0.395224 -0.395708 -0.39204 -0.393772 -0.393119 -0.390335 -0.391998 -0.392333 -0.39312 -0.394986 -0.3931 -0.392647
-0.46234 -0.457138 -0.456963 -0.456155 -0.455717 -0.455376 -0.45513 -0.454167 -0.448251 -0.451365 -0.448899 -0.445818 -0.444186 -0.444357 -0.443639 -0.44302 -0.441874 -0.441985 -0.441214 -0.437876 -0.436595 -0.435591 -0.436189 -0.431139 -0.432905 -0.432382 -0.431605 -0.429255 -0.431223 -0.42793 -0.426143 -0.423493 -0.423218 -0.42304 -0.423569 -0.424366 -0.4243 -0.42459 -0.423324 -0.423631 -0.421257 -0.419676 -0.420878 -0.420355 -0.416122 -0.402052 -0.372295 -0.353463 -0.341047 -0.336669 -0.336266 -0.335955 -0.335652 -0.339137 -0.350698 -0.38354 -0.383322 -0.356959 -0.328488 -0.300139 -0.268914 -0.254495 -0.251386 -0.246659 -0.245444 -0.244492 -0.244142 -0.243968 -0.243286 -0.244826 -0.24313 -0.244081 0.0 0.0 0.0 0.0 0.0 0.0 0.0 0.0 0.0 0.0 0.0 0.0 0.0 0.0 0.0 0.0 0.0 0.0 0.0 0.0 0.0 0.0 0.0 0.0 0.0 0.0 0.0 0.0 0.0 0.0 0.0 0.0 -0.243233 0.0 0.0 -0.243531 -0.244464 -0.243524 -0.244978 -0.246864 -0.250979 -0.257068 -0.275738 -0.299907 -0.297566 -0.319551 -0.405062 -0.418479 -0.415448 -0.412679 -0.413436 -0.414201 -0.414717 -0.413264 -0.416207 -0.416061 -0.416957 -0.417 -0.417225 -0.416334 -0.416575 -0.418382 -0.418641 -0.420037 -0.420315 -0.419821 -0.419855 -0.422596 -0.422737 -0.420098 -0.426625 -0.424089 -0.425928 -0.424891 -0.427365 -0.428011 -0.428491 -0.42898 -0.428863 -0.43131 -0.433064 -0.433241 -0.431303 -0.426535 -0.414933 -0.40908 -0.410155 -0.404294 -0.403774 -0.401205 -0.403642 -0.402601 -0.403176 -0.402322 -0.402641 -0.401434 -0.403206 -0.402639 -0.401713 -0.399339 -0.398414 -0.400852 -0.399387 -0.399106
-0.46649 -0.461306 -0.463356 -0.463279 -0.462929 -0.457612 -0.462613 -0.456129 -0.455719 -0.454766 -0.454187 -0.45398 -0.451867 -0.450039 -0.450039 -0.44796 -0.444987 -0.446734 -0.446858 -0.446086 -0.44307 -0.44223 -0.440142 -0.440311 -0.439502 -0.438792 -0.438181 -0.434542 -0.434043 -0.434268 -0.432719 -0.430381 -0.4301 -0.429652 -0.430188 -0.431617 -0.429601 -0.429984 -0.428609 -0.428833 -0.426332 -0.427192 -0.426387 -0.426295 -0.425948 -0.422976 -0.41291 -0.385157 -0.35903 -0.34643 -0.341641 -0.341062 -0.341452 -0.340363 -0.340067 -0.343354 -0.341937 -0.338525 -0.33817 -0.337908 -0.316257 -0.280635 -0.261823 -0.254325 -0.250571 -0.248907 -0.248551 -0.247419 -0.247419 0.0 -0.247866 0.0 0.0 0.0 0.0 0.0 0.0 0.0 0.0 0.0 0.0 0.0 0.0 0.0 0.0 0.0 0.0 0.0 0.0 0.0 0.0 0.0 0.0 0.0 0.0 0.0 0.0 0.0 0.0 0.0 0.0 0.0 0.0 0.0 -0.247103 0.0 -0.246464 0.0 0.0 -0.248355 -0.250528 -0.252793 -0.26036 -0.2781 -0.301508 -0.301472 -0.326054 -0.409487 -0.421884 -0.421934 -0.418855 -0.41857 -0.419427 -0.420904 -0.42047 -0.419431 -0.421198 -0.423326 -0.42275 -0.419464 -0.423111 -0.424315 -0.423332 -0.42429 -0.423675 -0.425973 -0.426786 -0.42752 -0.426057 -0.425129 -0.427836 -0.429672 -0.429746 -0.430451 -0.43001 -0.429933 -0.431021 -0.432299 -0.435016 -0.433369 -0.435931 -0.436358 -0.439395 -0.437599 -0.438414 -0.427179 -0.419618 -0.418451 -0.417016 -0.417756 -0.414247 -0.411461 -0.410036 -0.410523 -0.410745 -0.409513 -0.410293 -0.41108 -0.408485 -0.408548 -0.409534 -0.410068 -0.410331 -0.40792 -0.408465 -0.405773
-0.470184 -0.472268 -0.471341 -0.466198 -0.46501 -0.465793 -0.459854 -0.463542 -0.463406 -0.459929 -0.460738 -0.457657 -0.456998 -0.457178 -0.45598 -0.455345 -0.451957 -0.453457 -0.450462 -0.451242 -0.449737 -0.447239 -0.446489 -0.446388 -0.443836 -0.442753 -0.442227 -0.439894 -0.44084 -0.440342 -0.439312 -0.437027 -0.437914 -0.436374 -0.436197 -0.436659 -0.433892 -0.433564 -0.434142 -0.433653 -0.433083 -0.433776 -0.433493 -0.430986 -0.428759 -0.430558 -0.426837 -0.419122 -0.399057 -0.369335 -0.354681 -0.345294 -0.344358 -0.343784 0.0 -0.342659 -0.343081 -0.342271 -0.341998 -0.342351 -0.346951 -0.340867 -0.295075 -0.269447 -0.25919 -0.256176 -0.252111 -0.249903 -0.2514 -0.25202 0.0 0.0 0.0 0.0 0.0 0.0 0.0 0.0 0.0 0.0 0.0 0.0 0.0 0.0 0.0 0.0 0.0 0.0 0.0 0.0 0.0 0.0 0.0 0.0 0.0 0.0 0.0 0.0 0.0 0.0 0.0 0.0 0.0 0.0 0.0 -0.251058 0.0 -0.252356 -0.252615 -0.253584 -0.257202 -0.262061 -0.279715 -0.305858 -0.303433 -0.3328 -0.417148 -0.426459 -0.424468 -0.423191 -0.424045 -0.422162 -0.425957 -0.42542 -0.425955 -0.426232 -0.426163 -0.427258 -0.427562 -0.427341 -0.427217 -0.427458 -0.429671 -0.4302 -0.429665 -0.429048 -0.43014 -0.433664 -0.431191 -0.432763 -0.435425 -0.432793 -0.435658 -0.435022 -0.435205 -0.436571 -0.437587 -0.437528 -0.438836 -0.438341 -0.442759 -0.443193 -0.44391 -0.444089 -0.44026 -0.429847 -0.428385 -0.425185 -0.425563 -0.426409 -0.424963 -0.423151 -0.420141 -0.417036 -0.417815 -0.41712 -0.417355 -0.419363 -0.417006 -0.419029 -0.419942 -0.417496 -0.419448 -0.418032 -0.416146 -0.416421
-0.479338 -0.476294 -0.473453 -0.478247 -0.471327 -0.472602 -0.470652 -0.464829 -0.469336 -0.466376 -0.465692 -0.464545 -0.464535 -0.462842 -0.463597 -0.46239 -0.46082 -0.458234 -0.454916 -0.457574 -0.45707 -0.456204 -0.453585 -0.453205 -0.449687 -0.448681 -0.448978 -0.447346 -0.445358 -0.446878 -0.444912 -0.444978 -0.443219 -0.444311 -0.441201 -0.441671 -0.4416 -0.440444 -0.439117 -0.438255 -0.43795 -0.4372 -0.43864 -0.434822 -0.437004 -0.43294 -0.434141 -0.43354 -0.42861 -0.407618 -0.37809 -0.361868 -0.352346 -0.348608 -0.347581 -0.347643 -0.34852 -0.347156 -0.348046 -0.355405 -0.367788 -0.380524 -0.381153 -0.316381 -0.27836 -0.264638 -0.25836 -0.256385 -0.255578 -0.253436 -0.254427 0.0 -0.256154 0.0 -0.255218 0.0 0.0 0.0 0.0 0.0 0.0 0.0 0.0 0.0 0.0 0.0 0.0 0.0 0.0 0.0 0.0 0.0 0.0 0.0 0.0 0.0 0.0 0.0 0.0 0.0 0.0 0.0 0.0 0.0 0.0 0.0 -0.254233 -0.256548 -0.256365 -0.258423 -0.265946 -0.284132 -0.308607 -0.308917 -0.340157 -0.422635 -0.433335 -0.427897 -0.429376 -0.429517 -0.430026 -0.430904 -0.430441 -0.431697 -0.43098 -0.432615 -0.432727 -0.432757 -0.433518 -0.433837 -0.433803 -0.433415 -0.434214 -0.434932 -0.434842 -0.436034 -0.436872 -0.436628 -0.437577 -0.439083 -0.439049 -0.439847 -0.44038 -0.441014 -0.438909 -0.441579 -0.443437 -0.444387 -0.443231 -0.444108 -0.447488 -0.448573 -0.44745 -0.449758 -0.441601 -0.436217 -0.433337 -0.432971 -0.432517 -0.433189 -0.437328 -0.4325 -0.432913 -0.428735 -0.429908 -0.426008 -0.42606 -0.42593 -0.425047 -0.425398 -0.425753 -0.426874 -0.423912 -0.424945 -0.4236 -0.423017
-0.480114 -0.479464 -0.480175 -0.479049 -0.480247 -0.47807 -0.478407 -0.474035 -0.47477 -0.47244 -0.473377 -0.467911 -0.468959 -0.468484 -0.468779 -0.466987 -0.465872 -0.462681 -0.461967 -0.460695 -0.46085 -0.458277 -0.45911 -0.457408 -0.458443 -0.456574 -0.456406 -0.453062 -0.453944 -0.452496 -0.4491 -0.449636 -0.449713 -0.449147 -0.450543 -0.448046 -0.447603 -0.446892 -0.44471 -0.445129 -0.443433 -0.444147 -0.44404 -0.441084 -0.441457 -0.443954 -0.439103 -0.440145 -0.439084 -0.434915 -0.418937 -0.389617 -0.368766 -0.356546 -0.35285 -0.351176 -0.352249 -0.350043 -0.352223 -0.356049 -0.375457 -0.418255 -0.434534 -0.415778 -0.349667 -0.290254 -0.270694 -0.263598 -0.260507 -0.2606 -0.258882 -0.258259 0.0 0.0 0.0 0.0 0.0 0.0 0.0 0.0 0.0 0.0 0.0 0.0 0.0 0.0 0.0 0.0 0.0 0.0 0.0 0.0 0.0 0.0 0.0 0.0 0.0 0.0 0.0 0.0 0.0 0.0 0.0 0.0 0.0 0.0 0.0 -0.260401 -0.261851 -0.269754 -0.288209 -0.311591 -0.313537 -0.347149 -0.431582 -0.438703 -0.43436 -0.435764 -0.435353 -0.434676 -0.436107 -0.435447 -0.435434 -0.438081 -0.436439 -0.437734 -0.437115 -0.438521 -0.437827 -0.437783 -0.439862 -0.439377 -0.440557 -0.441287 -0.439446 -0.443055 -0.440859 -0.443291 -0.438612 -0.444676 -0.442602 -0.441461 -0.445342 -0.447938 -0.446825 -0.446091 -0.449002 -0.447351 -0.450755 -0.448277 -0.448801 -0.455057 -0.451098 -0.451557 -0.447034 -0.442791 -0.442509 -0.440911 -0.44083 -0.440092 -0.441447 -0.441101 -0.442284 -0.440236 -0.435515 -0.435948 -0.431793 -0.431082 -0.431141 -0.432455 -0.433682 -0.430383 -0.433452 -0.433826 -0.431685 -0.433033
-0.489891 -0.486768 -0.486608 -0.48547 -0.485711 -0.483114 -0.48317 -0.480105 -0.479199 -0.481902 -0.47595 -0.476428 -0.47691 -0.473331 -0.470735 -0.472014 -0.471078 -0.469575 -0.468755 -0.469001 -0.46513 -0.465395 -0.464519 -0.46413 -0.462511 -0.463666 -0.461591 -0.461526 -0.460804 -0.458006 -0.457591 -0.455293 -0.454994 -0.454043 -0.453669 -0.454623 -0.45389 -0.451286 -0.451421 -0.450813 -0.448434 -0.447941 -0.447646 -0.447079 -0.448485 -0.44775 -0.446091 -0.446122 -0.445044 -0.444255 -0.441522 -0.429875 -0.404314 -0.378236 -0.361944 -0.356437 -0.357433 -0.356119 -0.356108 -0.355828 -0.361473 -0.384316 -0.430615 -0.435685 -0.430602 -0.382803 -0.307837 -0.278027 -0.268616 -0.262903 -0.263739 -0.262093 -0.261833 0.0 -0.26142 0.0 0.0 0.0 0.0 0.0 0.0 0.0 0.0 0.0 0.0 0.0 0.0 0.0 0.0 0.0 0.0 0.0 0.0 0.0 0.0 0.0 0.0 0.0 0.0 0.0 0.0 0.0 0.0 0.0 0.0 -0.262906 -0.264183 -0.265834 -0.273483 -0.292852 -0.315469 -0.316516 -0.355881 -0.438786 -0.444897 -0.438357 -0.440421 -0.441014 -0.440783 -0.440282 -0.439325 -0.441344 -0.439847 -0.440214 -0.440589 -0.443206 -0.441182 -0.444378 -0.444233 -0.444004 -0.443876 -0.446932 -0.445235 -0.445508 -0.443918 -0.446551 -0.448166 -0.447258 -0.449645 -0.449131 -0.448906 -0.449821 -0.450463 -0.451777 -0.451967 -0.452545 -0.455691 -0.453921 -0.454244 -0.455146 -0.458818 -0.457172 -0.457915 -0.458477 -0.451685 -0.451682 -0.450152 -0.451121 -0.450274 -0.450586 -0.451099 -0.449496 -0.448379 -0.449006 -0.449835 -0.447663 -0.448309 -0.440203 -0.440752 -0.438282 -0.441771 -0.439596 -0.440458 -0.440933 -0.441708 -0.44229
-0.494355 -0.493994 -0.493038 -0.487101 -0.489748 -0.485929 -0.481032 -0.487354 -0.485546 -0.485428 -0.483737 -0.482154 -0.482057 -0.4801 -0.478742 -0.478571 -0.477036 -0.47649 -0.473219 -0.473376 -0.472176 -0.471959 -0.471557 -0.471453 -0.464579 -0.46866 -0.468295 -0.467553 -0.463544 -0.462923 -0.463946 -0.461902 -0.463037 -0.461303 -0.462262 -0.459785 -0.459232 -0.458785 -0.456154 -0.455634 -0.456551 -0.453385 -0.454891 -0.453744 -0.453463 -0.453095 -0.452453 -0.451632 -0.45205 -0.451626 -0.449228 -0.447502 -0.439374 -0.416182 -0.387375 -0.37151 -0.361505 -0.35923 -0.359408 -0.361095 -0.359126 -0.363078 -0.376225 -0.420399 -0.441582 -0.437088 -0.407137 -0.33004 -0.287253 -0.272656 -0.268172 -0.266501 -0.265769 -0.265696 0.0 -0.263698 0.0 0.0 0.0 0.0 0.0 0.0 0.0 0.0 0.0 0.0 0.0 0.0 0.0 0.0 0.0 0.0 0.0 0.0 0.0 0.0 0.0 0.0 0.0 0.0 0.0 0.0 0.0 0.0 0.0 -0.266859 -0.271054 -0.277595 -0.297244 -0.318597 -0.321339 -0.367083 -0.442107 -0.446049 -0.445969 -0.444866 -0.443676 -0.443808 -0.44423 -0.445602 -0.445573 -0.44847 -0.446293 -0.446855 -0.444692 -0.444988 -0.447559 -0.447686 -0.450565 -0.451185 -0.449352 -0.449421 -0.451681 -0.450155 -0.449396 -0.454066 -0.455041 -0.45555 -0.454447 -0.455738 -0.456371 -0.456727 -0.457093 -0.461782 -0.458813 -0.4594 -0.462017 -0.460027 -0.460837 -0.460402 -0.461713 -0.461005 -0.462142 -0.46174 -0.460276 -0.458622 -0.459209 -0.458246 -0.458362 -0.457311 -0.455678 -0.4563 -0.455949 -0.45747 -0.45418 -0.454827 -0.459032 -0.455846 -0.454534 -0.44807 -0.447943 -0.448812 -0.44919 -0.450968 -0.448261 -0.448248
1.22941 1.25808 1.25967 1.33004 1.37368 1.43757 1.46727 1.49407 1.46117 1.42072 1.48101 1.53196 1.51405 1.49927 1.38795 1.34196 1.36308 1.35777 1.35513 1.36929 1.36294 1.37149 1.37918 1.39324 1.41119 1.39282 1.38217 1.37171 1.37885 1.37864 1.35531 1.36568 1.33623 1.34114 1.42216 1.58779 1.65702 1.67608 1.52105 1.55328 1.53707 1.53475 1.63067 1.94351 2.02419 1.95081 1.65781 1.90337 2.13811 1.85354 1.49762 1.52794 1.38732 1.53871 1.48846 1.50138 1.8332 1.97215 2.06405 2.00972 2.06455 2.85261 2.73203 3.07058 3.0614 3.03121 3.03001 3.02641 3.0079 3.00561 3.00501 2.97112 2.973 2.97424 2.97249 2.91964 2.96386 2.91814 2.94125 2.94152 2.95897 2.94044 2.90315 2.92304 2.90491 2.90541 2.90468 2.86358 2.90014 2.88317 2.89769 2.87272 2.86873 2.86643 2.8705 2.88123 2.84371 2.85462 2.85671 2.85056 2.85457 2.84044 2.84346 2.82339 2.86098 2.81253 2.86454 2.84105 2.86262 2.76949 2.72989 2.75391 2.85339 2.86037 2.88527 2.87469 2.85449 2.88842 2.89851 2.89231 2.9005 2.76268 2.41621 1.56058 1.3391 1.29165 1.27908 1.27973 1.27919 1.27747 1.2806 1.2705 1.2684 1.26627 1.25696 1.26419 1.26339 1.26083 1.25597 1.25619 1.24701 1.23582 1.25322 1.26515 1.26346 1.2668 1.26502 1.26151 1.2501 1.24036 1.23843 1.24178 1.23613 1.24048 1.24115 1.22677 1.23124 1.23397 1.23139 1.21746 1.2115 1.21265 1.21044 1.20791 1.20587 1.2035 1.21711 1.22245 1.21608 1.21803 1.21828 1.22087 1.21347 1.20577 1.20388 1.21016
1.23317 1.32707 1.32801 1.29356 1.35968 1.46827 1.51128 1.51847 1.50395 1.44095 1.48151 1.48781 1.49515 1.33843 1.34205 1.36183 1.3483 1.42103 1.3676 1.37514 1.37098 1.36229 1.3694 1.37116 1.38406 1.35999 1.44344 1.44932 1.39498 1.43055 1.35928 1.35413 1.36107 1.48125 1.35276 1.58441 1.58665 1.66853 1.57334 1.71603 2.0937 2.19086 2.06155 2.06309 2.08207 1.78132 1.6704 1.72311 2.13933 1.70742 1.51255 1.51638 1.49448 1.54849 1.5054 1.53541 1.83066 2.00399 2.07081 2.04511 2.16506 2.86628 2.75075 2.89176 3.01541 2.98515 3.00633 2.93599 2.9413 2.94422 2.9535 2.91429 2.9716 2.93049 2.9039 2.93303 2.91215 2.93913 2.91812 2.9064 2.90427 2.88102 2.89485 2.89196 2.87467 2.86931 2.86566 2.86809 2.86081 2.86401 2.87153 2.85706 2.84253 2.8259 2.82706 2.83752 2.84119 2.84744 2.81183 2.8241 2.8255 2.83269 2.78637 2.79373 2.80775 2.82579 2.79884 2.8147 2.78765 2.76144 2.63414 2.19079 1.99685 1.89233 2.1872 2.45034 2.56479 2.63493 2.72814 2.75306 2.60731 1.87335 1.4018 1.28749 1.26976 1.27771 1.27206 1.26495 1.26184 1.26216 1.25928 1.25724 1.25545 1.26021 1.26121 1.25589 1.25738 1.26341 1.25684 1.25394 1.25528 1.2455 1.24138 1.24005 1.25736 1.26412 1.26687 1.2583 1.25533 1.24755 1.2375 1.24255 1.24027 1.23962 1.23502 1.23511 1.23875 1.23042 1.22841 1.23161 1.22839 1.21028 1.21441 1.20614 1.20139 1.20561 1.1964 1.19748 1.20094 1.21647 1.21783 1.21858 1.22838 1.19817 1.20887 1.20428
1.36798 1.38375 1.44549 1.35898 1.32272 1.46911 1.51622 1.50283 1.51317 1.44977 1.37155 1.36502 1.3458 1.34152 1.34677 1.36905 1.35547 1.39764 1.37617 1.36539 1.3698 1.3803 1.45661 1.48785 1.45978 1.40157 1.513 1.50125 1.43984 1.44505 1.29289 1.32778 1.33072 1.39941 1.3572 1.57214 1.79981 1.71304 1.57123 1.77554 1.91162 2.21311 2.1988 2.0665 2.01285 1.78256 1.5466 1.53534 1.91078 1.55158 1.50553 1.47525 1.49318 1.53424 1.49975 1.51241 1.84023 2.00191 2.06648 2.03957 2.21839 2.9305 2.91988 2.69954 2.80315 2.91554 2.97928 2.9377 2.94505 2.92227 2.93505 2.93141 2.87189 2.89091 2.88474 2.92618 2.86342 2.87257 2.88225 2.87255 2.883 2.86498 2.87531 2.88032 2.86681 2.84387 2.86775 2.83063 2.84619 2.8532 2.82441 2.8439 2.8273 2.83057 2.81153 2.82962 2.8213 2.80034 2.80801 2.78812 2.80562 2.80054 2.77903 2.78467 2.78878 2.77179 2.77521 2.77272 2.76959 2.40699 1.49759 1.30366 1.24768 1.23541 1.24611 1.26347 1.28252 1.33465 1.42559 1.48359 1.35357 1.26947 1.25062 1.24913 1.24818 1.24577 1.23726 1.23825 1.23777 1.23754 1.23671 1.2413 1.2493 1.24778 1.25311 1.25094 1.24703 1.25365 1.25366 1.24765 1.24986 1.24692 1.23967 1.24177 1.23985 1.23789 1.2537 1.25079 1.25123 1.24937 1.24185 1.2385 1.23989 1.24177 1.23244 1.24314 1.23484 1.23845 1.23479 1.23275 1.23121 1.22135 1.22824 1.22626 1.22149 1.20684 1.20445 1.19766 1.19626 1.19507 1.20463 1.21622 1.21451 1.21353 1.21008 1.20684
1.42707 1.47159 1.48142 1.45038 1.32539 1.36867 1.47809 1.49113 1.36604 1.36127 1.36323 1.32435 1.39083 1.33713 1.35722 1.36823 1.35653 1.38683 1.37362 1.43229 1.47552 1.52078 1.49404 1.54076 1.5186 1.47412 1.51494 1.48907 1.39875 1.33382 1.42228 1.33897 1.34985 1.3414 1.36729 1.58142 1.98704 1.87408 1.58163 1.74104 1.85636 1.97789 1.77474 1.78315 1.95427 1.88418 1.78423 1.67944 1.62175 1.64191 1.53977 1.57457 1.52888 1.56017 1.53956 1.57111 1.86429 1.95849 2.0487 2.03744 2.21795 2.86461 2.91453 2.88573 2.72877 2.8331 2.86534 2.8844 2.86835 2.8762 2.87785 2.87798 2.88596 2.86372 2.86104 2.86269 2.88215 2.87431 2.87784 2.83266 2.81584 2.85467 2.85387 2.81224 2.84887 2.83675 2.82516 2.84872 2.81882 2.81557 2.81198 2.81038 2.83307 2.83077 2.79264 2.79112 2.79042 2.82748 2.79823 2.78271 2.76949 2.78082 2.78916 2.74416 2.77756 2.75033 2.72832 2.72556 2.47317 1.47719 1.26368 1.25727 1.25026 1.24701 1.235 1.22384 1.22286 1.22477 1.23304 1.23923 1.23842 1.23526 1.22628 1.23408 1.22505 1.23018 1.23874 1.24263 1.23523 1.23876 1.23736 1.22729 1.23331 1.22435 1.23173 1.23791 1.24547 1.24354 1.24614 1.25156 1.24809 1.24857 1.24588 1.23605 1.22962 1.22967 1.22289 1.23162 1.23747 1.24494 1.24812 1.23776 1.23721 1.24192 1.23902 1.23161 1.23587 1.227 1.2256 1.2283 1.22374 1.22301 1.22195 1.2277 1.22596 1.22307 1.22068 1.2095 1.20674 1.1909 1.1886 1.1938 1.20591 1.21198 1.21257 1.20881
1.47966 1.49814 1.48225 1.4783 1.34662 1.31157 1.33103 1.3043 1.3324 1.31523 1.32555 1.32981 1.32275 1.35221 1.36904 1.37204 1.38966 1.40507 1.47051 1.50632 1.53299 1.57002 1.58611 1.59379 1.55367 1.48158 1.45598 1.47623 1.40098 1.57107 1.4401 1.32177 1.32098 1.33123 1.31299 1.60807 2.09111 1.99323 1.63435 1.56112 1.49943 1.64859 1.65604 1.94942 2.20474 2.23969 2.08394 1.63418 1.55063 1.55107 1.56161 1.59211 1.55623 1.52925 1.62966 1.53287 1.85055 1.96231 2.00314 2.04601 2.1979 2.77657 2.87465 2.90124 2.81914 2.65186 2.83783 2.8607 2.8607 2.87323 2.87546 2.81817 2.83316 2.83989 2.81608 2.84499 2.80433 2.82433 2.82198 2.82134 2.82416 2.81342 2.80997 2.80264 2.80788 2.8022 2.81351 2.77834 2.77573 2.77747 2.77681 2.77462 2.81409 2.79271 2.77802 2.78502 2.77904 2.77007 2.77514 2.74992 2.75488 2.7548 2.75877 2.76209 2.74894 2.75186 2.72983 2.60267 1.66965 1.27877 1.25337 1.24667 1.25017 1.23554 1.23373 1.22695 1.22772 1.21156 1.21054 1.20338 1.22499 1.21749 1.22477 1.22012 1.2195 1.2206 1.22166 1.21748 1.23698 1.21771 1.2273 1.22934 1.22357 1.21893 1.22576 1.22909 1.2235 1.22876 1.22825 1.24315 1.24512 1.24961 1.23867 1.23853 1.22953 1.21995 1.22651 1.23018 1.2287 1.24017 1.24197 1.23753 1.24121 1.22939 1.22681 1.21411 1.21341 1.19762 1.21075 1.20379 1.20373 1.20002 1.20896 1.20348 1.21363 1.21216 1.22212 1.21477 1.21311 1.20405 1.19958 1.19045 1.19182 1.18504 1.19782 1.20805
1.49574 1.47563 1.47925 1.46446 1.33786 1.31299 1.28954 1.33234 1.3335 1.33296 1.33563 1.35363 1.34135 1.36288 1.34463 1.3614 1.39705 1.50225 1.54873 1.56993 1.59449 1.58912 1.59038 1.59047 1.59133 1.61861 1.6462 1.47911 1.46684 1.40347 1.35831 1.3289 1.37505 1.33637 1.28728 1.57018 2.10191 1.97439 1.61696 1.55247 1.7305 1.92841 1.73467 1.91876 2.21908 2.04683 1.60061 1.57283 1.57708 1.57232 1.50577 1.52001 1.54063 1.64491 1.60451 1.55878 1.78547 1.94511 1.95652 2.02421 2.17335 2.79013 2.85385 2.85122 2.81928 2.67753 2.74723 2.81869 2.82394 2.81653 2.81141 2.77161 2.8174 2.75164 2.81055 2.77958 2.80846 2.79852 2.76795 2.79638 2.81155 2.80197 2.79938 2.79145 2.75171 2.75837 2.76057 2.75889 2.76304 2.76831 2.73441 2.75605 2.73322 2.76592 2.76622 2.73707 2.75931 2.733 2.73955 2.75163 2.74809 2.74067 2.74788 2.75444 2.75039 2.67852 2.665 2.05466 1.30438 1.2482 1.21371 1.21053 1.22225 1.22721 1.22132 1.21308 1.21357 1.21346 1.21302 1.21314 1.20479 1.20166 1.21857 1.21537 1.21361 1.21588 1.22565 1.21857 1.21611 1.22055 1.2267 1.22702 1.22501 1.22469 1.22002 1.22855 1.23273 1.22566 1.22316 1.22808 1.24352 1.24433 1.23681 1.24011 1.22883 1.22693 1.22698 1.22329 1.24052 1.24409 1.2572 1.23669 1.21985 1.21677 1.19936 1.19903 1.19502 1.19125 1.19719 1.18666 1.19053 1.19517 1.18951 1.18767 1.19349 1.19016 1.20186 1.1984 1.20799 1.2093 1.20157 1.20573 1.19547 1.18788 1.18188 1.18415
1.49814 1.44866 1.31152 1.3003 1.31087 1.31896 1.32131 1.33532 1.32389 1.32549 1.33389 1.32382 1.33817 1.36274 1.36575 1.36676 1.39939 1.43793 1.53595 1.58926 1.60995 1.62812 1.64403 1.64052 1.64538 1.64314 1.52864 1.46865 1.4362 1.4527 1.37968 1.41398 1.32038 1.2827 1.35029 1.66484 2.09176 1.85366 1.96481 2.16952 2.18766 2.03533 1.8979 1.81957 1.57327 1.50132 1.49488 1.50952 1.53139 1.54862 1.54377 1.53772 1.52552 1.54555 1.55393 1.62171 1.7805 1.97447 2.00809 2.08376 2.17672 2.71095 2.77792 2.81123 2.81465 2.74126 2.6654 2.78851 2.81252 2.7417 2.78351 2.76772 2.73836 2.77651 2.77436 2.7792 2.76018 2.7555 2.75489 2.75128 2.7588 2.75272 2.75425 2.75425 2.75479 2.75321 2.75453 2.76256 2.76171 2.74343 2.74189 2.72704 2.73481 2.7334 2.7234 2.70864 2.73681 2.72665 2.71616 2.72002 2.71766 2.72995 2.69808 2.69145 2.69916 2.61226 1.81723 1.33557 1.23591 1.20169 1.20469 1.19801 1.19394 1.19921 1.20913 1.2161 1.21514 1.21561 1.20379 1.20159 1.20228 1.20819 1.20299 1.2065 1.20446 1.21343 1.22119 1.21963 1.20702 1.21642 1.21477 1.20673 1.21601 1.22408 1.21912 1.21962 1.22842 1.23314 1.22663 1.22467 1.22756 1.2324 1.24605 1.23651 1.23008 1.22278 1.23081 1.23252 1.24071 1.2426 1.24388 1.2197 1.19612 1.19422 1.18301 1.18273 1.1656 1.16637 1.1668 1.15382 1.1639 1.16279 1.16302 1.16263 1.17322 1.17628 1.1724 1.18656 1.18884 1.19186 1.2016 1.202 1.20232 1.19744 1.19008 1.18053
1.34068 1.2947 1.30211 1.30163 1.29863 1.3336 1.33623 1.33169 1.31446 1.33741 1.33757 1.34538 1.34625 1.35175 1.35833 1.35958 1.43732 1.4793 1.45433 1.59908 1.6453 1.64275 1.62859 1.63854 1.54548 1.5196 1.47746 1.47538 1.46303 1.40056 1.38882 1.35505 1.46411 1.32969 1.3445 1.54404 1.82773 1.71529 1.81981 2.17625 1.87471 1.65725 1.54579 1.52564 1.50743 1.49986 1.49049 1.51442 1.51861 1.50941 1.53067 1.53157 1.52603 1.56647 1.55476 1.58791 1.78686 1.97931 2.01793 2.10335 2.16658 2.72458 2.77522 2.7734 2.77592 2.77017 2.53692 2.76052 2.74988 2.73683 2.72577 2.74287 2.73522 2.73692 2.72475 2.74342 2.73819 2.72525 2.72757 2.72454 2.7188 2.71301 2.71659 2.75225 2.7239 2.70994 2.71715 2.71664 2.71254 2.71842 2.71451 2.7253 2.72541 2.72224 2.71076 2.68656 2.71211 2.69841 2.69321 2.68914 2.70357 2.70528 2.70282 2.69472 2.60715 1.92063 1.27597 1.23819 1.21775 1.20199 1.19474 1.18659 1.18721 1.17609 1.18487 1.1983 1.20906 1.21744 1.21789 1.204 1.19564 1.19661 1.20483 1.19524 1.19554 1.2153 1.20215 1.21281 1.21935 1.21803 1.20798 1.21616 1.20925 1.20926 1.21068 1.21581 1.22694 1.22334 1.22603 1.2261 1.22871 1.22784 1.23037 1.23342 1.23215 1.22142 1.22407 1.23093 1.24341 1.22632 1.19367 1.17689 1.16182 1.16197 1.16178 1.15931 1.15511 1.15032 1.14968 1.14091 1.1452 1.1422 1.14193 1.13884 1.13737 1.13336 1.15214 1.15624 1.16738 1.16474 1.17432 1.18813 1.18933 1.1975 1.18772 1.18681
1.32409 1.3211 1.33127 1.31918 1.29933 1.32916 1.33913 1.34167 1.33702 1.32678 1.34039 1.34515 1.34351 1.34844 1.34832 1.35287 1.38581 1.48081 1.48768 1.63576 1.64531 1.62895 1.54712 1.50954 1.50738 1.48309 1.48757 1.4659 1.49841 1.39062 1.46177 1.43289 1.48104 1.38763 1.35267 1.60124 1.55401 1.69262 1.69335 1.53356 1.55393 1.52781 1.5227 1.55108 1.49928 1.50356 1.49649 1.51115 1.53364 1.53577 1.55009 1.56177 1.56061 1.54949 1.56225 1.58522 1.77096 1.98351 2.01428 2.09978 2.16015 2.6262 2.76921 2.72073 2.73231 2.7368 2.5006 2.74444 2.71466 2.72892 2.72549 2.72141 2.71962 2.70188 2.70411 2.69332 2.72374 2.67776 2.69511 2.69855 2.72613 2.70144 2.69824 2.67639 2.69935 2.68419 2.68668 2.67702 2.67174 2.68825 2.68434 2.69219 2.69408 2.69238 2.67322 2.65578 2.66839 2.68153 2.68577 2.67551 2.6596 2.66811 2.65033 2.63635 2.42473 1.42011 1.23777 1.20467 1.21098 1.1961 1.1956 1.20447 1.20187 1.18398 1.18162 1.17515 1.18125 1.20693 1.20857 1.2052 1.20473 1.18963 1.18883 1.19704 1.19676 1.19412 1.20164 1.20854 1.20785 1.21177 1.21101 1.20442 1.20824 1.20449 1.21257 1.2027 1.20378 1.22528 1.22655 1.22461 1.22868 1.22266 1.22721 1.21941 1.22817 1.22145 1.22098 1.22103 1.21707 1.19177 1.17785 1.16874 1.1613 1.16118 1.16214 1.16728 1.15661 1.15435 1.15905 1.15837 1.14871 1.14488 1.14296 1.13905 1.13289 1.12973 1.13067 1.12989 1.14854 1.15225 1.1619 1.17253 1.17542 1.1739 1.18962 1.18873
1.32732 1.33809 1.33772 1.32016 1.32638 1.302 1.28289 1.34505 1.35054 1.35102 1.34261 1.34929 1.34569 1.34727 1.3513 1.35612 1.3796 1.40954 1.54433 1.62815 1.51142 1.51282 1.51161 1.52335 1.50845 1.49119 1.5093 1.50296 1.45442 1.43648 1.48522 1.42173 1.48108 1.35458 1.51314 1.60311 1.57019 1.54807 1.57802 1.53011 1.62989 1.5298 1.55013 1.51543 1.52961 1.51708 1.50943 1.49329 1.56116 1.53216 1.56309 1.56691 1.56983 1.57738 1.68807 1.54475 1.75965 1.9862 2.01817 2.11227 2.09557 2.49316 2.74843 2.70045 2.6556 2.66122 2.51472 2.69263 2.71048 2.67468 2.66974 2.73518 2.67768 2.69528 2.67037 2.67519 2.7018 2.67228 2.67252 2.6984 2.67492 2.67028 2.6712 2.67326 2.67556 2.68076 2.67291 2.67831 2.67775 2.64611 2.64663 2.65538 2.66821 2.65558 2.65147 2.65381 2.66289 2.65538 2.64841 2.64671 2.61545 2.61365 2.65134 2.36839 1.43135 1.1963 1.1853 1.18252 1.17972 1.17867 1.1873 1.18649 1.18595 1.18715 1.1845 1.18771 1.17504 1.17438 1.18776 1.19846 1.20591 1.19109 1.18999 1.18274 1.19299 1.20319 1.19149 1.19404 1.20355 1.20312 1.20528 1.20741 1.20283 1.20431 1.20662 1.20774 1.19929 1.20901 1.21895 1.22769 1.23579 1.23063 1.23089 1.22853 1.22385 1.22143 1.21897 1.19652 1.18178 1.17386 1.16762 1.17043 1.17574 1.17476 1.17205 1.17043 1.16117 1.16594 1.1583 1.15093 1.14911 1.14725 1.1484 1.14255 1.13667 1.13601 1.1295 1.14004 1.14332 1.13803 1.14009 1.14863 1.15842 1.15886 1.17305 1.18115
1.38126 1.34614 1.34901 1.34203 1.34011 1.30995 1.31491 1.32669 1.34506 1.35461 1.3445 1.33539 1.34698 1.35078 1.35452 1.37272 1.38702 1.44193 1.50286 1.4692 1.51083 1.51305 1.52793 1.47149 1.51571 1.4618 1.49692 1.48797 1.47695 1.47527 1.53841 1.44226 1.41373 1.47774 1.53267 1.5342 1.5685 1.50138 1.57401 1.5185 1.55564 1.5332 1.59961 1.55996 1.56316 1.55848 1.49124 1.62493 1.58784 1.56347 1.55828 1.55305 1.59656 1.57109 1.58066 1.62974 1.75295 1.94018 2.0182 2.12502 2.09597 2.28924 2.62405 2.63682 2.62983 2.64251 2.61744 2.6748 2.67202 2.67213 2.67485 2.63031 2.6633 2.64283 2.65065 2.6531 2.63098 2.65727 2.68026 2.66271 2.67201 2.64873 2.67242 2.64579 2.67589 2.65034 2.63745 2.65232 2.64288 2.6473 2.63303 2.64031 2.65168 2.65323 2.63256 2.64673 2.62774 2.62052 2.62213 2.61807 2.60747 2.60006 2.26895 1.35517 1.17738 1.17377 1.1722 1.17208 1.15721 1.16972 1.1713 1.16637 1.16732 1.17265 1.17207 1.17999 1.17583 1.17606 1.16804 1.18024 1.19826 1.19222 1.18528 1.18417 1.18975 1.19297 1.19673 1.19463 1.19541 1.19733 1.20562 1.20368 1.20521 1.20699 1.20641 1.20378 1.20285 1.20738 1.20927 1.21833 1.22733 1.23484 1.23425 1.23075 1.22894 1.2102 1.19862 1.18389 1.17999 1.18204 1.1812 1.17833 1.17827 1.17702 1.17404 1.16565 1.1643 1.16289 1.15976 1.15547 1.15562 1.14901 1.14517 1.14351 1.14041 1.13228 1.13464 1.12092 1.13089 1.14322 1.14036 1.13963 1.14758 1.15841 1.16505 1.16184
1.35635 1.3528 1.34316 1.31704 1.32705 1.31924 1.32558 1.32637 1.33289 1.34461 1.35132 1.36271 1.37519 1.37735 1.38615 1.39016 1.39217 1.4132 1.46009 1.51328 1.50342 1.46211 1.51651 1.49736 1.5252 1.5056 1.49157 1.51052 1.52062 1.48354 1.47005 1.486 1.48961 1.51155 1.54415 1.55345 1.48605 1.55322 1.54566 1.5742 1.56019 1.52815 1.56474 1.54911 1.58977 1.62262 1.61327 1.56046 1.56845 1.56738 1.5686 1.60136 1.58586 1.56972 1.60799 1.58767 1.69896 1.9166 1.95416 2.06253 2.0913 2.4942 2.67352 2.66954 2.66991 2.62868 2.6363 2.62736 2.63517 2.66124 2.64712 2.63559 2.62046 2.62478 2.63909 2.63356 2.62856 2.62233 2.63616 2.6245 2.62492 2.61819 2.61111 2.617 2.61604 2.62007 2.61427 2.6182 2.61586 2.6188 2.62081 2.6198 2.62437 2.62564 2.5937 2.59724 2.61049 2.60535 2.61081 2.61326 2.54586 2.02984 1.28136 1.17579 1.17397 1.1742 1.16259 1.16572 1.15851 1.15334 1.15552 1.16651 1.16658 1.17015 1.1687 1.17281 1.17042 1.17447 1.17438 1.16811 1.17296 1.18716 1.18256 1.18058 1.17887 1.19379 1.19523 1.1873 1.1916 1.19324 1.19747 1.20369 1.20348 1.20208 1.19949 1.19687 1.20233 1.19936 1.20531 1.21036 1.21939 1.22808 1.22837 1.23293 1.22108 1.20292 1.18648 1.17891 1.18473 1.18793 1.1814 1.18366 1.18218 1.17385 1.16947 1.17382 1.16118 1.16345 1.15752 1.15914 1.1523 1.14487 1.14049 1.14164 1.13745 1.12711 1.13449 1.12768 1.12581 1.1437 1.14579 1.14371 1.15141 1.13965 1.14854 1.16384
1.36814 1.35996 1.39087 1.37408 1.35685 1.34276 1.3233 1.32406 1.34243 1.35914 1.37308 1.39368 1.41095 1.42152 1.45527 1.43951 1.43626 1.47845 1.43122 1.48949 1.4787 1.49243 1.48716 1.44635 1.49232 1.51702 1.50526 1.50225 1.50891 1.50608 1.4926 1.59408 1.60269 1.54483 1.55301 1.57126 1.55053 1.57364 1.55885 1.54051 1.56789 1.55756 1.58289 1.55038 1.59545 1.56485 1.61168 1.59117 1.55628 1.56015 1.56925 1.55639 1.5502 1.55891 1.57787 1.56306 1.68239 1.91465 1.86787 1.951 2.08746 2.39068 2.63288 2.63004 2.63717 2.61417 2.60879 2.62758 2.60024 2.62041 2.60714 2.6213 2.61591 2.62909 2.62715 2.62367 2.58461 2.61863 2.62892 2.61398 2.61262 2.60973 2.61568 2.59965 2.60758 2.59411 2.59216 2.59105 2.60116 2.61893 2.61857 2.62142 2.58746 2.5997 2.58817 2.59557 2.61092 2.55393 2.56711 2.53966 1.88948 1.22001 1.16525 1.16849 1.16726 1.1601 1.16031 1.154 1.15328 1.15313 1.15679 1.1563 1.16345 1.1629 1.17471 1.1694 1.16878 1.17167 1.16953 1.17325 1.17429 1.16679 1.18274 1.17461 1.17086 1.17235 1.20013 1.18342 1.19212 1.1856 1.19101 1.19085 1.19619 1.19451 1.20094 1.19716 1.19713 1.20025 1.20594 1.20377 1.21168 1.22501 1.2305 1.23249 1.20454 1.18036 1.18688 1.18388 1.19773 1.18608 1.18384 1.17842 1.17497 1.15985 1.15352 1.15197 1.14981 1.13295 1.13834 1.14226 1.14471 1.13339 1.14189 1.1386 1.13777 1.13606 1.13512 1.12722 1.11404 1.12346 1.138 1.14748 1.15849 1.15081 1.154 1.15438
1.44016 1.4479 1.46732 1.45339 1.3845 1.33911 1.32316 1.33273 1.34421 1.36314 1.39291 1.43804 1.47296 1.48002 1.48115 1.48867 1.45487 1.46899 1.49775 1.5051 1.44821 1.49163 1.49853 1.52414 1.51336 1.51588 1.52177 1.54478 1.55864 1.51144 1.52662 1.51249 1.5371 1.53753 1.54513 1.53566 1.55618 1.51942 1.4892 1.56004 1.56947 1.55302 1.55655 1.60662 1.61654 1.62614 1.59808 1.55386 1.55718 1.56105 1.58537 1.55053 1.53582 1.53983 1.65683 1.57508 1.68454 1.92117 2.01559 2.08329 2.10329 2.25561 2.59444 2.61223 2.60754 2.62199 2.58293 2.57097 2.5971 2.56847 2.58919 2.57169 2.5713 2.57708 2.58044 2.58732 2.54642 2.5864 2.58483 2.57876 2.58154 2.58072 2.58133 2.57774 2.54353 2.55706 2.59338 2.55785 2.59052 2.56023 2.56343 2.55471 2.57562 2.58491 2.54845 2.5526 2.56204 2.54445 2.54193 2.25238 1.23344 1.16026 1.16708 1.16114 1.16228 1.1563 1.15415 1.14784 1.15865 1.152 1.14858 1.14603 1.15054 1.16387 1.17127 1.17392 1.17006 1.17119 1.16994 1.16484 1.16853 1.1675 1.1685 1.17505 1.16836 1.17309 1.18539 1.19384 1.19348 1.18725 1.18451 1.18524 1.18593 1.18165 1.19537 1.19422 1.19333 1.19734 1.19754 1.19886 1.20535 1.21525 1.22827 1.21818 1.18476 1.18386 1.19297 1.19084 1.18982 1.18219 1.16712 1.15546 1.13555 1.13014 1.12982 1.12832 1.12536 1.12125 1.12301 1.12783 1.1292 1.13277 1.12871 1.13048 1.12913 1.13385 1.13294 1.1292 1.121 1.12161 1.12683 1.15478 1.14964 1.15239 1.15369 1.14947
1.49087 1.48537 1.51444 1.48524 1.41328 1.34557 1.33372 1.33557 1.36227 1.37986 1.42498 1.47885 1.48317 1.49135 1.49865 1.50058 1.48866 1.4834 1.49584 1.48734 1.50706 1.52508 1.53146 1.51845 1.49338 1.53523 1.52429 1.53128 1.51389 1.51878 1.53397 1.54541 1.56317 1.56592 1.58856 1.55166 1.55196 1.55163 1.56807 1.55954 1.5588 1.57226 1.58512 1.60875 1.52885 1.53983 1.53152 1.53514 1.55043 1.5417 1.56134 1.56631 1.61175 1.54386 1.62689 1.60472 1.62869 1.94502 2.04132 2.10438 2.08222 2.18482 2.55969 2.59135 2.57187 2.57419 2.57291 2.57839 2.5708 2.57144 2.56759 2.57198 2.54758 2.5575 2.51341 2.55765 2.54044 2.55967 2.55097 2.58497 2.54588 2.54238 2.54328 2.54799 2.5488 2.54927 2.52473 2.56521 2.56226 2.55215 2.53247 2.54632 2.54765 2.54566 2.53056 2.55581 2.52458 2.5423 2.38246 1.56321 1.16944 1.15997 1.15702 1.15997 1.15845 1.15751 1.15654 1.16118 1.15365 1.15173 1.15275 1.15019 1.14732 1.15476 1.16867 1.17015 1.17161 1.17421 1.16501 1.17316 1.16185 1.16642 1.1683 1.16752 1.16554 1.17115 1.17146 1.19546 1.1954 1.18625 1.18643 1.19242 1.18291 1.19175 1.19093 1.18746 1.19675 1.19497 1.20185 1.20057 1.20852 1.20688 1.20579 1.16976 1.15539 1.17381 1.17434 1.17425 1.16868 1.14534 1.13574 1.13583 1.13103 1.1245 1.1296 1.12584 1.12545 1.12502 1.13132 1.1305 1.1392 1.13154 1.12946 1.12901 1.12991 1.12713 1.12541 1.12587 1.12849 1.12412 1.12027 1.13784 1.1506 1.14625 1.15114 1.15213
1.50439 1.50816 1.53101 1.53469 1.4583 1.35475 1.35835 1.36078 1.38173 1.42409 1.46878 1.4815 1.49447 1.49874 1.50211 1.49419 1.49095 1.52573 1.48567 1.50939 1.51072 1.51768 1.54252 1.5389 1.5061 1.54115 1.49071 1.54778 1.56135 1.54619 1.54157 1.53575 1.54975 1.55681 1.55632 1.54624 1.55028 1.54646 1.56087 1.55173 1.59576 1.5915 1.60293 1.56504 1.60003 1.54212 1.50396 1.4894 1.56178 1.55304 1.5818 1.56359 1.60231 1.55521 1.65039 1.597 1.64837 1.9058 2.04345 2.08532 2.09147 2.18709 2.53691 2.53754 2.568 2.5638 2.52462 2.53629 2.54467 2.53789 2.53312 2.53662 2.53769 2.5212 2.53197 2.50796 2.52873 2.53075 2.53897 2.52128 2.52614 2.52619 2.53601 2.52942 2.54331 2.52921 2.53289 2.53059 2.53419 2.5303 2.53053 2.52775 2.52135 2.52115 2.51138 2.50604 2.49411 2.44351 2.17835 1.25018 1.16171 1.15788 1.15284 1.15699 1.15221 1.14889 1.15001 1.14902 1.15305 1.14491 1.14564 1.15404 1.14732 1.1527 1.15688 1.1628 1.16545 1.16629 1.16357 1.16526 1.16013 1.17148 1.16808 1.16906 1.16414 1.17124 1.17126 1.17301 1.1885 1.18872 1.18598 1.18409 1.18452 1.19074 1.18643 1.18531 1.19055 1.20098 1.19568 1.19384 1.1995 1.18688 1.15922 1.12322 1.1037 1.10753 1.11419 1.11276 1.12563 1.12411 1.13486 1.13468 1.12761 1.12593 1.12394 1.12332 1.11643 1.12197 1.12293 1.12327 1.12412 1.1283 1.12455 1.13394 1.13065 1.12453 1.12173 1.12638 1.12403 1.11194 1.11503 1.12659 1.14629 1.15102 1.15484 1.1583
1.51597 1.53424 1.55469 1.56993 1.51606 1.40805 1.39239 1.4043 1.45284 1.48119 1.4817 1.48438 1.49875 1.50021 1.50357 1.50265 1.48925 1.49241 1.51475 1.49573 1.52088 1.52329 1.53961 1.54223 1.52709 1.53874 1.51972 1.54305 1.51325 1.52732 1.54828 1.56724 1.5706 1.57912 1.55434 1.55553 1.56914 1.56097 1.56465 1.60203 1.60422 1.57664 1.58572 1.57083 1.48895 1.52974 1.54831 1.5115 1.57722 1.58344 1.5679 1.56817 1.55164 1.57154 1.60969 1.58274 1.6197 1.88916 2.04642 2.07415 2.0868 2.14908 2.49953 2.54187 2.53178 2.52933 2.52091 2.52844 2.50004 2.5048 2.53652 2.5118 2.50039 2.50229 2.50296 2.51517 2.5098 2.50498 2.52866 2.53029 2.52563 2.5227 2.50485 2.50748 2.53269 2.51321 2.52583 2.50656 2.52266 2.50478 2.50531 2.52247 2.50297 2.49741 2.50609 2.49152 2.49059 2.38075 1.43218 1.15447 1.15453 1.16199 1.14893 1.151 1.14919 1.14974 1.14848 1.14393 1.14649 1.14517 1.15182 1.15134 1.1464 1.14736 1.14592 1.15955 1.16368 1.1731 1.16418 1.16881 1.16841 1.16356 1.16752 1.18117 1.16712 1.16747 1.16515 1.16398 1.16953 1.18764 1.18725 1.18508 1.18668 1.18357 1.19182 1.18603 1.18779 1.18835 1.18656 1.16818 1.15851 1.14332 1.12553 1.1144 1.10412 1.09528 1.09938 1.10286 1.09653 1.09563 1.10014 1.1169 1.11586 1.11335 1.11794 1.11592 1.11444 1.11405 1.11674 1.11315 1.12588 1.12051 1.12634 1.12425 1.13024 1.1272 1.12803 1.12212 1.12118 1.12074 1.11498 1.12134 1.13724 1.14972 1.16672 1.15952
1.54201 1.56362 1.57042 1.49795 1.4394 1.462 1.46109 1.45565 1.48238 1.48517 1.496 1.49337 1.49009 1.49601 1.49821 1.4719 1.53521 1.50845 1.49797 1.51406 1.5185 1.53399 1.53151 1.53125 1.55123 1.55232 1.54962 1.55491 1.54951 1.55615 1.53392 1.55459 1.55822 1.55746 1.55811 1.55552 1.56594 1.56762 1.59894 1.58397 1.61469 1.61246 1.60639 1.59647 1.48935 1.57351 1.53498 1.52246 1.56389 1.57597 1.56686 1.54859 1.57059 1.61467 1.56475 1.59997 1.58384 1.88839 2.03191 2.06231 2.08324 2.13966 2.48777 2.52925 2.50699 2.51549 2.48806 2.51873 2.49207 2.50098 2.50124 2.50145 2.50161 2.49905 2.50595 2.50419 2.50744 2.50023 2.46379 2.48923 2.47741 2.46792 2.49472 2.49557 2.48833 2.47597 2.49516 2.50059 2.47142 2.49047 2.50054 2.46706 2.48002 2.47446 2.49448 2.44564 2.36968 1.73065 1.18705 1.15498 1.15058 1.14972 1.1545 1.15033 1.14644 1.14788 1.14454 1.14742 1.14761 1.14777 1.14672 1.14624 1.14664 1.14789 1.14824 1.15122 1.1604 1.1648 1.16475 1.16674 1.16545 1.16326 1.16959 1.16911 1.18333 1.1672 1.15841 1.15755 1.16898 1.18008 1.18087 1.18837 1.18618 1.1819 1.19222 1.18934 1.17887 1.16751 1.12588 1.10726 1.10637 1.11153 1.10883 1.1061 1.09844 1.08873 1.08969 1.0883 1.09263 1.09089 1.08939 1.08873 1.08402 1.08243 1.10276 1.11075 1.11042 1.11346 1.11248 1.12022 1.1197 1.12844 1.11543 1.12545 1.12501 1.122 1.1304 1.12003 1.11577 1.11453 1.11683 1.12404 1.13805 1.14644 1.1495 1.16015
1.55356 1.50228 1.42758 1.40781 1.4428 1.45352 1.45783 1.46875 1.47797 1.48771 1.48763 1.49252 1.49062 1.47431 1.45505 1.51975 1.49359 1.4837 1.50832 1.50398 1.52318 1.53554 1.52905 1.54649 1.55247 1.56071 1.56232 1.5564 1.55559 1.54637 1.59018 1.55979 1.55762 1.55743 1.55285 1.56794 1.57024 1.59897 1.61578 1.60692 1.62048 1.56567 1.55836 1.54516 1.65166 1.6103 1.47964 1.59417 1.52492 1.55374 1.55019 1.56633 1.52117 1.52987 1.56452 1.54544 1.58421 1.84175 2.03418 2.06816 2.06541 2.15179 2.48571 2.49638 2.49454 2.49028 2.46222 2.48755 2.49324 2.46856 2.46375 2.46721 2.46587 2.46567 2.4693 2.46425 2.45259 2.44834 2.46639 2.47009 2.46868 2.47259 2.46245 2.46419 2.45783 2.47171 2.46675 2.48442 2.45731 2.45789 2.4611 2.46368 2.46055 2.44843 2.40407 2.22225 1.74266 1.18956 1.14973 1.1507 1.14927 1.14842 1.14665 1.14219 1.14663 1.15045 1.14146 1.14435 1.14632 1.14708 1.14484 1.14556 1.14536 1.14811 1.14727 1.14671 1.15086 1.16031 1.15967 1.15812 1.1663 1.16233 1.17104 1.16821 1.16948 1.16866 1.16664 1.16577 1.17017 1.17012 1.18208 1.18754 1.18388 1.19015 1.18702 1.18124 1.1553 1.13084 1.10989 1.10408 1.08867 1.08951 1.08568 1.08733 1.08663 1.08879 1.08773 1.08607 1.08408 1.08437 1.08634 1.08426 1.08328 1.08085 1.08209 1.09326 1.10123 1.11112 1.10817 1.11538 1.12026 1.11575 1.11657 1.11874 1.12507 1.12431 1.12462 1.126 1.12174 1.12077 1.11449 1.12422 1.1402 1.13484 1.1506 1.16073
1.44186 1.44319 1.44884 1.46133 1.44754 1.45438 1.47117 1.4835 1.48186 1.49607 1.49487 1.53005 1.46525 1.4694 1.46588 1.46737 1.53051 1.50902 1.48485 1.53364 1.51756 1.53933 1.57711 1.56086 1.57115 1.52918 1.57844 1.5564 1.55846 1.55442 1.55725 1.57334 1.60158 1.5533 1.57743 1.49347 1.54658 1.59569 1.59996 1.60741 1.60432 1.6196 1.6293 1.58069 1.63368 1.6254 1.53221 1.61162 1.55201 1.54614 1.53933 1.51834 1.50996 1.54463 1.50607 1.54692 1.55881 1.83462 2.00532 2.07663 2.07862 2.17754 2.47172 2.44944 2.47756 2.46407 2.46182 2.45803 2.4539 2.44911 2.45589 2.44774 2.45919 2.45959 2.46053 2.43669 2.47003 2.44669 2.46773 2.44817 2.45242 2.43873 2.44469 2.44553 2.44842 2.45066 2.45018 2.44786 2.46639 2.45085 2.42811 2.43069 2.34697 2.03671 1.65007 1.42043 1.20932 1.15187 1.14988 1.15205 1.14406 1.14381 1.14711 1.14145 1.14232 1.14526 1.14132 1.13826 1.1456 1.14547 1.14621 1.14395 1.14851 1.14681 1.14212 1.14601 1.14809 1.14541 1.16581 1.16574 1.15736 1.16345 1.16212 1.16432 1.16117 1.17628 1.16071 1.16692 1.16838 1.17069 1.16593 1.18697 1.18742 1.18755 1.17828 1.15408 1.1299 1.10311 1.10171 1.08368 1.07643 1.07032 1.06942 1.07864 1.08201 1.07984 1.08488 1.08293 1.0824 1.08472 1.08785 1.08778 1.08452 1.08352 1.0842 1.08769 1.0823 1.09936 1.10978 1.11219 1.11596 1.11373 1.12078 1.1193 1.12059 1.12659 1.12719 1.12774 1.11903 1.12421 1.11543 1.12547 1.14149 1.13502 1.1467 1.1555
1.46168 1.43885 1.43731 1.45004 1.44974 1.4624 1.4603 1.4687 1.48543 1.49545 1.50263 1.51791 1.44173 1.54222 1.475 1.44961 1.50115 1.48213 1.53406 1.52174 1.53043 1.53051 1.60207 1.62306 1.59327 1.58805 1.60347 1.56818 1.59909 1.56995 1.58146 1.5721 1.57369 1.57988 1.56657 1.56656 1.61456 1.53347 1.60683 1.57573 1.54043 1.61008 1.55124 1.62622 1.57806 1.47221 1.61893 1.5214 1.60473 1.54408 1.54434 1.52627 1.54268 1.60222 1.53882 1.56404 1.53806 1.65388 2.00065 2.06283 2.12473 2.17715 2.45171 2.45166 2.44355 2.45203 2.43608 2.43942 2.42931 2.4391 2.43932 2.43145 2.43397 2.43524 2.43946 2.44184 2.44119 2.43364 2.43082 2.42287 2.42921 2.42028 2.41848 2.4217 2.42459 2.41728 2.44756 2.41506 2.4121 2.41597 2.27788 1.89898 1.54219 1.38107 1.35734 1.25117 1.16829 1.14931 1.14553 1.14472 1.13763 1.14185 1.14456 1.13889 1.13619 1.13824 1.14325 1.13631 1.14276 1.14293 1.1413 1.14113 1.1457 1.14607 1.14495 1.14172 1.14737 1.14499 1.14466 1.16593 1.15873 1.15271 1.1641 1.16187 1.16552 1.16855 1.16948 1.16774 1.17363 1.1783 1.17588 1.17432 1.17097 1.15705 1.1188 1.08206 1.08542 1.07998 1.08007 1.07837 1.07316 1.06415 1.06965 1.06815 1.06662 1.06853 1.07909 1.08178 1.07896 1.07293 1.0853 1.08726 1.08688 1.09018 1.08256 1.08665 1.07869 1.08183 1.098 1.11378 1.11218 1.11139 1.11084 1.12038 1.12028 1.12125 1.12805 1.12973 1.12269 1.12093 1.12244 1.12029 1.13664 1.136 1.1331 1.15682
1.46311 1.44683 1.46487 1.47656 1.47075 1.48261 1.47357 1.48896 1.49148 1.5015 1.52158 1.51243 1.53022 1.44133 1.55193 1.55779 1.56786 1.54521 1.55089 1.5494 1.55669 1.55566 1.60869 1.58066 1.6128 1.61938 1.60835 1.61252 1.55658 1.57621 1.5776 1.57546 1.57675 1.57625 1.58589 1.49883 1.58935 1.51603 1.55467 1.5609 1.56271 1.56507 1.57091 1.61575 1.57252 1.50154 1.58721 1.55993 1.60829 1.54405 1.59181 1.55721 1.55267 1.57885 1.52809 1.56044 1.54805 1.61507 1.93423 2.0905 2.12663 2.12473 2.39444 2.45176 2.43262 2.44944 2.43198 2.42756 2.42697 2.42842 2.43639 2.41061 2.40357 2.4102 2.40874 2.40962 2.40777 2.40737 2.40513 2.40106 2.41756 2.39876 2.41817 2.40406 2.41292 2.39962 2.41169 2.38664 2.24254 1.81553 1.48687 1.37318 1.35875 1.35894 1.29843 1.19217 1.14749 1.14283 1.14623 1.14273 1.14608 1.13598 1.13988 1.13989 1.13689 1.14013 1.14037 1.1394 1.14049 1.14335 1.1429 1.14274 1.13987 1.14055 1.14329 1.14007 1.1481 1.14661 1.14391 1.14446 1.15268 1.16116 1.16665 1.17004 1.17014 1.16609 1.17175 1.17001 1.17473 1.17676 1.17435 1.1331 1.10276 1.09593 1.09261 1.0834 1.08326 1.08016 1.07792 1.07944 1.06986 1.0757 1.07103 1.06546 1.06394 1.06702 1.06689 1.078 1.07316 1.07868 1.07494 1.08958 1.0938 1.09367 1.09206 1.08757 1.08475 1.08105 1.07988 1.09715 1.11262 1.11495 1.1178 1.11607 1.11937 1.12036 1.1283 1.13197 1.12745 1.1268 1.12332 1.1234 1.13867 1.14026 1.13432 1.15038
1.45515 1.47049 1.46234 1.45851 1.52367 1.47584 1.56402 1.49358 1.50168 1.50498 1.50626 1.51056 1.52665 1.53906 1.54692 1.56013 1.52333 1.51593 1.54064 1.53483 1.56268 1.604 1.56225 1.62052 1.6352 1.61042 1.59733 1.59137 1.62004 1.61196 1.56875 1.61417 1.58442 1.58275 1.56707 1.60668 1.65858 1.54144 1.56727 1.55332 1.59876 1.56156 1.59263 1.56997 1.58691 1.58943 1.58161 1.57344 1.52895 1.57319 1.54894 1.58876 1.57093 1.56546 1.54811 1.51085 1.53697 1.63132 1.94276 2.07421 2.12551 2.11528 2.34714 2.39882 2.41656 2.39882 2.42483 2.39566 2.39326 2.39619 2.38355 2.38579 2.40143 2.38746 2.4066 2.41166 2.3841 2.38279 2.40387 2.39949 2.39537 2.38522 2.38819 2.39561 2.36827 2.36812 2.17341 1.72846 1.45525 1.35977 1.35944 1.35908 1.3593 1.3194 1.19332 1.1519 1.13739 1.13722 1.14331 1.14101 1.13689 1.14113 1.14026 1.14056 1.13995 1.14111 1.13926 1.13978 1.14356 1.14195 1.14359 1.147 1.13997 1.14035 1.14102 1.13839 1.14257 1.14524 1.14017 1.14517 1.15459 1.15478 1.16443 1.16694 1.17031 1.17157 1.17754 1.1693 1.16164 1.13598 1.10504 1.1112 1.1035 1.08668 1.08865 1.07944 1.08224 1.0809 1.0734 1.07231 1.07032 1.06947 1.068 1.06739 1.065 1.06113 1.07028 1.06665 1.06529 1.07258 1.07778 1.07315 1.08891 1.09512 1.09725 1.10048 1.09251 1.08567 1.07852 1.08273 1.08972 1.10771 1.11285 1.11199 1.12293 1.12562 1.12009 1.12631 1.12434 1.12316 1.1208 1.12258 1.13955 1.14975 1.14297 1.14168
1.46224 1.52369 1.50042 1.49414 1.51109 1.5027 1.47857 1.492 1.51158 1.50899 1.51644 1.51511 1.52923 1.51675 1.55091 1.56582 1.55428 1.5563 1.56797 1.5539 1.55832 1.57903 1.57593 1.5788 1.60694 1.589 1.55277 1.57968 1.604 1.58082 1.57522 1.57131 1.5877 1.51936 1.54962 1.5131 1.64992 1.54581 1.54942 1.59958 1.56124 1.58031 1.56236 1.58874 1.54274 1.55611 1.58922 1.51821 1.55865 1.56868 1.56745 1.55199 1.5575 1.55468 1.51388 1.58245 1.51129 1.55819 1.91085 2.05992 2.10739 2.09982 2.35061 2.3934 2.39416 2.38414 2.39316 2.37469 2.37198 2.39221 2.3939 2.38299 2.38429 2.38345 2.38377 2.38314 2.38188 2.38326 2.37562 2.37632 2.36141 2.38268 2.3617 2.31013 2.15818 1.70998 1.40726 1.34291 1.34592 1.34771 1.34797 1.33863 1.29842 1.18004 1.15208 1.13788 1.13563 1.13547 1.13887 1.13956 1.14232 1.14087 1.13642 1.14121 1.13552 1.13339 1.13872 1.14252 1.14064 1.13992 1.13501 1.1426 1.13974 1.13923 1.13544 1.1343 1.14206 1.14236 1.14115 1.14824 1.15381 1.16023 1.16604 1.16677 1.16808 1.16698 1.17415 1.14995 1.10215 1.10337 1.09571 1.09482 1.08919 1.08561 1.07495 1.07955 1.07327 1.07136 1.06943 1.06922 1.06841 1.06348 1.06699 1.06754 1.06574 1.06856 1.06263 1.06162 1.06607 1.06469 1.07166 1.0803 1.07621 1.08935 1.0961 1.09419 1.09997 1.0954 1.09423 1.08789 1.09007 1.09361 1.11013 1.1223 1.11885 1.12719 1.11745 1.11949 1.12707 1.12841 1.12523 1.12367 1.13317 1.15367 1.14496 1.14754
1.52912 1.50098 1.50862 1.49012 1.48314 1.48775 1.51131 1.50577 1.51444 1.52279 1.51702 1.51257 1.52301 1.52294 1.53387 1.55415 1.56021 1.56821 1.54249 1.57239 1.53644 1.56372 1.5939 1.58786 1.60163 1.60442 1.59907 1.60349 1.60005 1.59191 1.60431 1.57048 1.61539 1.60528 1.6482 1.52472 1.55644 1.60574 1.54673 1.589 1.56118 1.5735 1.56552 1.56602 1.49521 1.58459 1.49621 1.5275 1.53695 1.54371 1.57205 1.56428 1.54786 1.56015 1.54335 1.56211 1.60701 1.53631 1.83751 2.0896 2.09217 2.1221 2.31679 2.37181 2.37554 2.37326 2.3578 2.37065 2.38018 2.36666 2.35369 2.35292 2.35451 2.35276 2.35337 2.35453 2.35564 2.35732 2.35686 2.34947 2.33843 2.30609 2.15413 1.68503 1.40644 1.33309 1.33345 1.34308 1.338 1.33889 1.31068 1.21232 1.1559 1.15521 1.14132 1.13699 1.13325 1.13428 1.1329 1.13389 1.13306 1.12833 1.13345 1.13525 1.13644 1.13641 1.13576 1.13688 1.14037 1.13548 1.13415 1.13429 1.14366 1.1354 1.13548 1.13822 1.13467 1.13736 1.14181 1.1486 1.14854 1.15587 1.16079 1.16183 1.16611 1.16828 1.14497 1.11487 1.10518 1.10256 1.10139 1.09048 1.08368 1.07627 1.08062 1.07905 1.07218 1.07145 1.06366 1.06581 1.06852 1.06476 1.06827 1.06971 1.06791 1.07248 1.07904 1.07743 1.07087 1.07007 1.06462 1.07098 1.08219 1.08239 1.08572 1.09846 1.09938 1.10426 1.10623 1.10045 1.09351 1.09166 1.09346 1.10427 1.12121 1.1214 1.12829 1.12217 1.12893 1.12972 1.12738 1.12862 1.13036 1.14646 1.1519 1.14039
1.50283 1.49891 1.52123 1.5091 1.50909 1.50956 1.508 1.49038 1.51389 1.49353 1.57478 1.53285 1.52012 1.52457 1.52158 1.56744 1.55841 1.57211 1.56149 1.59373 1.56063 1.56901 1.58627 1.60065 1.59367 1.58142 1.59568 1.58011 1.55807 1.60327 1.62499 1.60248 1.58832 1.61462 1.6383 1.56525 1.52273 1.57789 1.54488 1.54609 1.52935 1.5637 1.54098 1.53232 1.53069 1.51279 1.52759 1.52436 1.55007 1.54057 1.55826 1.55817 1.56308 1.53651 1.55976 1.58984 1.48228 1.55809 1.83721 2.05139 2.10101 2.10354 2.25901 2.36327 2.36251 2.34857 2.37132 2.35101 2.35157 2.35417 2.34687 2.35388 2.33152 2.34443 2.35191 2.35247 2.32453 2.328 2.32813 2.29254 2.16217 1.68719 1.40638 1.32554 1.33345 1.33263 1.33119 1.33423 1.32434 1.29944 1.18451 1.16707 1.1565 1.14561 1.14521 1.13638 1.13594 1.12977 1.13349 1.13508 1.13245 1.1349 1.12745 1.13405 1.12865 1.13611 1.13666 1.133 1.13321 1.13369 1.13356 1.1346 1.13263 1.13632 1.1349 1.13675 1.13202 1.1368 1.13857 1.14716 1.1578 1.15355 1.16828 1.15478 1.16115 1.13902 1.12046 1.10486 1.10404 1.10261 1.09318 1.08816 1.08815 1.08339 1.06861 1.06265 1.07547 1.07328 1.06607 1.06442 1.06333 1.06572 1.06516 1.07186 1.06656 1.06678 1.07453 1.0738 1.07217 1.07457 1.0668 1.06855 1.08238 1.08489 1.08075 1.09352 1.10823 1.09765 1.10536 1.10672 1.0955 1.09223 1.09632 1.09864 1.10742 1.11951 1.11825 1.12257 1.13216 1.1338 1.13035 1.12434 1.13585 1.15698 1.15355 1.15505
1.52091 1.50315 1.5005 1.49413 1.5016 1.50511 1.51779 1.53746 1.47646 1.50725 1.52623 1.52938 1.52992 1.57041 1.55242 1.57445 1.56996 1.56711 1.59337 1.55919 1.56617 1.58145 1.58981 1.58949 1.60152 1.60024 1.59109 1.5865 1.56559 1.58381 1.54443 1.57188 1.62152 1.56906 1.5629 1.51953 1.61483 1.55961 1.55237 1.53273 1.54623 1.54354 1.5626 1.54333 1.48447 1.54416 1.52442 1.5268 1.54779 1.53798 1.54501 1.53274 1.5317 1.56151 1.52387 1.56375 1.5736 1.56081 1.75676 2.03661 2.08536 2.09445 2.20377 2.33525 2.33537 2.33844 2.33848 2.34565 2.32615 2.34312 2.32502 2.32783 2.32312 2.32525 2.32554 2.32609 2.29661 2.29168 2.16222 1.69339 1.41791 1.31937 1.31772 1.32475 1.32576 1.31773 1.31749 1.31753 1.29082 1.19955 1.165 1.14214 1.14507 1.14228 1.14368 1.14535 1.1425 1.14174 1.13705 1.13055 1.13422 1.13457 1.12831 1.12863 1.12862 1.1268 1.12975 1.12908 1.13199 1.13218 1.12368 1.1304 1.12695 1.13093 1.12893 1.12959 1.1338 1.13531 1.15049 1.14748 1.15039 1.15745 1.16387 1.16344 1.133 1.12156 1.10181 1.10546 1.10376 1.09523 1.08995 1.08494 1.07902 1.08312 1.07687 1.06237 1.05404 1.06715 1.06552 1.07062 1.07041 1.06227 1.0623 1.07398 1.06956 1.07036 1.07521 1.0742 1.07809 1.07614 1.07416 1.06695 1.07849 1.08621 1.08726 1.09372 1.10127 1.10618 1.10703 1.1084 1.10545 1.09448 1.09773 1.0995 1.09895 1.10202 1.10758 1.11307 1.12664 1.12747 1.13328 1.12588 1.13323 1.16109 1.15405 1.1503
1.52625 1.49931 1.5297 1.52114 1.50409 1.51318 1.52083 1.48321 1.4814 1.51446 1.549 1.58444 1.5397 1.57086 1.50617 1.56403 1.58863 1.57492 1.59834 1.55121 1.62741 1.62293 1.61866 1.58057 1.5845 1.58 1.56443 1.52817 1.59429 1.54276 1.61013 1.56072 1.57215 1.55405 1.53996 1.52375 1.54439 1.53716 1.57393 1.55135 1.5434 1.58398 1.53559 1.51185 1.52287 1.5129 1.54132 1.53217 1.53688 1.52142 1.53111 1.53246 1.58339 1.54163 1.49799 1.52152 1.49295 1.48099 1.75632 2.0337 2.09173 2.04977 2.20455 2.33463 2.32727 2.31329 2.31989 2.31868 2.31862 2.32241 2.31567 2.31998 2.30566 2.29819 2.29397 2.29361 2.14679 1.72016 1.3942 1.32598 1.31387 1.31734 1.31929 1.31131 1.30991 1.30429 1.29353 1.22086 1.1656 1.14997 1.14063 1.14058 1.13601 1.14013 1.13822 1.13809 1.14035 1.13868 1.13549 1.13979 1.14076 1.13602 1.13665 1.13337 1.12887 1.12225 1.12191 1.12514 1.12476 1.12615 1.13141 1.13246 1.13288 1.12582 1.13128 1.13254 1.13318 1.14066 1.15198 1.15135 1.15873 1.15954 1.16181 1.14027 1.12319 1.10434 1.10328 1.10368 1.09753 1.08575 1.0784 1.07222 1.07193 1.07102 1.07805 1.06531 1.05462 1.0554 1.05585 1.06536 1.06516 1.05498 1.05619 1.06263 1.0702 1.06634 1.06946 1.08126 1.07789 1.07334 1.07774 1.07371 1.06706 1.08405 1.08712 1.09245 1.09801 1.11327 1.10752 1.10576 1.11282 1.11068 1.10338 1.1043 1.10914 1.10797 1.10958 1.11536 1.11741 1.12839 1.12974 1.12851 1.13755 1.16071 1.15979 1.15327
1.54263 1.54538 1.50076 1.51999 1.54202 1.51702 1.57068 1.55588 1.56348 1.55749 1.57657 1.5829 1.56591 1.60822 1.58652 1.57837 1.58271 1.57898 1.55426 1.60433 1.54523 1.591 1.57082 1.61722 1.60587 1.57416 1.58668 1.57711 1.57968 1.5729 1.58586 1.56905 1.55508 1.5691 1.53891 1.54201 1.53393 1.59479 1.5802 1.6032 1.55907 1.54369 1.59728 1.53696 1.48655 1.54899 1.56354 1.54017 1.528 1.53505 1.52842 1.5078 1.51297 1.51573 1.51996 1.54769 1.52238 1.54232 1.73526 1.96061 1.97743 2.05637 2.11681 2.29987 2.29458 2.29673 2.30452 2.30629 2.32061 2.29353 2.29996 2.29827 2.28693 2.26384 2.21009 1.83626 1.4289 1.30875 1.3117 1.31251 1.3046 1.31258 1.30552 1.30384 1.28831 1.20873 1.15527 1.14297 1.13998 1.13336 1.13093 1.13509 1.13562 1.13493 1.14054 1.14041 1.13666 1.1395 1.13992 1.13881 1.13949 1.14164 1.14168 1.14199 1.14169 1.13926 1.13472 1.13436 1.13337 1.12518 1.11727 1.12491 1.11846 1.12635 1.12644 1.12532 1.1403 1.14032 1.14717 1.1537 1.15305 1.15893 1.14959 1.12359 1.10087 1.10192 1.09997 1.10067 1.09098 1.0863 1.07718 1.06774 1.06539 1.06567 1.06446 1.06351 1.05518 1.05949 1.05377 1.05332 1.05695 1.062 1.05795 1.05329 1.06993 1.07338 1.07125 1.07549 1.08173 1.07776 1.07811 1.07582 1.06598 1.07953 1.08926 1.09201 1.09327 1.10798 1.11229 1.11053 1.10759 1.1126 1.10701 1.10424 1.10569 1.11276 1.11805 1.12186 1.13124 1.12647 1.13738 1.14763 1.16588 1.16642 1.16022 1.15954
1.51075 1.54564 1.54663 1.56261 1.58473 1.54128 1.51217 1.54647 1.57942 1.56242 1.575 1.55636 1.55974 1.5736 1.58687 1.59898 1.57388 1.57356 1.55395 1.6144 1.56215 1.61518 1.57393 1.5854 1.57861 1.61957 1.6156 1.57264 1.59381 1.59926 1.58951 1.58144 1.56161 1.57447 1.55333 1.56671 1.57214 1.57961 1.54528 1.57355 1.5706 1.54195 1.53151 1.49826 1.48474 1.52383 1.55022 1.5277 1.5336 1.52819 1.49155 1.52646 1.49862 1.50882 1.50113 1.49548 1.51246 1.51003 1.61742 1.93515 1.79808 2.01211 2.11863 2.29643 2.29622 2.2804 2.29148 2.28935 2.27248 2.27805 2.28089 2.28128 2.2297 2.01742 1.51035 1.32745 1.29679 1.31238 1.3042 1.30411 1.30461 1.30388 1.28838 1.22204 1.15595 1.14429 1.13261 1.13385 1.12694 1.12513 1.13142 1.12716 1.1313 1.13663 1.13683 1.13279 1.13084 1.1379 1.14012 1.13991 1.13969 1.13704 1.13738 1.1419 1.1431 1.14487 1.14423 1.14386 1.15127 1.15236 1.13664 1.12452 1.11897 1.11938 1.12157 1.12284 1.13485 1.14891 1.14861 1.14888 1.14704 1.1565 1.13168 1.1021 1.10079 1.10601 1.09931 1.1015 1.0832 1.07764 1.06881 1.06382 1.05674 1.06088 1.06144 1.06405 1.0563 1.05915 1.06431 1.0568 1.05838 1.05641 1.06408 1.0559 1.06175 1.07426 1.06922 1.0729 1.08468 1.08391 1.07845 1.08313 1.08225 1.07296 1.08502 1.09269 1.09309 1.10208 1.11904 1.11728 1.11634 1.12107 1.11148 1.10956 1.10505 1.11185 1.11971 1.14219 1.15381 1.16139 1.16579 1.17236 1.17521 1.16681 1.1609 1.15606
1.56562 1.55559 1.5184 1.53766 1.62833 1.53244 1.55752 1.55221 1.5722 1.57692 1.57337 1.56804 1.57115 1.56936 1.58861 1.57699 1.57872 1.59245 1.576 1.58158 1.55775 1.55311 1.57498 1.6122 1.58051 1.59191 1.59951 1.58062 1.57764 1.58773 1.68126 1.5941 1.59298 1.57161 1.6041 1.57145 1.57748 1.58582 1.54558 1.55148 1.56412 1.55462 1.55275 1.50086 1.54325 1.51045 1.52202 1.54128 1.53591 1.59614 1.51552 1.50793 1.50357 1.51169 1.50906 1.51712 1.51324 1.50961 1.59049 1.96998 1.98294 2.11882 2.17967 2.28994 2.26726 2.26639 2.26249 2.26034 2.25335 2.2403 2.22902 2.15882 1.66049 1.36017 1.29709 1.29649 1.29858 1.29794 1.29968 1.3029 1.29707 1.27708 1.18633 1.14431 1.12393 1.12611 1.12405 1.1307 1.13222 1.12559 1.12556 1.12792 1.12786 1.12777 1.13339 1.13326 1.13342 1.13446 1.13638 1.13768 1.13836 1.13812 1.14327 1.14178 1.14689 1.14476 1.14411 1.14345 1.15386 1.14956 1.15362 1.15647 1.14851 1.13484 1.12236 1.12243 1.13475 1.1554 1.14882 1.1485 1.15561 1.13377 1.0997 1.1017 1.09831 1.10175 1.09951 1.08567 1.08043 1.07132 1.0613 1.05928 1.05428 1.05399 1.0584 1.0622 1.05121 1.05583 1.06866 1.05821 1.05685 1.05342 1.05729 1.05586 1.06259 1.07688 1.07417 1.0729 1.07625 1.0848 1.08254 1.08229 1.08374 1.07416 1.08162 1.08959 1.09433 1.09097 1.12003 1.11885 1.11648 1.12208 1.12049 1.11116 1.11689 1.12851 1.15932 1.16704 1.17215 1.18028 1.1855 1.17633 1.16827 1.16213 1.16265 1.15865
1.55222 1.51178 1.56512 1.54729 1.52342 1.55975 1.52327 1.52153 1.66266 1.56593 1.55752 1.57515 1.56602 1.64944 1.57002 1.5778 1.55575 1.58005 1.57735 1.57285 1.58414 1.55181 1.5653 1.56344 1.58325 1.58217 1.58946 1.58596 1.58705 1.5846 1.5675 1.58101 1.58485 1.57341 1.55838 1.57382 1.58513 1.56641 1.55498 1.56914 1.54757 1.54365 1.49298 1.52148 1.54673 1.42677 1.52904 1.51893 1.48888 1.52355 1.50588 1.51405 1.5079 1.48234 1.47312 1.48923 1.50055 1.49631 1.52582 1.94501 2.00464 2.04901 2.07872 2.24475 2.26459 2.25592 2.26581 2.23965 2.22693 2.16071 1.84868 1.44716 1.29728 1.29703 1.29765 1.29104 1.28921 1.29729 1.29873 1.27907 1.2344 1.14513 1.1293 1.11856 1.12256 1.12625 1.12359 1.11548 1.1176 1.12212 1.1242 1.12385 1.12589 1.12159 1.12149 1.1295 1.13116 1.12648 1.13142 1.14025 1.13671 1.13858 1.13892 1.14345 1.14284 1.14492 1.14668 1.14632 1.15134 1.15273 1.1547 1.15875 1.16307 1.16917 1.139 1.12799 1.13134 1.15171 1.15081 1.15198 1.14327 1.10501 1.0951 1.09979 1.10087 1.09568 1.08839 1.08198 1.07942 1.06733 1.05584 1.05115 1.05297 1.04943 1.05386 1.05145 1.05789 1.05013 1.07241 1.05517 1.06236 1.05833 1.05458 1.06107 1.06224 1.07655 1.07122 1.07403 1.08177 1.08217 1.08516 1.07736 1.0826 1.08315 1.07355 1.09425 1.09526 1.09909 1.10633 1.12757 1.12347 1.12307 1.12148 1.11615 1.1179 1.1554 1.18365 1.18568 1.18738 1.18704 1.17678 1.18028 1.17025 1.16915 1.16353 1.15703
1.56098 1.52803 1.54345 1.5289 1.53693 1.53451 1.60552 1.57063 1.56436 1.57981 1.57169 1.5683 1.57907 1.56099 1.57795 1.58459 1.60954 1.58424 1.59045 1.60209 1.56235 1.55914 1.54052 1.55251 1.57348 1.57673 1.58925 1.61223 1.59877 1.57881 1.57336 1.57986 1.56347 1.57311 1.58449 1.58732 1.56952 1.52456 1.57202 1.56584 1.53273 1.47115 1.55794 1.54653 1.52945 1.51763 1.51734 1.49028 1.48842 1.50645 1.51018 1.50883 1.50177 1.5418 1.46487 1.47709 1.49348 1.5012 1.51427 1.93104 2.02932 2.0276 2.02195 2.21624 2.24598 2.23249 2.21445 2.16272 1.84926 1.43578 1.30337 1.28843 1.2897 1.28704 1.28435 1.29819 1.28643 1.28638 1.26674 1.16121 1.13246 1.12568 1.11646 1.11596 1.11454 1.11853 1.1225 1.11982 1.11561 1.11861 1.11859 1.12005 1.12451 1.1199 1.12552 1.12751 1.12767 1.12932 1.13064 1.13616 1.13564 1.14082 1.14056 1.13967 1.14027 1.14326 1.14803 1.14737 1.15629 1.15378 1.15846 1.16041 1.16354 1.16754 1.16313 1.14701 1.13658 1.15277 1.15217 1.14468 1.10848 1.10665 1.09733 1.09844 1.09655 1.08868 1.07038 1.06071 1.05668 1.04995 1.05361 1.05248 1.05193 1.04899 1.05224 1.04807 1.05865 1.04557 1.07318 1.06125 1.05578 1.05882 1.0539 1.05658 1.0566 1.07356 1.08782 1.07515 1.07823 1.0833 1.08892 1.08141 1.08665 1.08837 1.07586 1.08532 1.09355 1.09568 1.10581 1.13311 1.1316 1.12489 1.12273 1.12054 1.12372 1.17349 1.19209 1.19129 1.19016 1.18135 1.17478 1.17323 1.17248 1.16467 1.16493 1.16346
1.54021 1.53394 1.52868 1.55693 1.53272 1.56685 1.53423 1.58304 1.62658 1.57552 1.61509 1.58671 1.59324 1.57116 1.56038 1.60366 1.6054 1.60852 1.55689 1.55724 1.56532 1.59072 1.56691 1.59982 1.55378 1.55642 1.6018 1.60266 1.57312 1.56069 1.54702 1.59653 1.55963 1.56221 1.55477 1.54081 1.59389 1.54066 1.50085 1.51467 1.53705 1.53872 1.54095 1.50641 1.55302 1.54596 1.45035 1.48029 1.49298 1.4759 1.52161 1.51102 1.46697 1.4503 1.4712 1.47118 1.4804 1.48661 1.49131 1.83226 2.01204 2.0208 1.98995 2.21465 2.21559 2.19968 2.03412 1.54327 1.30274 1.27972 1.28284 1.28292 1.28509 1.28363 1.28064 1.28395 1.27458 1.22029 1.13372 1.10617 1.11568 1.11341 1.11113 1.11093 1.11102 1.10927 1.11355 1.11448 1.12022 1.11569 1.11597 1.11652 1.12068 1.12361 1.12261 1.12701 1.12837 1.12821 1.13135 1.13567 1.14117 1.14153 1.14278 1.14491 1.1446 1.1494 1.15206 1.1538 1.15552 1.16113 1.161 1.16055 1.16158 1.16499 1.16807 1.16274 1.13731 1.14723 1.14214 1.10982 1.10023 1.09572 1.09626 1.08275 1.07252 1.06824 1.05888 1.05546 1.05857 1.05363 1.05372 1.04726 1.0485 1.04763 1.04556 1.04672 1.05288 1.0463 1.06597 1.05404 1.058 1.06046 1.05906 1.05793 1.06059 1.06761 1.0813 1.07536 1.07465 1.07858 1.08246 1.08107 1.08168 1.08573 1.08133 1.07981 1.09038 1.10088 1.09662 1.12627 1.13252 1.1304 1.12338 1.11577 1.13979 1.18218 1.19056 1.19006 1.1813 1.17986 1.17555 1.17627 1.17271 1.16827 1.16687 1.1735
1.533 1.52753 1.52643 1.53618 1.54083 1.55556 1.54855 1.55189 1.57727 1.5601 1.58062 1.5567 1.61109 1.58558 1.6 1.57225 1.60638 1.61841 1.62178 1.56075 1.5645 1.57746 1.56346 1.57055 1.54477 1.59277 1.60647 1.5732 1.58214 1.59894 1.58237 1.57129 1.55045 1.58298 1.54968 1.53716 1.51338 1.51871 1.46704 1.51274 1.55553 1.57112 1.54968 1.5332 1.53357 1.47957 1.49677 1.464 1.47431 1.47268 1.49964 1.43712 1.44374 1.47631 1.44763 1.46374 1.47057 1.47258 1.49973 1.6731 1.96443 2.02866 1.97888 2.13946 2.12025 1.72031 1.3597 1.27632 1.28008 1.279 1.28302 1.26805 1.27233 1.27236 1.27268 1.2576 1.15659 1.12998 1.11179 1.10142 1.1064 1.10655 1.10456 1.1113 1.11621 1.11387 1.10999 1.11334 1.11667 1.1215 1.11332 1.11177 1.12015 1.11916 1.12691 1.12316 1.12845 1.1289 1.13505 1.13666 1.13704 1.1368 1.14257 1.1453 1.15343 1.14528 1.15217 1.1512 1.15834 1.16124 1.16412 1.15676 1.1656 1.16991 1.1844 1.17696 1.14042 1.14015 1.11141 1.10303 1.09943 1.09551 1.07723 1.07 1.06962 1.06386 1.06284 1.05942 1.05093 1.05491 1.05471 1.05003 1.048 1.04744 1.04596 1.04861 1.04531 1.04494 1.05577 1.06007 1.06256 1.0606 1.05921 1.0622 1.06163 1.06924 1.07768 1.07613 1.07894 1.08082 1.08471 1.09031 1.09149 1.0877 1.08563 1.08381 1.08225 1.0974 1.09171 1.11622 1.13342 1.12787 1.12973 1.12697 1.14957 1.19456 1.19298 1.18567 1.18174 1.18003 1.17855 1.17252 1.17179 1.16119 1.16988 1.18826
1.51012 1.51324 1.54177 1.53948 1.54553 1.54082 1.6405 1.54894 1.58027 1.54036 1.5873 1.55681 1.57754 1.56452 1.60498 1.59872 1.56939 1.59316 1.62271 1.55989 1.56681 1.57978 1.56141 1.57343 1.53541 1.54179 1.53327 1.54482 1.55519 1.57811 1.56853 1.5753 1.56384 1.60022 1.5569 1.53495 1.55301 1.45893 1.5513 1.45401 1.50594 1.52031 1.53556 1.55821 1.54613 1.52954 1.47898 1.47891 1.5074 1.48523 1.48656 1.45831 1.49569 1.43658 1.47005 1.45297 1.4544 1.45102 1.47667 1.66781 1.96621 1.99446 1.87738 1.71991 1.4604 1.28813 1.2757 1.27226 1.2703 1.27645 1.27023 1.2673 1.27097 1.26799 1.24087 1.13018 1.12017 1.10259 1.10249 1.10176 1.10373 1.10689 1.10339 1.10169 1.1057 1.11422 1.11125 1.11339 1.11552 1.1149 1.11669 1.11695 1.11658 1.11831 1.12274 1.12895 1.13545 1.12956 1.13692 1.13793 1.13379 1.14441 1.14535 1.14718 1.15351 1.15409 1.15827 1.15821 1.16294 1.15802 1.16542 1.16226 1.17682 1.18203 1.18482 1.18427 1.14741 1.11746 1.101 1.1112 1.1037 1.08422 1.0761 1.07903 1.07596 1.06989 1.05307 1.05621 1.05129 1.05528 1.04824 1.04475 1.046 1.05523 1.04426 1.04366 1.04303 1.04178 1.04465 1.059 1.05855 1.06632 1.05786 1.05969 1.06177 1.05766 1.07374 1.08273 1.0794 1.07662 1.09307 1.09837 1.09344 1.09198 1.08381 1.08374 1.0793 1.10169 1.09629 1.11102 1.13717 1.13707 1.12574 1.13358 1.15592 1.19923 1.18968 1.17982 1.18583 1.18158 1.18265 1.17746 1.17561 1.17876 1.18688 1.20693
1.56138 1.53272 1.53636 1.54611 1.5851 1.55676 1.56751 1.56265 1.54664 1.54897 1.5558 1.58455 1.57732 1.6035 1.57752 1.59819 1.56221 1.5563 1.61466 1.57143 1.55839 1.56989 1.55149 1.58237 1.5938 1.54256 1.5667 1.52864 1.577 1.57858 1.57162 1.58074 1.55371 1.5298 1.52553 1.5327 1.49766 1.51803 1.50441 1.5493 1.5664 1.52452 1.51397 1.53721 1.52688 1.50372 1.49149 1.48249 1.47613 1.51237 1.51879 1.46665 1.41681 1.43624 1.43024 1.39875 1.44957 1.40842 1.40137 1.58449 1.79718 1.55901 1.35694 1.2803 1.27242 1.26542 1.26801 1.26818 1.26381 1.26393 1.26704 1.26018 1.25963 1.2081 1.12604 1.11876 1.09697 1.1002 1.09768 1.10299 1.10164 1.10088 1.1013 1.10684 1.1024 1.10639 1.10674 1.11523 1.11252 1.11372 1.114 1.12241 1.11449 1.12015 1.11733 1.12899 1.13459 1.12929 1.13425 1.13465 1.14289 1.13842 1.1451 1.15116 1.14724 1.15385 1.16255 1.16279 1.16451 1.16351 1.1709 1.18038 1.19494 1.20045 1.19813 1.19518 1.13457 1.10191 1.10135 1.10556 1.08458 1.07857 1.06388 1.06263 1.05509 1.04485 1.03967 1.04373 1.04239 1.03836 1.03996 1.04451 1.04546 1.04312 1.04581 1.04372 1.03865 1.04067 1.04088 1.06293 1.06425 1.06436 1.05738 1.06509 1.06599 1.06394 1.06977 1.08493 1.07808 1.0756 1.10082 1.10204 1.091 1.08984 1.08342 1.07582 1.08586 1.09208 1.11152 1.11299 1.13571 1.13361 1.13634 1.13445 1.16195 1.2013 1.19146 1.19042 1.17912 1.18707 1.18022 1.17815 1.17856 1.18509 1.21173 1.21692
1.50348 1.54155 1.51686 1.53809 1.52271 1.51989 1.54866 1.5344 1.54925 1.5567 1.54814 1.56547 1.54904 1.53679 1.54223 1.55365 1.57283 1.54761 1.56383 1.57455 1.56989 1.57445 1.59697 1.54332 1.5413 1.51153 1.55431 1.54485 1.50107 1.52951 1.57264 1.55856 1.52471 1.52959 1.51206 1.52511 1.54435 1.44865 1.47103 1.47358 1.50514 1.53464 1.56801 1.51972 1.49866 1.52842 1.50042 1.4935 1.51099 1.53772 1.44353 1.50694 1.48639 1.45382 1.35952 1.40495 1.46778 1.33726 1.36347 1.32005 1.32761 1.24772 1.25941 1.26177 1.2626 1.26251 1.2633 1.26045 1.24975 1.26011 1.24694 1.22861 1.14811 1.10889 1.0986 1.09794 1.09848 1.09265 1.09678 1.10058 1.10406 1.09604 1.09616 1.10261 1.10209 1.10669 1.10765 1.11282 1.11283 1.11282 1.11521 1.1191 1.11571 1.12047 1.12036 1.12357 1.13038 1.13022 1.13517 1.13739 1.13929 1.13543 1.14453 1.14455 1.14848 1.16113 1.1644 1.16464 1.17511 1.175 1.18902 1.22047 1.21998 1.22549 1.20391 1.15799 1.1196 1.10824 1.08607 1.0705 1.05073 1.05014 1.04503 1.03871 1.04195 1.0338 1.03998 1.04494 1.03615 1.03659 1.04117 1.03858 1.04044 1.04345 1.04733 1.04525 1.04018 1.03835 1.0365 1.05886 1.06343 1.06296 1.05804 1.0637 1.07138 1.0655 1.07486 1.08915 1.08289 1.08479 1.09863 1.09957 1.09174 1.0961 1.09113 1.08526 1.08893 1.08793 1.10306 1.13022 1.13969 1.13472 1.13717 1.14474 1.17283 1.20163 1.1955 1.1939 1.18855 1.18345 1.18511 1.17937 1.18824 1.21755 1.21356 1.23053
1.53349 1.55399 1.55512 1.55139 1.59916 1.5736 1.5371 1.54463 1.57911 1.60112 1.62684 1.53603 1.57419 1.56024 1.56485 1.52195 1.61972 1.56511 1.55709 1.55102 1.56602 1.59842 1.55066 1.57343 1.52569 1.58952 1.52143 1.49465 1.57932 1.54923 1.57244 1.55629 1.50977 1.50933 1.51298 1.51452 1.47882 1.45011 1.52872 1.50881 1.47282 1.51477 1.50805 1.50455 1.51529 1.49476 1.50098 1.50479 1.51155 1.48784 1.48587 1.4474 1.43129 1.41572 1.41658 1.37845 1.29588 1.29239 1.25436 1.24659 1.25562 1.25772 1.25619 1.25945 1.25456 1.25115 1.25495 1.24697 1.2459 1.23003 1.16405 1.1122 1.08987 1.0971 1.09798 1.09551 1.09272 1.09173 1.09615 1.09361 1.09437 1.09753 1.09826 1.09685 1.09965 1.10365 1.10672 1.10645 1.111 1.10888 1.11581 1.11516 1.11661 1.12136 1.11945 1.12416 1.13007 1.12961 1.13608 1.13951 1.14171 1.14479 1.14876 1.14818 1.15543 1.16115 1.16533 1.17462 1.19051 1.21421 1.22702 1.2389 1.21944 1.21923 1.18893 1.11082 1.07243 1.05779 1.05725 1.05159 1.04742 1.04563 1.04142 1.0369 1.03475 1.0314 1.03221 1.03269 1.03674 1.05358 1.04207 1.03799 1.03955 1.04138 1.04349 1.04052 1.03901 1.03867 1.04481 1.04973 1.07028 1.06567 1.06223 1.06141 1.06027 1.07263 1.07113 1.0828 1.09001 1.08928 1.1043 1.10086 1.09973 1.09711 1.0904 1.08976 1.08995 1.10169 1.10988 1.14081 1.14221 1.14529 1.14315 1.15416 1.17825 1.21222 1.19466 1.19335 1.19256 1.18832 1.19253 1.19751 1.22076 1.21372 1.21677 1.21414
1.52378 1.51538 1.53833 1.52892 1.57835 1.54028 1.53341 1.52957 1.54897 1.57178 1.5615 1.55855 1.54149 1.54783 1.55298 1.56442 1.57497 1.54306 1.56621 1.56535 1.57399 1.59422 1.56648 1.57704 1.51761 1.54935 1.50132 1.48211 1.54073 1.48329 1.50321 1.50254 1.53244 1.53202 1.52094 1.49297 1.50155 1.44237 1.49407 1.46996 1.48552 1.49098 1.51514 1.528 1.48638 1.50929 1.49257 1.49965 1.41716 1.49492 1.37668 1.44759 1.36502 1.37755 1.29268 1.27725 1.25247 1.24115 1.24781 1.24815 1.24877 1.24665 1.24481 1.24686 1.24498 1.24186 1.24505 1.24279 1.18683 1.1124 1.09554 1.09013 1.09044 1.08438 1.08706 1.09336 1.08754 1.09078 1.09339 1.09235 1.09281 1.09507 1.09761 1.10013 1.0984 1.10028 1.10729 1.10732 1.10945 1.11792 1.1188 1.11845 1.12232 1.12496 1.12456 1.12111 1.12944 1.13654 1.13939 1.14524 1.14562 1.14448 1.15691 1.15452 1.15603 1.1708 1.1762 1.20299 1.2225 1.226 1.22465 1.22509 1.21466 1.22018 1.11703 1.06719 1.05677 1.05445 1.0497 1.04885 1.03778 1.04679 1.04618 1.04435 1.03771 1.03375 1.03695 1.03057 1.02626 1.02582 1.0331 1.04274 1.05085 1.04851 1.04764 1.04675 1.0402 1.04104 1.05045 1.05093 1.05642 1.06984 1.06344 1.06646 1.07062 1.07562 1.07882 1.08609 1.09507 1.08937 1.10791 1.0998 1.10596 1.09635 1.08906 1.09278 1.10023 1.10241 1.12739 1.14474 1.14816 1.14635 1.14737 1.15495 1.19482 1.20248 1.20007 1.19933 1.1974 1.19628 1.21409 1.21877 1.22195 1.20788 1.20505 1.20919
1.49889 1.54344 1.52203 1.52918 1.53573 1.52553 1.53421 1.52866 1.55516 1.5777 1.60054 1.57619 1.52561 1.54139 1.55486 1.51735 1.5705 1.50649 1.54117 1.52113 1.52971 1.53884 1.56453 1.55528 1.50132 1.51727 1.56188 1.52632 1.51789 1.57954 1.58282 1.4937 1.4974 1.50577 1.51354 1.47963 1.51924 1.45235 1.49964 1.52207 1.52017 1.43566 1.49664 1.51097 1.4842 1.4952 1.50231 1.38077 1.4633 1.34986 1.36425 1.34001 1.28997 1.27429 1.24868 1.23321 1.23841 1.23638 1.24184 1.23496 1.24219 1.24277 1.2337 1.23635 1.23235 1.23706 1.22578 1.16046 1.0987 1.08911 1.08432 1.08464 1.08313 1.0822 1.0864 1.08271 1.08748 1.0895 1.09242 1.09169 1.09517 1.09682 1.09059 1.09583 1.09985 1.09992 1.10602 1.1112 1.11061 1.10969 1.11269 1.11356 1.1144 1.12673 1.12118 1.13075 1.13091 1.13741 1.13995 1.14066 1.15194 1.15412 1.16625 1.16778 1.17111 1.188 1.21 1.21748 1.22372 1.22239 1.21773 1.22118 1.21377 1.1491 1.07695 1.06111 1.06061 1.05859 1.05806 1.0545 1.04792 1.04403 1.03832 1.02871 1.03346 1.0325 1.02793 1.02633 1.028 1.02935 1.02978 1.03376 1.03295 1.03063 1.04821 1.05564 1.05917 1.06267 1.05429 1.05211 1.05257 1.06985 1.06375 1.06765 1.07123 1.08036 1.08562 1.09231 1.10246 1.09441 1.10564 1.09987 1.10109 1.09673 1.09729 1.11264 1.11195 1.11585 1.14141 1.15645 1.15583 1.15631 1.15445 1.15514 1.20881 1.20301 1.2026 1.20358 1.20905 1.22411 1.22771 1.21935 1.22312 1.20876 1.20566 1.20981
1.52659 1.49934 1.54984 1.49219 1.52465 1.5113 1.52335 1.5044 1.40814 1.52113 1.5633 1.50937 1.54896 1.51107 1.5593 1.52867 1.51491 1.55106 1.51461 1.54814 1.54805 1.52638 1.518 1.51888 1.55648 1.51435 1.49723 1.48998 1.54339 1.55929 1.54784 1.51837 1.50176 1.50365 1.50137 1.53688 1.49847 1.5005 1.43612 1.45939 1.4598 1.44057 1.45459 1.44627 1.48825 1.45006 1.47325 1.45254 1.38606 1.3664 1.24405 1.25236 1.23549 1.22516 1.2289 1.23532 1.22551 1.23279 1.23164 1.23226 1.23287 1.23676 1.22557 1.23605 1.2221 1.19424 1.11052 1.0889 1.08837 1.0842 1.08363 1.08153 1.08093 1.08151 1.08359 1.08323 1.088 1.08367 1.09052 1.08615 1.09085 1.0922 1.09626 1.10363 1.09917 1.09984 1.10413 1.10779 1.11204 1.11264 1.11292 1.11863 1.12099 1.12212 1.12505 1.12947 1.13781 1.14098 1.14292 1.14605 1.1543 1.15497 1.17135 1.17076 1.1889 1.21124 1.21874 1.21837 1.20951 1.21846 1.21983 1.20459 1.17848 1.0918 1.06241 1.0529 1.05241 1.04648 1.03964 1.03338 1.03162 1.03074 1.02744 1.02683 1.02859 1.02823 1.03384 1.02626 1.02405 1.02689 1.03598 1.05666 1.04958 1.06094 1.06512 1.06363 1.07131 1.06294 1.05633 1.05949 1.05492 1.06452 1.06905 1.07178 1.08155 1.08626 1.0974 1.09674 1.1025 1.09884 1.11155 1.1049 1.10085 1.09766 1.11483 1.11156 1.11 1.1232 1.15108 1.16063 1.15683 1.15906 1.16641 1.18633 1.2093 1.2141 1.21397 1.20694 1.21185 1.21527 1.22287 1.22076 1.21775 1.20961 1.20117 1.21994
1.55148 1.49701 1.49318 1.5011 1.50899 1.49728 1.27571 0.988948 0.958046 1.03316 1.41617 1.48998 1.5525 1.56688 1.50325 1.5146 1.53545 1.53318 1.5265 1.51743 1.56288 1.53075 1.53401 1.50865 1.49427 1.54414 1.48986 1.52392 1.56624 1.52517 1.55161 1.54097 1.50137 1.51979 1.49153 1.51225 1.51967 1.42573 1.46977 1.4444 1.49352 1.46598 1.43955 1.45116 1.38973 1.48389 1.44532 1.37708 1.30662 1.2498 1.21801 1.22122 1.2214 1.22516 1.22859 1.22781 1.21648 1.22646 1.22982 1.21961 1.2205 1.21807 1.19692 1.15222 1.10716 1.0907 1.07844 1.07853 1.07559 1.07624 1.08172 1.06904 1.07659 1.07566 1.08349 1.07889 1.07881 1.08266 1.08678 1.09211 1.09559 1.09149 1.09737 1.09989 1.09998 1.10459 1.10736 1.108 1.11104 1.11073 1.11222 1.11975 1.12544 1.12566 1.12799 1.13393 1.13833 1.1415 1.14647 1.15808 1.15847 1.15974 1.17189 1.18976 1.21244 1.20485 1.2048 1.21077 1.20827 1.19728 1.19655 1.17166 1.10453 1.07121 1.05749 1.04768 1.04026 1.03554 1.03442 1.03268 1.03242 1.03214 1.03094 1.02882 1.02729 1.02304 1.02446 1.02975 1.03143 1.04861 1.04903 1.0548 1.05428 1.06356 1.06566 1.0606 1.06443 1.07091 1.05243 1.05648 1.0602 1.06271 1.07937 1.08356 1.09421 1.10186 1.10064 1.09351 1.10105 1.10824 1.11128 1.10961 1.10644 1.11725 1.11488 1.11423 1.1182 1.14532 1.16364 1.1619 1.16215 1.15802 1.17691 1.20776 1.22238 1.216 1.21645 1.21142 1.20493 1.20724 1.20152 1.20881 1.20499 1.20422 1.20058 1.22079
1.52784 1.54383 1.53388 1.50264 1.46667 1.29896 0.955009 0.907616 0.900199 0.93898 1.20789 1.53185 1.55887 1.53186 1.4615 1.51114 1.51958 1.52682 1.54069 1.4997 1.53352 1.5377 1.50571 1.52202 1.50676 1.51073 1.50412 1.51211 1.48925 1.52537 1.5224 1.52703 1.5222 1.51495 1.48459 1.49645 1.47748 1.47149 1.49364 1.44868 1.45026 1.44498 1.44114 1.43666 1.43752 1.45744 1.28383 1.24204 1.23366 1.22135 1.22218 1.21999 1.21987 1.22032 1.22226 1.21906 1.21915 1.21169 1.22015 1.21143 1.20389 1.15684 1.07928 1.06829 1.06934 1.06282 1.07138 1.06905 1.07033 1.0731 1.07222 1.07707 1.0692 1.07554 1.07913 1.07967 1.07899 1.0792 1.08333 1.08532 1.09759 1.09106 1.09149 1.09795 1.10016 1.10113 1.10391 1.10485 1.1085 1.11425 1.11422 1.12267 1.12473 1.12919 1.13121 1.13928 1.14005 1.14807 1.14819 1.16041 1.16928 1.17964 1.18997 1.20239 1.20209 1.20539 1.20201 1.21071 1.20518 1.15553 1.15511 1.11453 1.07908 1.0536 1.04923 1.03188 1.02146 1.01946 1.02586 1.02383 1.01425 1.0224 1.02721 1.0266 1.02087 1.02681 1.03842 1.0497 1.04538 1.04493 1.04983 1.0556 1.06164 1.06139 1.07005 1.06558 1.06882 1.07113 1.06304 1.04307 1.0634 1.0662 1.07902 1.09386 1.09684 1.11215 1.10533 1.09761 1.10427 1.11176 1.11275 1.11108 1.11872 1.12077 1.11578 1.12096 1.13626 1.17064 1.18807 1.17269 1.17611 1.1838 1.20295 1.21019 1.21593 1.21128 1.2106 1.2073 1.20368 1.20343 1.19773 1.19767 1.1984 1.19596 1.20249 1.2261
1.51815 1.52483 1.51088 1.48493 1.32151 1.08306 0.921487 0.905883 0.907865 0.914958 0.995606 1.3515 1.43596 1.49388 1.51303 1.50823 1.50017 1.5317 1.54906 1.52199 1.55557 1.51668 1.57356 1.50558 1.49117 1.51151 1.53009 1.51317 1.52466 1.54025 1.51285 1.52896 1.52117 1.51037 1.49537 1.50338 1.4693 1.47545 1.51037 1.45619 1.44916 1.45101 1.41291 1.44836 1.3075 1.2506 1.22615 1.2118 1.22075 1.21322 1.21134 1.21274 1.21291 1.21306 1.21289 1.20487 1.21096 1.21012 1.1969 1.16377 1.08509 1.06691 1.05593 1.07328 1.05984 1.06026 1.06067 1.06468 1.07018 1.07054 1.07268 1.07027 1.07511 1.07509 1.07777 1.08468 1.07612 1.07905 1.08258 1.08396 1.08866 1.0888 1.09983 1.09812 1.10123 1.09948 1.10134 1.11078 1.10806 1.11472 1.12107 1.12496 1.12824 1.13483 1.13928 1.14249 1.15508 1.15492 1.1602 1.17 1.16978 1.19013 1.19078 1.19413 1.19957 1.20015 1.19527 1.1952 1.19482 1.14907 1.13809 1.10957 1.07955 1.05768 1.04818 1.03022 1.00834 1.00785 1.01578 1.00983 1.00959 1.03277 1.03158 1.03517 1.03243 1.03897 1.04189 1.04089 1.04795 1.05138 1.05061 1.05609 1.05915 1.06457 1.06697 1.06905 1.07289 1.07966 1.07868 1.06641 1.05561 1.06997 1.08043 1.1003 1.11154 1.12066 1.11913 1.11022 1.10806 1.12025 1.12505 1.11575 1.12457 1.1234 1.1292 1.14019 1.14879 1.19044 1.18842 1.18723 1.1863 1.19456 1.20593 1.2103 1.20887 1.21255 1.21159 1.20029 1.19155 1.1902 1.19817 1.19471 1.19206 1.18964 1.20212 1.21477
1.50841 1.49142 1.51856 1.4796 1.31408 0.99231 0.909511 0.896149 0.898108 0.910328 0.923124 0.991875 1.1456 1.47137 1.46252 1.51741 1.49316 1.44531 1.51447 1.54079 1.50021 1.51919 1.54518 1.50662 1.49512 1.49966 1.46105 1.46312 1.47161 1.51274 1.52653 1.52556 1.49472 1.49452 1.49251 1.47742 1.44686 1.43192 1.46058 1.46606 1.45338 1.43558 1.26782 1.26886 1.23645 1.20425 1.20785 1.20665 1.20931 1.20925 1.20018 1.20516 1.20053 1.20067 1.2101 1.19546 1.17447 1.11792 1.06188 1.05217 1.04605 1.05529 1.05154 1.05531 1.06511 1.061 1.06111 1.05786 1.06155 1.06977 1.07161 1.06769 1.07071 1.06917 1.07609 1.073 1.07989 1.07313 1.07847 1.0844 1.09305 1.09986 1.09877 1.09826 1.09895 1.10023 1.10816 1.10516 1.10851 1.11518 1.12365 1.12542 1.13416 1.13984 1.14884 1.14993 1.15343 1.16479 1.17765 1.18078 1.18784 1.18032 1.19611 1.19522 1.18674 1.19217 1.19092 1.19176 1.18442 1.15862 1.11136 1.08042 1.05221 1.04242 1.03292 1.01979 1.02535 1.00888 1.01621 1.02953 1.02536 1.02539 1.02781 1.0284 1.02987 1.03162 1.03964 1.03565 1.04631 1.04556 1.05077 1.06372 1.0626 1.06474 1.06417 1.07013 1.07783 1.07569 1.08333 1.06333 1.06351 1.06069 1.07561 1.10111 1.13008 1.12355 1.12202 1.11929 1.11653 1.13312 1.12823 1.13504 1.1298 1.13127 1.15195 1.15155 1.18343 1.18785 1.19571 1.19481 1.19937 1.1926 1.20455 1.20548 1.20895 1.20863 1.19651 1.20097 1.19223 1.18432 1.17981 1.18689 1.18568 1.1912 1.2116 1.20735
1.51548 1.49088 1.51577 1.48723 1.22867 0.965324 0.912008 0.896643 0.897741 0.899376 0.905277 0.905418 0.922488 0.995167 1.1093 1.39625 1.48118 1.44661 1.53845 1.51742 1.52336 1.59192 1.47704 1.50939 1.46628 1.48864 1.46965 1.46144 1.46876 1.44278 1.53164 1.44009 1.52641 1.43961 1.47541 1.46445 1.47477 1.46965 1.45675 1.44142 1.23287 1.22768 1.23318 1.20287 1.20412 1.19819 1.19819 1.19848 1.19723 1.19597 1.19917 1.19666 1.19592 1.18914 1.15918 1.08796 1.04734 1.0479 1.04544 1.05199 1.04647 1.05058 1.05437 1.05181 1.05648 1.06143 1.0579 1.06312 1.06379 1.06656 1.06507 1.07386 1.07264 1.07262 1.08045 1.07645 1.08001 1.07688 1.08193 1.08422 1.08832 1.09361 1.10162 1.10142 1.10029 1.10703 1.1086 1.11196 1.11349 1.12411 1.12651 1.1295 1.14006 1.1415 1.15475 1.15857 1.17178 1.17829 1.18812 1.177 1.18557 1.1829 1.18022 1.18297 1.18176 1.17992 1.18624 1.1768 1.15796 1.09253 1.06856 1.04368 1.04206 1.02109 1.01915 1.0196 1.01822 1.01984 1.01963 1.02151 1.02277 1.02611 1.02582 1.02461 1.03029 1.03414 1.04037 1.04147 1.04614 1.0469 1.05151 1.05282 1.05887 1.07116 1.06582 1.07803 1.08038 1.08538 1.07994 1.06736 1.0622 1.06087 1.07787 1.11166 1.12586 1.12436 1.13197 1.1198 1.11881 1.14569 1.13375 1.13147 1.14322 1.1587 1.15367 1.16261 1.19012 1.19164 1.18643 1.18468 1.19505 1.19176 1.20027 1.19804 1.20153 1.18198 1.19714 1.19503 1.18488 1.18269 1.17733 1.17761 1.17954 1.19103 1.20326 1.20551
1.493 1.47677 1.49147 1.44503 1.2489 0.989422 0.929003 0.90681 0.901923 0.896119 0.902585 0.903004 0.902525 0.906618 0.925408 1.01592 1.19005 1.42179 1.47442 1.4085 1.5229 1.44977 1.50838 1.50978 1.46284 1.47964 1.4753 1.47502 1.51294 1.49024 1.52611 1.49385 1.50963 1.41271 1.41001 1.43424 1.46531 1.3788 1.28141 1.26769 1.23189 1.20196 1.20953 1.19738 1.19804 1.19867 1.19628 1.19776 1.19262 1.19254 1.19455 1.19323 1.17566 1.10154 1.03964 1.04144 1.04142 1.03897 1.03861 1.04637 1.04657 1.05099 1.05146 1.0501 1.05627 1.06062 1.0583 1.06292 1.05905 1.0606 1.06881 1.07003 1.07699 1.0806 1.07571 1.07898 1.07799 1.08366 1.08263 1.09039 1.09024 1.09675 1.10021 1.10304 1.11011 1.11838 1.11387 1.11299 1.11937 1.12423 1.13422 1.13569 1.14292 1.14951 1.15973 1.176 1.1789 1.17843 1.1737 1.17714 1.17722 1.17182 1.17702 1.18371 1.17371 1.17249 1.17124 1.12728 1.07062 1.04393 1.03509 1.01747 1.01616 1.02088 1.01108 1.01305 1.01891 1.0136 1.02003 1.0201 1.02347 1.0238 1.02502 1.02592 1.031 1.03245 1.03718 1.04068 1.04356 1.04552 1.05044 1.05503 1.0584 1.06712 1.07102 1.07847 1.08083 1.08553 1.08425 1.07731 1.06264 1.07376 1.07299 1.10089 1.12634 1.14256 1.13275 1.1306 1.14402 1.13885 1.13719 1.16072 1.16628 1.16654 1.15887 1.18444 1.18077 1.18405 1.18525 1.1838 1.18896 1.18482 1.19219 1.19316 1.1886 1.1935 1.18513 1.18391 1.18178 1.17874 1.18051 1.17426 1.185 1.19394 1.19121 1.19463
1.48508 1.45585 1.41851 1.45456 1.26798 1.0212 0.95425 0.914969 0.9038 0.899996 0.897862 0.89913 0.901229 0.902723 0.908517 0.916319 0.953946 1.01602 1.06081 1.21363 1.25059 1.3308 1.39511 1.48733 1.43916 1.48643 1.48591 1.46976 1.445 1.43075 1.42882 1.49682 1.41004 1.44732 1.45798 1.45528 1.37626 1.27241 1.23494 1.20034 1.20289 1.20154 1.19061 1.18919 1.18834 1.18896 1.19045 1.18384 1.18258 1.1831 1.17579 1.15674 1.07934 1.04151 1.03551 1.03551 1.0391 1.03604 1.0402 1.0374 1.04696 1.05107 1.04791 1.05622 1.05303 1.05919 1.05899 1.05937 1.05882 1.06008 1.06616 1.06738 1.07465 1.07189 1.077 1.07664 1.08263 1.07858 1.08393 1.09291 1.09397 1.1017 1.10485 1.10678 1.11294 1.11361 1.12004 1.11946 1.12038 1.13374 1.13462 1.1446 1.14879 1.15721 1.16774 1.17035 1.16687 1.17126 1.17229 1.16785 1.17248 1.17619 1.16895 1.17443 1.17232 1.15018 1.08592 1.06348 1.04285 1.02827 1.01912 1.00664 1.00685 1.00523 1.00934 1.0104 1.01144 1.01216 1.01407 1.02018 1.02053 1.01756 1.02209 1.0254 1.02688 1.03434 1.03337 1.04048 1.04366 1.04382 1.04905 1.05574 1.06509 1.06753 1.07084 1.08158 1.0893 1.09548 1.08677 1.08012 1.07672 1.06945 1.06069 1.07766 1.10049 1.09931 1.11493 1.12135 1.14008 1.14639 1.16939 1.17412 1.16972 1.16939 1.1734 1.17416 1.17809 1.17294 1.17823 1.18288 1.18082 1.18421 1.18235 1.18766 1.18715 1.18458 1.17825 1.17417 1.17921 1.1799 1.17085 1.15922 1.18079 1.18352 1.18364 1.18877
1.4377 1.45376 1.43731 1.5547 1.3986 1.0507 0.988331 0.931962 0.912234 0.90185 0.90287 0.903567 0.901063 0.899669 0.905745 0.904862 0.909159 0.913145 0.931643 0.950161 0.969282 1.04183 1.08415 1.16284 1.25487 1.24911 1.43951 1.48653 1.45618 1.49351 1.40312 1.51631 1.38752 1.37565 1.36994 1.33067 1.22983 1.209 1.19882 1.19394 1.18904 1.18826 1.1818 1.18515 1.18639 1.18102 1.17412 1.18187 1.17551 1.15502 1.09785 1.04089 1.02742 1.03256 1.03137 1.03226 1.03705 0.0 0.0 1.0441 0.0 1.0463 1.0516 0.0 0.0 1.05169 1.06268 1.06367 1.0601 1.06074 1.07138 1.07381 1.07289 1.07802 1.07676 1.08307 1.08421 1.08411 1.09128 1.09662 1.10194 1.10632 1.10644 1.11414 1.11574 1.11459 1.11981 1.1247 1.13474 1.13443 1.14321 1.15289 1.16802 1.16915 1.16206 1.16194 1.16544 1.16346 1.16024 1.16369 1.16438 1.1687 1.16085 1.16361 1.11176 1.07175 1.05174 1.0293 1.02049 1.01197 1.00283 1.0076 1.0072 1.00649 1.00848 1.00833 1.00757 1.01191 1.01412 1.01933 1.0218 1.02093 1.02246 1.02426 1.02544 1.03171 1.04065 1.04415 1.04344 1.046 1.05302 1.05373 1.0592 1.06524 1.0787 1.08556 1.08523 1.0956 1.09818 1.07875 1.05932 1.02714 1.02583 1.02005 1.0184 1.01909 1.02152 1.03128 1.0625 1.12832 1.16458 1.16814 1.16668 1.16372 1.16688 1.17232 1.17217 1.16849 1.17787 1.17701 1.17496 1.17923 1.17883 1.1781 1.17559 1.18139 1.18367 1.17443 1.16689 1.17018 1.16771 1.17486 1.17909 1.17787 1.1797 1.17893
1.56034 1.49482 1.50078 1.4809 1.39555 1.07309 0.972534 0.965226 0.940682 0.914002 0.912167 0.900798 0.903469 0.904959 0.903239 0.900901 0.905769 0.908587 0.91109 0.912695 0.925354 0.939184 0.953898 0.955447 0.974264 1.02362 1.10715 1.25704 1.42846 1.45339 1.41634 1.50181 1.46584 1.26896 1.22223 1.2003 1.18067 1.18149 1.18318 1.17293 1.17277 1.169 1.17206 1.17092 1.17185 1.16407 1.16494 1.1535 1.13183 1.05758 1.03005 1.03163 1.02747 1.02839 1.03382 1.02929 1.0371 0.0 0.0 1.04686 1.03589 0.0 0.0 0.0 1.05677 1.05991 1.06424 1.06069 1.05529 1.06715 1.06384 1.07416 1.07779 1.07807 1.0844 1.08767 1.0879 1.09084 1.09741 1.09728 1.10867 1.10486 1.11501 1.11754 1.11853 1.12194 1.12199 1.12597 1.1424 1.14573 1.15422 1.16086 1.15897 1.16284 1.15818 1.15775 0.0 1.1447 1.15819 1.15344 1.15808 1.15936 1.1412 1.07266 1.05267 1.0351 1.02146 1.00812 1.00416 1.00291 1.00134 0.997032 0.999063 1.00622 1.0079 1.00595 1.00669 1.01134 1.01175 1.01092 1.01581 1.02128 1.0234 1.02671 1.0294 1.02845 1.0359 1.03911 1.0441 1.05085 1.05189 1.05649 1.06017 1.07009 1.07878 1.09072 1.09695 1.10344 1.08072 1.02413 1.0199 1.01327 1.01939 1.01865 1.01019 1.01444 1.01275 1.01457 1.0193 1.01252 1.05657 1.14628 1.16127 1.15452 1.16061 1.16812 1.16419 1.17159 1.17049 1.16936 1.17109 1.1693 1.17152 1.17716 1.16976 1.17816 1.17729 1.17466 1.16741 1.15814 1.15455 1.17426 1.16799 1.17956 1.16951 1.16933
1.5481 1.4619 1.50598 1.46256 1.41975 1.37414 1.05879 0.979354 0.97228 0.941913 0.908526 0.903471 0.902686 0.90648 0.90765 0.90821 0.902647 0.909814 0.908826 0.917416 0.918998 0.932238 0.937879 0.942626 0.947356 0.960582 0.971168 0.994404 1.05715 1.0616 1.17205 1.26762 1.22458 1.2066 1.1678 1.17905 1.17068 1.17149 1.17257 1.17303 1.16541 1.16223 1.15871 1.15397 1.13454 1.10548 1.04429 1.02856 1.02899 1.03 1.02588 1.03136 1.0281 1.02842 1.02542 1.03233 1.03743 0.0 0.0 0.0 0.0 1.04637 1.05047 1.05273 1.0577 1.06084 1.06185 1.06192 1.06714 1.06779 1.06326 1.07024 1.07751 1.0787 1.07896 1.08497 1.09248 1.09391 1.1026 1.10642 1.10749 1.11705 1.11504 1.12366 1.12739 1.13171 1.13967 1.14061 1.15248 1.15825 1.15062 1.15453 1.15446 1.15347 1.17616 1.14656 1.15371 1.13775 1.15064 1.16928 1.14993 1.11963 1.05776 1.03535 1.02963 1.01449 1.00115 0.999333 0.999618 0.998674 0.998925 1.00037 1.00028 1.0032 1.00187 1.00717 1.00761 1.01045 1.01207 1.01366 1.01975 1.02341 1.02674 1.02493 1.03334 1.03269 1.03653 1.03855 1.04414 1.0476 1.05403 1.06223 1.0665 1.07075 1.07914 1.09079 1.10089 1.09964 1.02542 1.01228 1.01103 1.01629 1.01351 1.019 1.02387 1.00948 1.01311 1.01523 1.01112 1.00435 1.00933 1.03042 1.12973 1.15788 1.159 1.1595 1.15733 1.16475 1.16716 1.16517 1.16314 1.16687 1.17199 1.17157 1.16908 1.16799 1.16428 1.16254 1.14214 1.1492 1.16903 1.1668 1.16624 1.17072 1.16353 1.16082
1.53157 1.46139 1.50775 1.49097 1.49253 1.47921 1.18818 0.996328 0.963793 0.963513 0.933595 0.90958 0.907071 0.905961 0.910887 0.908551 0.909366 0.910441 0.905668 0.910465 0.919622 0.931403 0.938212 0.937685 0.946807 0.952987 0.962387 0.972077 0.982056 0.969605 0.971279 0.977957 1.02103 1.12492 1.15038 1.15924 1.16036 1.17187 1.16282 1.15135 1.12283 1.09364 1.04226 1.02128 1.01191 1.01029 1.01285 1.01268 1.0137 1.02371 1.02379 1.02506 1.03352 1.03355 1.02995 1.02963 1.03714 0.0 0.0 0.0 1.05405 1.05152 1.04684 1.0594 1.06013 1.06146 1.06216 1.06315 1.06745 1.07083 1.06964 1.07268 1.07904 1.08296 1.08656 1.09045 1.0928 1.10729 1.10748 1.11525 1.11024 1.12376 1.12297 1.12702 1.13532 1.13964 1.14942 1.14428 1.14916 1.14946 1.14487 1.14634 1.14963 1.15471 1.14002 1.1475 1.14493 1.14477 1.1449 1.14288 1.09983 1.0586 1.04197 1.02806 1.01414 1.00659 1.00114 1.00084 0.997789 0.995937 0.995886 0.99915 0.998459 1.00199 1.00065 1.00505 1.01366 1.01468 1.01388 1.01456 1.02096 1.0192 1.02464 1.03066 1.03064 1.03331 1.03835 1.04247 1.04566 1.05302 1.05646 1.06556 1.06474 1.07378 1.08427 1.09262 1.10453 1.08807 1.01354 1.00934 1.00898 1.00772 1.00821 1.03623 0.0 1.01277 1.01345 0.0 1.01442 1.01294 1.00321 1.00962 1.02832 1.15096 1.15502 1.14676 1.14549 1.15148 1.15071 1.15601 1.15226 1.1618 1.15218 1.15959 1.16001 1.15751 1.15554 1.14836 1.14288 1.1571 1.15752 1.15475 1.15904 1.15731 1.16034 1.15482
1.52938 1.52331 1.51175 1.50518 1.46155 1.43904 1.40782 1.09249 1.00311 0.948091 0.949176 0.943891 0.912015 0.906577 0.904847 0.908583 0.91491 0.912502 0.0 0.918939 0.914973 0.930256 0.938233 0.93448 0.946826 0.95183 0.955641 0.963262 0.974116 0.966077 0.969814 0.970278 0.976936 0.982101 0.987844 0.996841 0.997804 0.998745 1.0083 1.00026 0.999049 0.995123 1.00521 0.999149 1.00443 1.01059 1.01434 1.00878 1.01249 1.01469 1.01326 1.01302 1.01937 1.02933 1.03657 1.02902 1.03713 1.03376 1.04396 1.0472 1.04619 1.05211 1.05046 1.05152 1.06103 1.05993 1.06124 1.06738 1.06835 1.069 1.07327 1.08026 1.08571 1.0863 1.09324 1.10047 1.10252 1.11154 1.11569 1.11647 1.12423 1.12558 1.13088 1.14162 1.14201 1.13965 1.1397 1.1452 1.14095 1.14277 1.14366 1.13692 1.13686 1.16415 1.14033 1.14538 1.1425 1.14113 1.13001 1.06903 1.0427 1.02821 1.01431 1.01164 0.991652 0.996848 0.996866 0.996564 0.996851 0.995606 0.999496 0.998821 0.998433 1.00015 1.00426 1.00412 1.0085 1.01315 1.01537 1.02028 1.01974 1.01979 1.02614 1.03487 1.03034 1.0339 1.03895 1.04487 1.04896 1.05333 1.06096 1.06407 1.06955 1.08037 1.09266 1.10161 1.11381 1.09167 1.00699 1.00488 1.00424 0.999115 0.999615 1.02559 1.02453 0.0 0.0 1.01294 1.02182 1.01121 1.00236 1.00231 1.00488 1.08099 1.14516 1.14335 1.1526 1.15362 1.14645 1.15001 1.14859 1.15786 1.14594 1.15018 1.15033 1.1513 1.14676 1.13702 1.14331 1.14953 1.15254 1.15577 1.1484 1.15748 1.15485 1.15189
1.56099 1.53689 1.47464 1.52731 1.47005 1.51879 1.46686 1.19099 1.00232 0.97311 0.96072 0.943639 0.927906 0.91353 0.906887 0.908595 0.914921 0.912801 0.918504 0.0 0.920228 0.931135 0.937943 0.938289 0.945065 0.946245 0.955933 0.963848 0.964972 0.9643 0.962713 0.965831 0.972188 0.973789 0.979227 0.980492 0.983222 0.991291 0.9925 0.993091 0.994555 0.992714 1.00071 0.999726 1.00261 1.00398 1.00832 1.00545 1.01217 1.01256 1.01685 1.02503 1.02747 1.02961 1.03473 1.03351 1.03046 0.0 1.0397 1.04385 1.04616 1.05058 1.05588 1.06057 1.06192 1.06354 1.06394 1.0716 1.07257 1.07352 1.07992 1.08539 1.0863 1.09144 1.10051 1.10744 1.10888 1.117 1.11688 1.12679 1.12847 1.13773 1.13056 1.13492 1.13592 1.13203 1.13268 1.13454 1.13485 1.13485 1.13482 1.1366 1.13258 1.1249 1.13697 1.14871 1.17473 1.09672 1.05094 1.02249 1.01561 1.00294 0.999988 0.99793 0.992515 0.992248 0.992875 0.989539 0.9962 0.994045 0.999452 0.994536 0.998391 0.999197 1.00422 1.00317 1.00907 1.00858 1.01322 1.01844 1.02152 1.01945 1.03184 1.03786 1.03784 1.039 1.03893 1.04876 1.05405 1.05722 1.06305 1.06796 1.07314 1.08606 1.10044 1.10819 1.10905 1.08274 1.00728 0.999215 1.00185 0.99762 0.997234 0.988223 1.01268 1.01783 1.01909 1.01679 1.01799 0.999727 0.998247 0.99733 0.999909 1.02298 1.14523 1.13815 1.14245 1.1397 1.13691 1.14457 1.14229 1.14781 1.14574 1.15086 1.14409 1.14334 1.13795 1.13569 1.15203 1.1445 1.14124 1.14421 1.14769 1.15081 1.14281 1.14554
1.52995 1.53375 1.43322 1.525 1.48677 1.51902 1.44622 1.39053 1.08779 1.00387 0.984906 0.967569 0.945518 0.925092 0.914988 0.913227 0.909104 0.918314 0.917908 0.922136 0.92722 0.930241 0.937925 0.936217 0.946806 0.947987 0.949142 0.957639 0.962589 0.959549 0.959728 0.963138 0.965641 0.973462 0.972962 0.976894 0.974265 0.986793 0.986804 0.993353 0.990041 0.990584 0.999179 0.996993 0.998077 0.994345 1.00618 1.00601 1.00612 1.01222 1.0168 1.01836 1.02653 1.03318 1.03529 1.038 1.03827 1.03942 1.04026 1.04713 1.04944 1.05416 1.05614 1.05902 1.0652 1.07138 1.07178 1.07246 1.07344 1.07469 1.08383 1.08626 1.09263 1.10051 1.1026 1.11166 1.11796 1.12243 1.12962 1.12797 1.12539 1.13801 1.13083 1.13123 1.13254 1.13199 1.12565 1.13329 1.12873 1.12812 1.13661 1.13322 1.12951 1.12973 1.12963 1.15051 1.06823 1.03918 1.015 1.00418 0.998827 0.990721 0.984426 0.989359 0.987287 0.986717 0.990382 0.99069 0.988856 0.996106 0.995147 0.999022 0.995302 1.00277 1.00507 1.01008 1.00599 1.01337 1.01166 1.01597 1.02208 1.02604 1.03119 1.03149 1.0393 1.04377 1.04611 1.05023 1.05853 1.06139 1.07082 1.07213 1.0815 1.09502 1.10551 1.11476 1.11412 1.07228 1.01738 1.00186 0.986648 0.997295 0.994832 0.990866 0.991031 0.0 0.98537 0.986645 0.987005 0.989989 0.995588 0.994088 0.989919 1.02327 1.13999 1.13702 1.13694 1.13683 1.13434 1.13561 1.14264 1.14062 1.13567 1.14197 1.13233 1.12987 1.12969 1.13865 1.13864 1.13601 1.13477 1.13177 1.13727 1.13814 1.1435 1.1451
1.54937 1.44458 1.53744 1.52351 1.45224 1.46104 1.46981 1.42817 1.38746 1.06191 0.994411 0.99668 0.968605 0.947339 0.938423 0.922483 0.922437 0.924394 0.920206 0.926478 0.927477 0.936933 0.938767 0.94439 0.945005 0.945888 0.952338 0.958481 0.95871 0.959208 0.958794 0.966346 0.966184 0.968073 0.968753 0.974761 0.976592 0.978104 0.987346 0.990316 0.989387 0.99232 0.992842 0.996037 0.993824 0.994883 0.998024 1.01075 1.00966 1.01667 1.02426 1.0189 1.02918 1.03131 1.03644 1.03733 1.03519 1.03966 1.04564 1.04737 1.04998 1.05622 1.05638 1.06198 1.06423 1.07132 1.07718 1.07938 1.07944 1.08465 1.09136 1.09167 1.10351 1.11139 1.11561 1.12224 1.12855 1.1239 1.1247 1.12853 1.12595 1.12913 1.12529 1.12266 1.13005 1.12616 1.1262 1.12593 1.12777 1.12684 1.12895 1.12891 1.11667 1.1315 1.13688 1.04364 1.02739 1.01021 1.00488 0.998628 0.984757 0.98395 0.989814 0.988061 0.992066 0.991799 0.990605 0.993038 0.994238 0.994814 0.995373 0.995307 0.995225 1.00149 1.0047 1.0097 1.00985 1.00997 1.01854 1.01953 1.0208 1.02477 1.03203 1.03294 1.04045 1.04552 1.05298 1.05469 1.05998 1.06735 1.07078 1.07958 1.09015 1.10606 1.11385 1.12161 1.10901 1.05554 1.02002 1.0033 0.991953 0.991896 0.984984 0.984886 0.987727 0.990537 0.985625 0.984833 0.987558 0.986712 0.989079 0.987883 0.99371 1.03675 1.13122 1.13148 1.1282 1.13335 1.13408 1.13593 1.13396 1.13225 1.1305 1.12987 1.12891 1.11637 1.12485 1.13009 1.13268 1.13465 1.13198 1.13441 1.13507 1.13055 1.12771 1.13076
1.5425 1.45181 1.51578 1.52396 1.52441 1.43865 1.51367 1.46236 1.38814 1.17081 1.01973 0.996379 0.998902 0.968421 0.94418 0.935495 0.925587 0.924055 0.922777 0.925842 0.930638 0.937757 0.941935 0.940226 0.947003 0.947298 0.953455 0.95842 0.959828 0.957666 0.964644 0.964207 0.967302 0.970674 0.972544 0.976475 0.975627 0.979819 0.982802 0.98338 0.991404 0.988658 0.991569 0.993865 0.994045 0.994205 1.00335 1.00767 1.00748 1.01238 1.02358 1.02906 1.02398 1.03605 1.04058 1.03876 1.04114 1.0414 1.04526 1.04638 1.05686 1.05614 1.06478 1.05736 1.07294 1.07245 1.07831 1.08112 1.08726 1.08761 1.09584 1.10466 1.11468 1.11466 1.11827 1.12247 1.12453 1.11927 1.11976 1.1242 1.12162 1.12023 1.12005 1.12015 1.11658 1.11969 1.11669 1.11916 1.12039 1.11764 1.11731 1.11574 1.14735 1.09277 1.02722 0.992412 1.00051 0.986375 0.987745 0.984536 0.987395 0.982937 0.982418 0.986443 0.983459 0.987145 0.990812 0.990512 0.993232 0.991988 0.995581 0.999155 1.00271 1.00261 1.00824 1.01052 1.01097 1.0123 1.01967 1.02035 1.01982 1.02801 1.03346 1.03678 1.04068 1.04786 1.05441 1.06033 1.06382 1.07179 1.07432 1.09272 1.10178 1.1144 1.11171 1.10631 1.10867 1.05488 1.01995 1.01605 1.00528 0.990938 0.986106 0.0 0.983513 0.0 0.981422 0.983001 0.977465 0.984593 0.974006 0.991069 0.999246 1.06372 1.13151 1.11684 1.12147 1.1281 1.12738 1.12546 1.12438 1.13255 1.12587 1.12381 1.11391 1.11639 1.12459 1.12236 1.12124 1.12667 1.12516 1.12504 1.13255 1.1289 1.12606 1.1311
