60218 60570 60570 60400 60218 60311 59624 59296 58881 61449 64370 65084 65342 65382 65378 65371 65327 65309 65338 65365 65385 65382 65387 65384 65383 65389 65397 65405 65412 65417 65425 65423 65419 65413 65406 65417 65414 65435 65435 65430 65428 65432 65420 65423 65428 65426 65416 65416 65410 65406 65404 65402 65391 65371 65382 65391 65407 65437 65431 65432 65437 65437 65437 65435 65436 65437 65431 65431 65424 65420 65420 65424 65427 65434 65427 65429 65432 65428 65425 65420 65412 65401 65338 65275 65337 65349 65357 65370 65379 65389 65402 65387 65305 65215 65285 65389 65416 65420 65425 65428 65432 65434 65423 65428 65424 65426 65421 65426 65430 65432 65427 65428 65434 65432 65432 65434 65433 65430 65432 65430 65430 65429 65426 65426 65420 65417 65431 65437 65443 0 65448 65445 65447 0 65442 65443 65440 0 0 0 0 0 0 0 0 0 0 0 0 0 65442 65430 65409 65415 65417 65416 65410 65414 65414 65408 65379 65365 65358 65359 65357 65353 65353 65353 65349 65349 65344 65341 65340 65330 65305 65269
60218 61295 60400 60973 60218 60486 59505 60400 63642 64935 65290 65379 65386 65383 65380 65376 65369 65349 65317 65341 65372 65397 65403 65406 65406 65404 65401 65403 65406 65413 65419 65411 65395 65395 65432 65433 65427 65425 65437 65439 65432 65432 65426 65433 65432 65426 65419 65413 65410 65399 65398 65399 65394 65373 65376 65403 65429 65438 65438 65437 65437 65432 65433 65433 65434 65436 65438 65432 65431 65428 65424 65422 65417 65413 65418 65416 65409 65399 65384 65348 65314 65316 65336 65357 65364 65376 65381 65384 65392 65399 65413 65412 65391 65285 65335 65431 65430 65424 65419 65427 65431 65436 65428 65430 65426 65421 65422 65427 65426 65428 65428 65427 65431 65430 65431 65433 65428 65431 65429 65430 65427 65426 65425 65417 65429 65436 65439 65443 65444 65448 65450 65448 65446 65445 0 65447 65441 65458 0 0 0 0 65460 0 0 0 0 65459 65455 65452 65442 65436 65406 65421 65417 65418 65417 65416 65413 65381 65368 65364 65363 65358 65357 65356 65353 65347 65350 65353 65349 65343 65339 65323 65288 65232
60624 61041 59848 60486 59954 60056 62180 64574 65182 65363 65383 65383 65380 65380 65373 65373 65371 65369 65364 65342 65329 65368 65391 65402 65410 65413 65417 65416 65412 65412 65409 65392 65416 65441 0 0 0 65390 65434 65433 65429 65427 65430 65432 65433 65424 65422 65422 65414 65409 65403 65386 65386 65369 65382 65433 65443 65443 65439 65438 65434 65432 65431 65432 65432 65433 65433 65433 65435 65429 65423 65408 65387 65363 65345 65341 65344 65359 65360 65367 65369 65363 65375 65391 65392 65383 65371 65373 65388 65408 65426 65429 65428 65428 65430 65434 65419 65400 65393 65412 65429 65433 65425 65426 65419 65428 65425 65426 65427 65429 65428 65426 65432 65433 65431 65431 65429 65427 65427 65424 65425 65423 65424 65436 65443 65442 65446 65450 65448 65449 65447 65444 65444 65447 65449 65446 65446 0 0 0 0 0 0 0 0 0 0 0 65458 65449 65444 65436 65407 65423 65419 65418 65418 65419 65386 65372 65368 65365 65364 65360 65358 65360 65355 65356 65355 65351 65346 65340 65329 65310 65258 65180
60570 60854 60854 60486 62142 64174 64973 65293 65374 65384 65379 65377 65377 65372 65370 65369 65369 65372 65372 65370 65365 65349 65358 65385 65402 65406 65413 65418 65417 65411 65397 65380 65440 0 0 0 0 65390 65377 65413 65416 65417 65412 65426 65427 65424 65426 65422 65405 65408 65397 65385 65360 65364 65422 65439 65442 65440 65438 65435 65433 65430 65431 65427 65429 65426 65427 65419 65406 65384 65359 65343 65355 65372 65383 65393 65393 65404 65406 65400 65412 65409 65409 65421 65424 65429 65418 65411 65419 65423 65428 65428 65427 65427 65432 65425 65407 65379 65386 65406 65427 65436 65428 65428 65430 65424 65423 65425 65424 65427 65425 65429 65432 65430 65424 65430 65426 65426 65424 65422 65428 65434 65439 65442 65450 65450 0 65451 0 65446 65450 65446 65446 0 0 65450 0 0 0 0 0 0 0 0 0 0 0 65460 65456 65450 65443 65431 65409 65423 65421 65420 65418 65385 65374 65372 65370 65369 65364 65364 65363 65360 65357 65357 65357 65352 65346 65341 65320 65282 65220 65068
61041 60854 62380 64277 64964 65254 65352 65371 65374 65372 65377 65371 65367 65369 65371 65367 65369 65370 65374 65375 65379 65388 65393 65380 65382 65397 65409 65412 65420 65415 65386 65399 0 0 0 0 0 65434 65337 65312 65318 65349 65356 65378 65394 65403 65407 65406 65398 65392 65383 65360 65333 65388 65427 65429 65433 65428 65428 65422 65418 65413 65411 65403 65394 65370 65348 65341 65356 65367 65388 65398 65402 65407 65410 65409 65410 65410 65417 65416 65412 65418 65423 65431 65418 65426 65428 65430 65430 65432 65429 65429 65429 65436 65428 65425 65386 65376 65370 65404 65433 65433 65427 65432 65428 65424 65424 65425 65422 65424 65423 65428 65424 65428 65427 65425 65421 65422 65422 65435 65439 65445 0 0 65452 0 65454 0 0 65448 65449 65446 65448 65448 65451 0 65452 0 0 0 0 0 0 0 0 0 0 0 65457 65451 65443 65434 65416 65421 65421 65421 65391 65377 65375 65376 65371 65366 65366 65368 65365 65363 65361 65360 65355 65352 65344 65327 65293 65237 65137 64966
61172 62644 64828 65264 65359 65369 65374 65370 65366 65372 65372 65366 65365 65369 65365 65369 65371 65371 65370 65381 65388 65401 65406 65407 65393 65378 65396 65405 65415 65411 65384 65389 0 0 0 0 0 65431 65374 65354 65336 65381 65388 65373 65351 65337 65343 65331 65315 65308 65307 65291 65297 65372 65371 65370 65360 65349 65340 65338 65339 65333 65332 65332 65342 65362 65372 65386 65398 65389 65372 65402 65410 65409 65414 65413 65419 65418 65419 65423 65426 65427 65433 65436 65435 65424 65423 65431 65429 65435 65437 65434 65435 65432 65429 65423 65393 65378 65379 65407 65428 65431 65432 65425 65425 65423 65423 65421 65426 65423 65421 65424 65427 65424 65424 65425 65428 65435 65439 65443 65449 65450 65454 65455 65455 0 0 65456 0 65451 65449 65447 65446 65449 0 65453 0 0 0 0 0 0 0 0 0 0 0 0 0 65453 65443 65433 65428 65427 65419 65394 65382 65379 65376 65373 65371 65371 65368 65365 65372 65367 65365 65360 65358 65352 65336 65307 65262 65171 65012 64955
61295 63726 65227 65373 65379 65375 65371 65366 65364 65362 65363 65365 65363 65364 65368 65367 65369 65370 65374 65378 65384 65393 65402 65405 65405 65406 65387 65397 65403 65405 65392 65359 65437 0 0 0 0 0 65434 65431 65402 65351 65381 65396 65388 65379 65372 65363 65362 65357 65349 65351 65358 65368 65374 65381 65386 65384 65383 65385 65388 65387 65389 65396 65395 65401 65409 65407 65417 65419 65417 65413 65422 65420 65417 65425 65424 65427 65427 65430 65435 65430 65432 65433 65434 65435 65423 65433 65437 65439 65440 65434 65430 65425 65426 65431 65404 65383 65380 65414 65426 65424 65427 65426 65425 65423 65418 65422 65422 65424 65426 65429 65426 65428 65437 65441 65445 65448 65452 0 65454 0 65455 0 65455 65453 65454 65451 0 0 0 0 65447 65449 0 0 0 0 0 0 0 0 0 0 0 0 0 0 65458 65451 65446 65436 65437 65433 65429 65408 65385 65381 65379 65375 65373 65374 65374 65372 65370 65366 65366 65366 65359 65347 65320 65276 65192 65050 64995 64858
60854 61996 64882 65353 65370 65367 65362 65352 65356 65356 65357 65356 65359 65362 65358 65362 65363 65360 65365 65367 65370 65374 65380 65389 65393 65398 65397 65389 65391 65403 65395 65354 65422 0 0 65437 0 0 65444 0 65434 65422 65385 65369 65375 65388 65384 65387 65386 65388 65385 65383 65382 65393 65396 65403 65402 65402 65402 65402 65403 65401 65401 65410 65414 65415 65416 65420 65423 65427 65430 65427 65425 65429 65428 65428 65425 65427 65434 65434 65438 65433 65434 65437 65435 65434 65427 65434 65434 65437 65436 65432 65427 65409 65405 65405 65400 65395 65399 65425 65431 65440 65430 65425 65427 65424 65424 65423 65427 65431 65441 65443 65447 65446 65451 65448 65450 65455 65454 0 65455 65455 0 65455 0 0 65448 65449 65450 65456 0 65453 65448 65449 0 65453 0 0 0 0 0 0 0 0 0 0 0 0 0 0 65448 65442 65437 65436 65434 65428 65401 65383 65380 65377 65378 65375 65374 65373 65373 65368 65366 65362 65356 65336 65291 65215 65092 64999 64952 64908
61789 61693 63326 65148 65340 65346 65345 65342 65346 65345 65343 65346 65343 65339 65340 65341 65348 65349 65349 65354 65362 65363 65358 65363 65367 65367 65372 65377 65372 65398 65394 65377 65368 65438 0 65431 0 0 0 0 65445 0 65425 65410 65353 65335 65370 65389 65393 65393 65391 65395 65395 65396 65402 65412 65414 65412 65414 65418 65414 65410 65414 65416 65424 65423 65423 65426 65428 65431 65435 65433 65433 65433 65434 65430 65429 65433 65435 65437 65437 65436 65433 65433 65432 65436 65431 65435 65437 65432 65433 65430 65409 65394 65396 65401 65413 65409 65419 65429 65437 65435 65429 65427 65421 65427 65435 65446 65447 65449 65451 65454 65454 65454 0 0 65456 0 0 65454 65454 0 65449 65450 65444 0 65446 65446 65445 65445 65453 0 65453 65451 65451 0 65456 0 0 0 0 0 0 0 0 0 0 0 65460 65457 65451 65444 65438 65436 65435 65434 65416 65384 65380 65383 65379 65376 65379 65377 65375 65375 65369 65363 65350 65313 65249 65132 65009 64998 64932 65005
61449 62347 63065 64134 65112 65251 65275 65271 65280 65289 65299 65302 65313 65320 65333 65360 65389 65403 65403 65403 65402 65403 65406 65410 65416 65415 65421 65422 65424 65420 65408 65392 65359 65402 65436 65414 0 0 0 0 0 0 0 65428 65417 65386 65378 65384 65394 65405 65404 65406 65406 65409 65411 65414 65415 65421 65419 65423 65419 65421 65420 65422 65426 65426 65425 65428 65432 65433 65435 65432 65435 65435 65436 65435 65438 65436 65435 65436 65432 65434 65434 65433 65434 65434 65434 65435 65436 65427 65419 65400 65395 65390 65397 65421 65426 65420 65423 65431 65433 65428 65431 65438 65445 65449 65452 65454 65453 65455 0 0 0 65456 0 0 65456 0 0 0 65450 65447 65447 65446 65444 65442 65441 65444 65442 65442 65444 65451 0 65456 0 65452 65454 65456 0 0 0 0 0 0 0 0 0 0 0 65455 65449 65445 65440 65439 65436 65430 65406 65387 65386 65382 65383 65383 65381 65380 65377 65372 65365 65357 65333 65281 65175 65016 65041 64941 65018 65040
63065 63758 64272 64591 64579 64553 64610 64615 64675 64748 64996 65219 65365 65410 65420 65425 65424 65424 65421 65426 65426 65426 65429 65427 65430 65433 65434 65436 65431 65436 65426 65426 65394 65346 65378 65374 65431 0 0 0 65431 65438 65434 65422 65423 65423 65407 65397 65400 65408 65411 65413 65412 65412 65416 65418 65421 65427 65429 65427 65423 65426 65426 65423 65427 65423 65426 65432 65435 65436 65430 65433 65437 65439 65437 65441 65439 65441 65439 65435 65431 65435 65435 65436 65434 65436 65435 65433 65432 65418 65399 65394 65383 65394 65399 65433 65422 65426 65434 65432 65440 65443 0 65454 65456 0 65454 0 65456 0 0 0 0 0 65456 0 0 0 65452 65449 65447 65446 65443 65442 65444 65442 65439 65441 65438 65439 65444 65445 65449 0 0 0 65453 65454 0 0 0 65460 0 0 0 0 0 0 65454 65449 65448 0 65439 65439 65430 65415 65398 65390 65388 65386 65386 65382 65381 65381 65378 65371 65364 65348 65304 65220 65064 65056 64966 65001 65075 65025
64411 64682 64732 64723 64678 64624 64547 64556 64568 64426 64708 65191 65357 65421 65424 65427 65419 65423 65429 65429 65430 65434 65434 65432 65431 65436 65438 65440 65441 65442 65436 65443 65432 65391 65314 65388 65401 65422 65415 65418 65438 65442 0 65439 65427 65402 65405 65409 65410 65415 65418 65418 65416 65416 65415 65422 65426 65427 65430 65429 65429 65427 65425 65431 65430 65432 65429 65432 65436 65436 65434 65442 0 65444 65440 65441 65440 65441 65440 65441 65436 65433 65433 65432 65435 65437 65436 65435 65426 65401 65408 65399 65388 65398 65408 65431 65426 65440 65448 0 0 65458 0 0 0 65457 65456 0 0 65456 0 65456 65454 65454 65451 65450 65451 65447 65445 65445 65443 65446 65441 65442 65441 65439 65438 65440 65438 65439 65444 65442 65444 65449 65455 65458 65454 65452 0 65455 65455 65455 65456 65457 65456 0 0 65453 65451 65449 65446 65442 65437 65423 65413 65408 65397 65392 65392 65390 65388 65385 65383 65382 65375 65368 65354 65325 65269 65139 65054 65033 64999 65079 65093 65015
64972 64839 64774 64785 64802 64797 64869 64878 64819 64869 65191 65299 65330 65393 65425 65426 65424 65427 65428 65434 65433 65433 65434 65437 65436 65438 65440 65440 65443 65439 65443 65444 65445 65432 65365 65381 65394 65369 65411 0 0 0 0 0 65441 65426 65419 65401 65422 65417 65421 65425 65423 65420 65416 65419 65426 65424 65427 65428 65425 65425 65423 65425 65430 65435 65434 65437 65438 65434 65438 65443 0 65443 0 65441 65442 65442 65441 65440 65438 65436 65428 65432 65436 65438 65437 65426 65402 65402 65400 65390 65384 65403 65434 65438 65454 0 0 65460 0 0 0 0 65458 0 0 65455 65457 65455 65455 65451 65449 0 65446 65445 65443 65446 0 65442 65440 65440 65439 65437 65440 65438 65438 65442 65440 65441 65441 65443 65445 65444 65448 65455 0 65453 0 65451 65453 0 65454 65454 0 65452 0 65450 65448 65446 65440 65432 65418 65412 65406 65401 65399 65393 65393 65391 65388 65384 65381 65378 65373 65361 65335 65295 65206 65071 65079 64975 65069 65118 65100 65012
65056 64953 64875 64864 64937 64989 64965 64875 64911 65183 65284 65323 65337 65356 65415 65425 65427 65429 65429 65432 65435 65436 65432 65437 65440 65438 65442 65440 65440 65443 65442 65444 65439 65426 65404 65351 65369 65362 65394 0 0 0 0 0 0 65440 65427 65423 65423 65425 65418 65423 65423 65423 65422 65422 65422 65425 65419 65426 65424 65427 65426 65428 65435 65434 65437 65439 65433 65431 65441 65443 65446 0 65444 65442 65441 65444 65443 65439 65436 65436 65432 65435 65436 65435 65428 65406 65397 65401 65396 65392 65405 65436 0 0 65455 0 0 0 65456 0 0 0 0 0 65457 65452 65454 65449 65449 65443 65441 65440 65440 65438 65440 65438 65437 65437 65438 65436 65435 65434 65435 65438 65442 65441 65440 65439 65443 65445 65444 65444 0 65449 65454 65457 65454 65452 65449 65448 65452 65450 65450 65450 65447 65449 65443 65434 65424 65418 65413 65406 65404 65402 65397 65393 65393 65392 65393 65387 65383 65377 65365 65345 65313 65244 65102 65098 64981 65070 65119 65115 65098 64997
65099 65008 64948 65010 65038 64999 64899 64910 65153 65260 65309 65334 65344 65355 65397 65425 65427 65431 65431 65434 65434 65434 65439 65438 65437 65438 65441 65441 65439 65437 65436 65432 65432 65432 65423 65390 65345 65313 65375 65428 0 0 0 0 0 65442 65424 65424 65425 65434 65423 65425 65423 65423 65424 65420 65422 65421 65425 65429 65423 65426 65431 65433 65433 65435 65432 65438 65435 65434 65440 65443 0 0 0 65444 0 65443 65445 65440 65441 65440 65435 65435 65433 65425 65405 65396 65400 65407 65416 65427 65448 65454 65456 0 65454 65455 65456 0 0 65454 0 0 65448 0 0 65451 65445 65446 65441 65437 65440 65437 65438 65437 65438 65437 65439 65440 65440 65441 65440 65440 65444 65443 65445 65443 65445 65446 0 65447 65444 65447 65444 65447 65449 65451 0 0 65452 65450 0 0 65449 65447 65445 65438 65427 65419 65413 65412 65410 65405 65403 65402 65401 65397 65397 65397 65391 65387 65380 65369 65353 65319 65269 65159 65107 65047 65035 65137 65149 65142 65095 65051
65043 65010 65024 65056 65016 64930 64860 65109 65233 65288 65317 65337 65349 65360 65378 65420 65430 65431 65431 65429 65435 65438 65436 65439 65436 65438 65436 65437 65433 65433 65430 65431 65432 65433 65428 65414 65381 65290 65361 65392 65430 0 0 0 0 0 65433 65421 65405 65415 65422 65426 65426 65427 65424 65423 65423 65426 65427 65424 65428 65428 65432 65439 65432 65434 65435 65435 65433 65434 65441 0 65444 65447 0 65442 0 0 65445 65440 65441 65439 65435 65429 65425 65418 65411 65409 65413 65431 65448 65454 0 65459 0 65454 0 65453 65454 65454 65454 65453 65450 65448 0 65447 65445 65444 65439 65433 65440 65438 65440 65439 65439 65439 65441 65440 65442 65442 65440 65444 65440 65445 65443 65444 65443 65443 65446 65444 65445 65445 65444 65445 65443 65447 65448 0 65454 0 65460 65454 65450 65449 65445 65439 65429 65422 65420 65417 65411 65408 65405 65407 65405 65403 65401 65400 65399 65395 65389 65387 65374 65361 65329 65285 65196 65112 65101 65052 65135 65158 65160 65153 65090 65172
65038 65042 65039 65045 64976 64881 65024 65207 65273 65305 65323 65338 65353 65362 65375 65408 65423 65432 65431 65433 65434 65437 65435 65436 65438 65429 65432 65427 65427 65426 65430 65430 65429 65431 65432 65431 65414 65376 65300 65399 65410 65429 0 0 0 0 0 0 65421 65421 65402 65415 65428 65431 65428 65429 65422 65428 65428 65426 65429 65429 65431 65435 65434 65434 65437 65434 65432 65437 65440 65442 65445 65445 65439 65441 0 65444 65443 65439 65442 65436 65434 65432 65423 65419 65421 65428 65445 0 65457 0 65456 0 65455 0 0 0 65453 0 65451 65450 65449 65446 65449 0 65448 65445 65439 65442 65443 65440 65442 65444 65444 65445 65447 65444 65448 65444 65447 65445 65445 65447 65443 65447 65443 65447 65445 65445 65443 65443 65446 65445 65446 65447 65447 65450 65448 0 65458 0 65455 65436 65432 65427 65424 65421 65416 65414 65414 65409 65409 65408 65407 65405 65403 65398 65399 65397 65392 65385 65368 65337 65291 65216 65106 65123 65036 65117 65167 65174 65161 65155 65058 65301
65035 65065 65050 65028 64927 64901 65158 65246 65281 65309 65327 65342 65354 65367 65380 65396 65426 65433 65435 65433 65433 65427 65430 65432 65428 65428 65426 65423 65426 65425 65425 65426 65424 65422 65425 65423 65428 65410 65368 65342 65405 65415 0 0 0 0 0 0 65439 65432 65420 65408 65428 65430 65431 65432 65430 65427 65423 65425 65429 65432 65432 65434 65434 65435 65434 65438 65434 65436 65443 65445 65447 0 65444 65444 65444 65443 65440 65442 65438 65437 65437 65428 65423 65420 65435 65455 0 0 65457 0 0 0 65454 65455 0 65451 0 0 65451 65450 65450 0 0 65453 0 65452 65450 65446 65446 65450 65447 65445 65445 0 65448 65447 0 65449 65450 65445 65449 65445 65446 65446 65446 65448 65443 65446 65442 65448 65446 65448 65448 65446 65447 65443 65449 65451 65449 65453 65435 65429 65420 65421 65420 65419 65417 65412 65409 65411 65410 65409 65406 65404 65405 65401 65399 65397 65387 65379 65353 65307 65227 65115 65148 65056 65102 65168 65178 65174 65171 65145 65053 65381
65045 65061 65058 65010 64869 65058 65217 65266 65298 65318 65334 65348 65359 65369 65380 65391 65419 65434 65434 65430 65428 65426 65424 65421 65421 65422 65420 65419 65417 65417 65418 65418 65414 65414 65412 65411 65406 65402 65391 65359 65366 65391 0 0 0 0 0 0 65445 65439 65430 65416 65431 65432 65431 65433 65428 65430 65427 65422 65428 65433 65433 65434 65436 65436 65437 65433 65435 65439 65446 65447 0 65446 0 0 65446 65438 65440 65442 65437 65437 65433 65432 65425 65437 0 65454 0 0 65453 0 0 65453 65453 0 0 0 65453 65454 65454 0 0 0 0 0 0 65451 65456 0 65447 65448 0 65452 65453 65447 65453 65456 65450 65451 65451 65450 65449 65447 65449 65445 65449 65447 65447 65447 65445 65445 65445 65447 65445 65447 65444 65446 65447 65446 65445 65427 65423 65421 65423 65420 65419 65417 65415 65413 65410 65411 65411 65409 65407 65406 65403 65404 65402 65397 65385 65367 65330 65244 65125 65143 65099 65099 65167 65187 65179 65174 65180 65141 65086 65410
65050 65068 65056 64973 64862 65150 65242 65280 65304 65323 65337 65349 65360 65373 65382 65391 65407 65433 65427 65425 65421 65418 65415 65412 65415 65412 65414 65412 65411 65409 65406 65405 65402 65400 65403 65403 65408 65414 65418 65409 65366 65386 65400 65433 0 0 0 0 0 0 65434 65415 65427 65436 65434 65429 65431 65434 65428 65426 65431 65434 65432 65434 65436 65438 65438 65437 65439 65443 0 65446 65447 0 0 65445 65445 65438 65438 65440 65438 65433 65431 65433 65436 65453 65455 65455 65454 0 65453 65451 65454 65454 65455 0 0 0 65455 0 0 65459 0 0 0 0 65449 0 0 0 65458 0 65455 0 0 65444 65451 65453 0 0 65452 65451 65450 65453 65448 65450 65448 65448 65447 65446 65446 65445 65446 65445 65446 65446 65445 65442 65445 65444 65422 65420 65421 65422 65421 65419 65419 65415 65417 65414 65411 65411 65410 65411 65410 65406 65406 65406 65402 65393 65378 65349 65285 65154 65137 65130 65085 65170 65204 65208 65194 65182 65174 65124 65189 65420
65064 65083 65064 64950 64905 65182 65255 65286 65313 65332 65345 65354 65365 65372 65381 65386 65398 65409 65421 65417 65416 65413 65409 65409 65410 65411 65408 65404 65402 65399 65405 65403 65405 65409 65415 65415 65424 65428 65429 65429 65406 65357 65398 65418 65414 0 0 0 0 0 65442 65436 65422 65421 65430 65432 65434 65433 65429 65430 65426 65429 65432 65431 65436 65439 65439 65439 65440 0 65444 65446 0 65448 65446 65443 65444 65438 65437 65438 65435 65430 65434 65440 0 0 65454 65454 0 0 65455 0 0 65457 0 0 0 0 0 0 0 0 0 0 0 0 65449 0 0 0 0 0 0 0 0 65446 65436 0 65452 65452 65453 65451 65452 65450 65449 65451 65449 65450 65448 65449 65447 65445 65445 65445 65443 65444 65447 65446 65443 65422 65419 65421 65421 65421 65420 65419 65417 65417 65415 65415 65414 65413 65414 65411 65409 65409 65406 65405 65400 65387 65362 65315 65201 65117 65158 65078 65160 65204 65219 65205 65203 65188 65170 65100 65314 65429
65087 65087 65076 64953 64938 65194 65269 65297 65318 65336 65348 65356 65366 65376 65381 65390 65395 65400 65404 65401 65408 65404 65409 65404 65407 65405 65402 65404 65404 65409 65411 65414 65420 65420 65424 65425 65426 65422 65432 65429 65422 65391 65355 65405 65409 0 0 0 0 0 0 0 65441 65434 65426 65430 65435 65432 65428 65431 65431 65430 65429 65430 65436 0 65441 65440 0 65442 65446 65446 65445 0 65442 65440 65439 65438 65435 65435 65432 65432 65440 65448 65450 65454 65452 65455 0 0 0 0 0 0 0 0 0 0 0 0 0 0 0 0 0 0 65450 0 0 0 0 0 0 0 0 65445 0 65446 65453 65454 0 0 65453 65451 65452 65448 0 65447 65449 65449 65446 65447 65446 65449 65443 65447 65442 65439 65422 65421 65423 65422 65421 65418 65420 65419 65417 65413 65417 65415 65415 65414 65414 65412 65413 65410 65408 65402 65395 65373 65337 65255 65113 65174 65084 65147 65204 65219 65222 65213 65202 65192 65172 65094 65383 65428
65083 65090 65074 64985 64923 65206 65271 65306 65323 65338 65350 65357 65368 65372 65382 65389 65393 65401 65407 65405 65399 65401 65405 65404 65403 65406 65410 65413 65416 65419 65423 65424 65426 65425 65427 65431 65429 65432 65430 65430 65430 65423 65398 65363 65389 65427 0 0 0 0 0 0 65448 65443 65430 65435 65435 65430 65429 65428 65430 65432 65426 65433 65440 65437 65441 65440 65443 65442 65444 65442 0 65440 65440 65440 65440 65435 65430 65433 65431 65446 65444 0 0 0 0 0 0 0 0 0 0 0 0 0 0 0 0 0 0 0 0 0 0 0 65450 0 0 0 0 0 0 0 0 0 0 0 0 0 65453 65449 65451 65451 65447 65450 65449 65447 65450 65443 65450 65444 65448 65447 65448 65445 65432 65420 65420 65422 65421 65421 65422 65419 65419 65419 65419 65413 65416 65416 65417 65417 65415 65413 65412 65411 65407 65400 65382 65353 65298 65164 65180 65115 65137 65198 65222 65213 65221 65222 65205 65184 65154 65138 65409 65428
65084 65101 65085 65020 64925 65194 65275 65309 65326 65339 65351 65360 65366 65374 65382 65386 65395 65399 65406 65412 65411 65405 65401 65403 65410 65413 65419 65423 65428 65429 65429 65430 65429 65431 65430 65433 65432 65433 65433 65427 65428 65430 65424 65396 65369 65392 65419 0 0 0 0 0 0 0 0 65440 65437 65433 65430 65427 65432 65430 65432 65435 65440 65439 65440 0 65438 65442 65437 65440 65444 65442 65440 65443 65441 65436 65431 65434 65446 65449 65444 0 0 0 0 0 0 0 0 0 0 0 0 0 0 0 0 0 0 0 0 0 0 0 65447 65454 0 0 0 0 0 0 0 0 0 0 65451 0 65450 65448 65450 65447 65450 65450 65447 65451 65445 65448 65446 65445 65447 65446 65447 65429 65422 65423 65423 65422 65423 65421 65421 65419 65419 65420 65420 65416 65417 65415 65417 65418 65416 65415 65412 65412 65404 65391 65366 65325 65218 65175 65154 65127 65195 65226 65234 65220 65220 65214 65205 65198 65153 65241 65419 65428
65085 65103 65091 65046 64929 65140 65263 65304 65325 65339 65351 65361 65367 65375 65378 65384 65391 65398 65401 65408 65412 65417 65413 65410 65413 65421 65426 65432 65431 65430 65433 65431 65429 65433 65436 65436 65433 65432 65433 65424 65424 65430 65430 65425 65411 65371 65402 65413 65429 0 65445 0 0 65446 65443 0 65439 65436 65431 65427 65431 65432 65432 65437 65439 65440 65440 65437 65435 65437 65442 0 65443 65443 0 65443 65439 65431 65431 65450 0 65447 0 0 0 0 0 0 0 0 65457 0 0 0 0 0 65456 0 0 0 0 65452 65448 65451 0 0 0 0 0 0 65453 0 0 0 0 0 0 0 0 65443 65448 65448 65447 65448 65446 65444 65449 65443 65448 65448 65448 65450 65442 65446 65423 65422 65422 65420 65423 65420 65424 65421 65422 65418 65421 65418 65419 65420 65416 65415 65417 65415 65416 65412 65411 65407 65397 65373 65338 65264 65180 65174 65115 65188 65235 65236 65235 65224 65228 65222 65214 65201 65139 65343 65425 65427
65096 65098 65104 65077 64977 64999 65216 65283 65316 65334 65348 65359 65366 65373 65379 65385 65391 65391 65401 65405 65408 65412 65419 65419 65411 65407 65414 65422 65429 65432 65436 65433 65436 65436 65436 65435 65434 65435 65434 65430 65433 65429 65429 65428 65431 65413 65382 65412 65430 65432 65444 0 0 0 0 65448 65436 65400 65434 65431 65434 65433 65433 65436 65434 65439 65439 65436 65436 65436 0 65443 65440 65439 65445 65442 65431 65430 65449 65451 65451 0 0 0 0 0 0 0 0 0 0 0 0 65451 0 65451 0 65449 0 0 0 65447 0 65448 65453 65452 0 0 0 0 0 0 0 0 0 0 0 0 0 65453 0 65449 65446 65447 65445 65447 65444 65446 65448 65445 65448 65445 65444 65423 65421 65421 65422 65423 65422 65422 65423 65421 65422 65418 65421 65417 65419 65420 65419 65420 65419 65419 65417 65413 65409 65404 65382 65350 65293 65197 65204 65124 65178 65230 65246 65237 65239 65236 65235 65217 65212 65187 65131 65392 65423 65424
65101 65104 65115 65096 65044 64952 65084 65240 65297 65322 65339 65352 65363 65368 65377 65385 65391 65394 65400 65404 65410 65413 65414 65420 65421 65422 65414 65407 65412 65409 65420 65429 65434 65435 65434 65432 65432 65429 65430 65428 65427 65423 65425 65429 65440 65442 65424 65384 65409 65428 0 0 0 0 0 0 65442 65438 65432 65434 65440 65440 65435 65438 65437 65438 65435 65431 65434 65438 65436 65437 65439 65434 65438 65433 65436 65449 0 65453 65456 0 0 65454 0 0 0 0 0 0 0 0 0 0 65448 65447 65448 65447 65450 65451 65450 0 65450 0 0 0 0 0 0 0 0 0 0 0 0 0 0 0 0 0 65456 0 0 65451 65449 65448 65447 65447 65445 65447 65446 65443 65423 65417 65423 65422 65422 65421 65422 65420 65422 65421 65421 65420 65419 65420 65421 65418 65421 65421 65419 65417 65415 65412 65405 65389 65357 65307 65211 65229 65142 65171 65233 65251 65255 65246 65245 65245 65236 65224 65225 65187 65185 65410 65423 65424
65098 65100 65124 65121 65097 65038 64966 65120 65252 65297 65327 65341 65353 65365 65373 65381 65389 65392 65394 65401 65405 65411 65414 65419 65419 65422 65422 65424 65420 65415 65403 65402 65408 65408 65421 65423 65425 65427 65427 65423 65426 65425 65423 65424 65424 65431 65435 65425 65400 65392 65429 65441 0 0 0 0 65443 65438 65438 65440 0 65443 0 65440 65441 65435 65429 65431 65437 65438 65435 65436 65438 65435 65435 65438 65448 65449 0 0 65454 0 0 0 65452 0 0 65451 65450 65447 0 65448 0 65448 65448 65448 0 0 65449 0 0 0 65449 65454 0 0 0 0 0 0 0 0 0 0 0 0 0 0 0 0 0 0 0 65457 0 65448 65448 65445 65445 65446 65432 65422 65422 65422 65423 65422 65419 65423 65422 65422 65422 65420 65420 65422 65421 65420 65422 65421 65420 65421 65415 65414 65413 65409 65395 65365 65316 65232 65241 65180 65151 65234 65257 65258 65252 65259 65253 65242 65239 65231 65226 65173 65298 65421 65423 65423
65109 65115 65123 65134 65126 65105 65031 64975 65142 65252 65300 65325 65339 65359 65371 65380 65383 65385 65396 65402 65405 65409 65411 65414 65420 65420 65425 65423 65429 65428 65428 65426 65418 65406 65400 65402 65408 65416 65415 65416 65420 65419 65417 65415 65415 65416 65422 65426 65426 65409 65391 65416 65433 65438 0 65444 65438 0 65440 65442 0 65441 65442 65438 65440 65435 65439 65439 65436 65434 65440 65437 65435 65440 0 65451 0 0 0 0 0 0 65450 65450 65446 0 65441 65439 65438 65437 65437 65438 65441 65443 65447 0 0 65454 65453 0 0 0 0 0 0 0 0 0 0 0 0 0 0 0 0 0 0 0 0 65449 65448 65444 65445 65444 65446 65452 65448 65447 65447 65432 65421 65423 65425 65420 65421 65423 65420 65423 65425 65423 65422 65422 65421 65423 65422 65419 65420 65422 65422 65420 65412 65414 65410 65399 65371 65328 65244 65252 65219 65159 65212 65257 65260 65255 65251 65254 65255 65248 65242 65238 65216 65150 65368 65422 65422 65422
65097 65105 65131 65132 65143 65146 65109 65042 64987 65146 65245 65299 65329 65350 65367 65379 65384 65390 65393 65397 65402 65409 65410 65415 65419 65421 65424 65428 65425 65428 65429 65427 65432 65432 65430 65419 65409 65407 65404 65407 65407 65411 65410 65409 65408 65402 65405 65404 65408 65409 65406 65392 65400 65420 65430 65433 65434 65438 65441 65441 65443 65443 65441 65437 65440 65441 0 65440 65436 65441 65436 65436 0 65453 0 0 0 0 0 0 65449 65450 0 65449 65450 65450 0 65449 65449 65448 65449 0 65451 65450 0 0 0 0 0 0 0 65455 0 0 0 0 0 0 0 0 0 0 0 0 0 65453 0 65453 65438 65438 65436 65436 65438 65449 65455 65452 65449 65446 65426 65421 65424 65422 65424 65423 65423 65422 65423 65422 65423 65423 65423 65423 65422 65421 65425 65418 65424 65423 65422 65419 65415 65412 65402 65378 65343 65263 65251 65253 65161 65219 65254 65261 65264 65265 65255 65262 65257 65253 65248 65233 65205 65169 65398 65422 65421 65419
65101 65100 65122 65139 65147 65154 65158 65113 65058 64998 65150 65251 65304 65334 65354 65370 65379 65385 65393 65399 65405 65407 65411 65413 65415 65421 65422 65425 65426 65427 65430 65431 65430 65432 65432 65432 65433 65432 65427 65413 65405 65409 65410 65413 65418 65419 65423 65423 65427 65427 65428 65431 65429 65420 65418 65421 65429 65432 65437 65440 65441 65440 65441 65442 65444 65446 65444 65443 65445 65444 65439 65448 0 0 0 0 0 0 0 0 65453 0 0 0 0 0 0 0 0 0 0 0 0 0 0 0 65453 0 0 0 0 0 0 0 65451 0 0 0 0 0 0 0 0 0 0 0 0 65450 65446 65448 65448 0 0 0 0 65453 0 65426 65426 65425 65424 65423 65422 65424 65424 65420 65424 65424 65423 65425 65424 65425 65422 65424 65424 65425 65425 65422 65421 65416 65413 65405 65389 65354 65282 65245 65272 65165 65200 65255 65268 65269 65273 65265 65268 65261 65258 65247 65242 65242 65189 65250 65414 65420 65420 65420
65112 65120 65125 65136 65137 65165 65166 65164 65138 65065 65011 65132 65259 65312 65342 65359 65375 65382 65390 65397 65400 65405 65407 65411 65415 65417 65419 65425 65421 65425 65429 65430 65430 65430 65431 65433 65432 65434 65434 65430 65425 65412 65425 65435 65432 65439 65436 65435 65436 65439 65439 65438 65440 65441 65442 65443 65445 0 0 65445 65439 65438 65441 65442 65447 65446 65445 65447 0 65438 65445 65452 0 0 0 0 0 0 0 0 0 0 0 0 0 0 0 0 0 0 0 0 0 65454 0 65453 0 0 0 0 0 0 0 0 65453 0 0 0 0 0 0 0 0 0 0 0 65456 0 0 65455 0 0 0 0 0 65445 65428 65427 65423 65424 65425 65425 65424 65425 65422 65425 65422 65425 65424 65424 65426 65425 65425 65427 65425 65425 65423 65424 65420 65416 65408 65393 65363 65307 65239 65284 65198 65197 65250 65264 65266 65268 65271 65267 65264 65260 65259 65252 65255 65241 65184 65344 65417 65421 65418 65419
65105 65128 65136 65146 65159 65168 65170 65180 65181 65152 65069 65010 65121 65258 65314 65341 65365 65375 65389 65395 65399 65403 65405 65411 65410 65416 65419 65420 65427 65430 65429 65421 65431 65432 65431 65432 65433 65433 65432 65432 65433 65431 65417 65423 65435 0 65442 0 65441 0 65443 65443 0 65443 65444 0 0 65446 0 0 65449 65446 65443 65444 65444 65448 0 65447 65444 65449 0 0 0 0 0 0 0 0 0 0 0 0 0 0 0 0 0 0 0 0 0 0 0 0 0 0 0 65452 0 0 0 0 0 0 0 0 0 0 0 0 65452 0 65452 0 0 0 0 0 0 0 0 0 0 0 65441 65430 65426 65426 65427 65425 65425 65425 65427 65423 65424 65425 65423 65425 65425 65425 65427 65427 65427 65426 65425 65425 65425 65422 65415 65412 65399 65374 65326 65239 65290 65225 65188 65250 65270 65272 65267 65258 65265 65268 65264 65265 65262 65252 65252 65229 65186 65387 65416 65417 65416 65415
65120 65140 65152 65158 65170 65170 65181 65178 65197 65196 65165 65086 65025 65137 65269 65318 65347 65368 65381 65391 65398 65402 65405 65409 65413 65412 65416 65422 65422 65427 65430 65428 65427 65426 65432 65432 65430 65432 65432 65432 65432 65433 65429 65422 65419 65436 65441 65444 65444 65445 0 65446 65448 0 0 0 0 65447 65446 0 0 0 65451 0 65452 65450 65450 0 0 0 0 0 0 0 0 0 65454 0 0 0 0 0 0 0 0 0 0 0 0 0 0 0 0 0 0 65454 0 0 0 0 0 0 0 0 0 0 0 0 0 0 65455 0 65452 0 65453 65453 0 0 0 0 0 0 0 65440 65433 65430 65428 65428 65427 65426 65426 65426 65426 65425 65425 65425 65427 65426 65426 65427 65427 65426 65426 65427 65428 65424 65423 65417 65412 65401 65382 65342 65257 65290 65253 65183 65242 65273 65274 65281 65275 65265 65268 65263 65257 65259 65259 65253 65249 65224 65236 65403 65413 65418 65414 65415
65125 65141 65149 65156 65173 65180 65189 65189 65190 65207 65209 65171 65105 65047 65142 65266 65323 65350 65370 65383 65394 65395 65404 65408 65410 65414 65417 65419 65420 65425 65426 65428 65429 65428 65431 65430 65431 65430 65433 65432 65427 65433 65434 65430 65424 65423 65433 65440 65441 65444 0 65446 0 65450 65448 0 0 65448 0 0 0 0 0 0 0 0 0 0 0 0 0 0 0 0 0 0 0 0 65454 0 0 0 0 0 0 0 0 0 0 0 0 0 0 0 0 0 65451 0 0 0 0 0 0 0 0 0 0 0 0 0 65453 0 0 0 0 0 0 0 0 0 0 65455 65440 65434 65430 65430 65426 65426 65427 65426 65427 65426 65426 65428 65426 65425 65426 65427 65428 65429 65425 65426 65430 65428 65426 65424 65420 65414 65402 65385 65353 65279 65281 65275 65181 65238 65276 65284 65282 65278 65276 65272 65276 65274 65270 65258 65257 65252 65253 65209 65322 65413 65416 65415 65415 65412
65130 65148 65150 65156 65176 65183 65194 65200 65200 65210 65220 65221 65188 65137 65070 65149 65273 65322 65351 65374 65385 65394 65398 65400 65410 65413 65414 65418 65418 65423 65426 65426 65427 65427 65429 65428 65430 65428 65432 65432 65432 65433 65433 65432 65433 65425 65423 65437 65440 0 65445 0 0 0 0 0 0 0 0 0 0 0 0 0 0 0 0 0 0 0 0 0 0 0 0 0 0 65452 0 0 0 0 0 0 0 0 0 0 0 0 0 0 0 0 0 0 0 0 0 0 0 0 0 0 0 0 0 0 0 0 0 0 0 0 0 0 0 0 0 0 0 65441 65434 65432 65432 65429 65429 65428 65427 65428 65427 65428 65427 65428 65424 65428 65429 65429 65428 65430 65429 65430 65427 65428 65427 65424 65416 65405 65389 65362 65297 65279 65296 65186 65224 65272 65281 65285 65279 65278 65279 65275 65282 65276 65275 65268 65269 65260 65245 65195 65378 65415 65413 65414 65412 65413
65143 65154 65149 65147 65176 65178 65194 65205 65208 65217 65222 65223 65219 65195 65135 65061 65153 65270 65327 65357 65373 65384 65396 65401 65402 65410 65415 65416 65420 65422 65424 65423 65427 65427 65429 65430 65430 65430 65428 65432 65432 65433 65434 65434 65433 65436 65423 0 65437 0 0 0 65449 0 0 65446 0 65448 0 0 0 0 0 0 0 0 0 0 0 0 0 0 0 0 0 0 0 0 0 0 0 0 0 0 0 0 0 0 0 0 0 0 0 0 0 0 0 0 0 0 0 0 0 0 0 0 0 0 0 0 0 0 0 0 0 0 0 0 0 0 65438 65435 65433 65431 65431 65431 65431 65428 65428 65426 65427 65425 65429 65429 65429 65429 65425 65431 65429 65430 65431 65427 65427 65424 65425 65419 65410 65391 65370 65313 65275 65305 65191 65223 65271 65287 65278 65278 65283 65283 65285 65283 65277 65273 65278 65267 65269 65260 65234 65231 65398 65412 65413 65412 65408 65408
65150 65161 65157 65166 65178 65185 65202 65204 65220 65225 65230 65231 65241 65235 65208 65116 65102 65157 65271 65332 65358 65373 65386 65389 65402 65408 65412 65417 65420 65417 65423 65426 65422 65426 65428 65427 65430 65430 65431 65432 65431 65431 65434 65432 65433 65433 65431 0 0 65443 0 0 0 0 0 0 0 0 0 0 0 0 0 0 0 0 0 0 0 0 0 0 0 0 0 0 0 0 0 0 0 0 0 0 0 0 0 0 0 0 0 0 65454 0 0 0 0 0 0 0 0 0 0 0 0 0 0 0 0 0 0 0 0 0 0 0 0 0 65443 65433 65436 65433 65430 65431 65432 65429 65429 65429 65427 65427 65430 65430 65428 65430 65429 65429 65431 65432 65430 65430 65427 65429 65427 65424 65418 65410 65396 65373 65324 65266 65307 65229 65222 65262 65294 65295 65280 65272 65273 65273 65285 65280 65276 65268 65267 65260 65265 65268 65216 65305 65409 65411 65411 65410 65408 65407
65151 65158 65171 65168 65184 65197 65210 65216 65222 65223 65235 65239 65244 65250 65235 65182 65146 65162 65208 65273 65329 65358 65374 65387 65397 65404 65412 65414 65417 65417 65420 65423 65426 65426 65430 65428 65430 65430 65432 65432 65433 65432 65433 65434 65435 65436 65434 65446 0 65445 0 0 0 0 0 65451 0 0 0 0 0 0 0 0 0 0 0 0 0 0 0 0 0 0 65453 0 0 0 0 0 0 0 0 0 0 65456 0 0 0 0 0 0 0 0 0 0 0 0 0 65455 0 0 0 0 0 0 0 0 0 0 0 0 0 0 0 0 0 65440 65437 65437 65434 65432 65433 65432 65431 65429 65431 65430 65429 65429 65427 65432 65429 65432 65429 65433 65432 65433 65431 65430 65431 65427 65424 65420 65414 65401 65378 65337 65265 65306 65259 65216 65269 65281 65299 65302 65288 65282 65282 65278 65279 65274 65280 65273 65267 65266 65266 65263 65210 65370 65412 65409 65409 65410 65405 65406
65136 65158 65174 65184 65185 65202 65219 65225 65228 65238 65241 65251 65248 65256 65258 65223 65160 65236 65322 65228 65268 65323 65357 65378 65389 65400 65406 65412 65414 65415 65422 65423 65425 65428 65425 65427 65432 65432 65432 65430 65432 65431 65435 65435 65433 65435 65432 65431 0 0 0 0 0 0 0 0 0 65447 0 0 0 0 0 0 0 0 0 0 0 0 0 0 0 0 0 0 0 0 0 0 0 0 0 0 0 0 0 0 0 0 0 0 0 0 0 0 0 0 0 0 0 0 0 0 0 0 0 0 0 0 0 0 0 0 0 0 65440 65437 65436 65434 65434 65431 65432 65433 65430 65431 65429 65431 65429 65430 65432 65432 65430 65430 65431 65431 65434 65431 65432 65431 65428 65426 65420 65414 65405 65382 65344 65268 65304 65274 65212 65264 65294 65297 65291 65304 65287 65287 65293 65287 65276 65267 65274 65279 65270 65268 65263 65246 65232 65393 65408 65409 65408 65406 65404 65401
65158 65170 65185 65188 65194 65210 65226 65233 65241 65241 65232 65249 65248 65252 65259 65236 65168 65221 65332 65359 65229 65265 65325 65359 65380 65391 65403 65407 65411 65414 65420 65420 65421 65425 65426 65430 65430 65429 65431 65433 65434 65434 65434 65430 65437 65437 65439 65435 65437 0 0 65448 0 0 0 0 0 0 65448 0 0 0 0 0 0 0 0 0 0 0 0 0 0 0 0 0 0 0 0 0 0 0 0 0 0 0 0 0 0 0 0 0 0 0 0 0 0 0 0 0 0 0 0 0 0 0 0 0 0 0 0 0 0 0 65446 65439 65437 65437 65429 65433 65434 65432 65430 65433 65433 65431 65432 65432 65432 65432 65430 65433 65433 65432 65433 65433 65432 65433 65430 65427 65427 65425 65416 65405 65388 65352 65274 65302 65288 65219 65269 65297 65303 65302 65300 65304 65296 65297 65294 65290 65280 65281 65273 65271 65266 65273 65264 65240 65302 65401 65409 65408 65407 65406 65401 65404
65164 65158 65191 65200 65210 65212 65226 65229 65242 65243 65243 65246 65245 65259 65264 65248 65208 65179 65306 65392 65359 65234 65261 65322 65360 65378 65393 65403 65404 65415 65417 65419 65424 65426 65427 65429 65430 65430 65431 65432 65433 65433 65433 65434 65435 65438 65437 65437 65431 65439 65446 65446 0 0 65446 65449 65451 0 65447 65447 0 0 0 0 0 0 0 0 0 0 0 0 0 0 0 0 0 0 0 0 0 0 0 0 0 0 0 0 0 0 0 0 0 0 0 0 0 0 0 0 0 0 0 0 0 0 0 0 0 0 0 0 0 65441 65439 65437 65436 65436 65434 65435 65433 65430 65433 65433 65431 65431 65431 65434 65433 65432 65433 65434 65435 65432 65433 65433 65433 65432 65429 65427 65424 65418 65409 65392 65358 65290 65311 65290 65217 65250 65304 65308 65313 65312 65303 65299 65298 65302 65291 65286 65283 65283 65273 65270 65271 65263 65255 65228 65364 65409 65406 65404 65406 65405 65400 65399
65171 65181 65196 65198 65213 65221 65218 65237 65246 65249 65248 65250 65257 65262 65262 65259 65238 65174 65262 65382 65399 65352 65239 65256 65320 65359 65378 65393 65405 65411 65416 65420 65423 65426 65428 65429 65431 65432 65430 65431 65429 65434 65435 65435 65437 65435 0 65438 65435 65428 0 0 65449 0 0 0 0 65448 0 0 0 0 0 0 0 0 0 0 0 0 0 0 0 0 0 0 0 0 0 0 0 0 0 0 0 0 0 0 0 0 0 0 0 0 0 0 0 0 65452 0 0 0 0 0 0 0 65452 65454 0 0 0 0 65437 65437 65436 65435 65436 65437 65434 65432 65434 65433 65433 65432 65431 65433 65430 65434 65433 65432 65435 65433 65435 65435 65435 65433 65431 65431 65428 65425 65419 65408 65394 65365 65297 65332 65301 65215 65260 65295 65316 65309 65309 65312 65299 65309 65301 65298 65294 65284 65291 65283 65283 65279 65274 65267 65253 65238 65388 65406 65403 65404 65402 65401 65401 65398
65181 65188 65206 65205 65211 65225 65224 65236 65249 65246 65248 65250 65255 65264 65268 65261 65249 65209 65215 65335 65405 65398 65361 65247 65248 65320 65357 65381 65393 65403 65412 65417 65421 65424 65426 65429 65429 65431 65431 65432 65432 65434 65435 65435 65437 65436 65438 65438 65439 65439 65429 65443 0 0 0 65447 0 0 0 0 0 65449 0 0 0 0 0 0 0 0 0 0 0 0 0 0 0 0 0 0 0 0 0 0 0 0 0 0 0 0 0 0 0 0 65453 0 0 0 0 0 65454 0 0 0 0 0 0 0 0 0 0 65435 65437 65435 65436 65434 65437 65435 65435 65432 65432 65434 65432 65434 65435 65431 65434 65433 65434 65435 65434 65430 65437 65436 65435 65433 65429 65428 65425 65420 65412 65399 65373 65308 65333 65331 65215 65257 65302 65312 65315 65314 65313 65310 65307 65307 65297 65295 65298 65289 65296 65291 65283 65282 65280 65274 65245 65300 65397 65404 65404 65403 65399 65401 65399 65398
65193 65210 65214 65221 65219 65228 65232 65240 65243 65248 65247 65258 65261 65262 65269 65267 65269 65240 65192 65291 65396 65404 65393 65361 65164 65232 65313 65358 65382 65394 65405 65413 65417 65423 65425 65423 65427 65430 65429 65432 65435 65432 65434 65435 65438 65435 65438 65440 65439 65441 65441 65426 65444 0 0 65446 65447 0 0 65447 65448 0 0 0 0 0 0 0 0 0 0 0 0 0 0 0 0 0 0 0 0 0 0 0 0 0 0 0 0 0 0 0 0 0 0 0 0 0 0 65452 0 0 0 0 0 0 0 0 0 65438 65435 65435 65435 65436 65434 65433 65434 65435 65434 65434 65435 65436 65433 65434 65433 65432 65435 65436 65436 65436 65437 65436 65435 65435 65434 65434 65430 65426 65421 65414 65404 65383 65322 65319 65351 65235 65248 65299 65314 65319 65314 65314 65317 65310 65309 65304 65291 65302 65303 65291 65295 65292 65291 65288 65283 65274 65233 65360 65403 65403 65401 65398 65399 65396 65397 65395
65212 65218 65224 65222 65216 65230 65234 65239 65243 65244 65242 65261 65258 65260 65263 65266 65273 65262 65211 65246 65368 65406 65406 65393 65278 65096 65231 65316 65359 65383 65393 65406 65414 65421 65425 65426 65425 65424 65431 65432 65434 65434 65431 65437 65439 65438 65439 0 65441 65440 65440 65441 65427 65446 0 0 0 65447 0 65448 0 0 0 0 0 0 0 0 0 0 0 0 0 0 0 0 0 0 0 0 0 0 0 0 0 0 0 0 0 0 0 0 0 65454 0 0 0 0 0 0 0 0 0 0 0 0 0 0 65436 65435 65435 65437 65434 65436 65435 65434 65436 65434 65432 65435 65436 65435 65432 65432 65434 65436 65436 65435 65437 65434 65436 65436 65436 65432 65433 65429 65428 65423 65414 65405 65387 65341 65309 65361 65270 65241 65290 65317 65321 65319 65324 65316 65313 65314 65312 65298 65297 65300 65304 65302 65292 65289 65287 65291 65283 65270 65243 65384 65400 65402 65398 65399 65398 65398 65394 65394
65217 65221 65220 65219 65216 65231 65234 65237 65246 65245 65251 65256 65251 65262 65264 65269 65272 65265 65244 65200 65319 65404 65407 65405 65372 65108 65130 65219 65310 65358 65382 65397 65409 65414 65420 65425 65425 65427 65430 65429 65433 65434 65435 65433 65437 65438 0 65440 65437 65442 0 65443 65440 65429 0 0 0 0 0 0 0 0 65450 0 0 0 0 0 0 0 0 0 0 0 0 0 0 0 0 0 0 0 0 0 0 0 0 0 0 0 0 0 0 0 0 0 0 0 0 0 0 0 0 0 0 0 65445 65436 65436 65437 65436 65435 65435 65436 65435 65435 65436 65435 65435 65436 65434 65434 65435 65436 65437 65436 65435 65437 65437 65438 65435 65436 65433 65434 65429 65429 65424 65416 65406 65388 65351 65306 65362 65318 65243 65279 65315 65324 65322 65318 65324 65315 65310 65314 65306 65304 65304 65304 65304 65301 65292 65288 65296 65290 65283 65258 65307 65395 65401 65395 65398 65397 65393 65395 65394 65389
65213 65221 65223 65220 65225 65230 65234 65233 65241 65248 65251 65257 65258 65257 65261 65272 65266 65266 65254 65207 65279 65389 65411 65413 65398 65255 65163 65138 65203 65308 65357 65382 65397 65406 65416 65419 65426 65427 65425 65430 65432 65433 65436 65433 65437 65437 65438 65438 65438 65441 65442 65443 65443 65437 65427 0 0 0 0 0 65446 65446 0 0 65450 65448 0 0 0 0 0 0 0 0 0 0 0 0 0 0 0 0 0 0 0 0 0 0 0 0 0 0 0 0 0 0 0 0 0 0 0 0 0 65452 0 65439 65436 65437 65436 65433 65436 65437 65436 65437 65437 65436 65437 65438 65436 65431 65436 65432 65436 65433 65438 65437 65439 65440 65438 65438 65438 65437 65434 65432 65429 65425 65417 65408 65394 65357 65300 65367 65337 65244 65290 65323 65330 65325 65323 65323 65320 65314 65311 65306 65304 65300 65303 65304 65301 65305 65305 65295 65296 65295 65284 65248 65358 65398 65395 65397 65398 65393 65391 65391 65387 65387
65213 65211 65221 65216 65226 65221 65236 65236 65234 65246 65246 65252 65260 65261 65261 65270 65270 65270 65269 65241 65227 65344 65411 65417 65414 65386 65220 65190 65148 65208 65304 65354 65382 65395 65408 65416 65421 65425 65427 65429 65433 65432 65435 65437 65437 65433 65438 0 65440 65442 65441 65443 65442 65445 65434 65429 0 0 0 0 0 65446 0 65448 0 0 0 0 0 0 0 0 0 0 0 0 0 0 0 0 0 0 0 0 0 0 0 65452 0 0 0 0 0 0 0 0 0 0 0 0 0 0 0 0 65438 65435 65438 65436 65436 65436 65437 65438 65436 65436 65437 65436 65438 65437 65436 65434 65437 65436 65438 65438 65438 65439 65436 65438 65439 65437 65436 65435 65431 65432 65425 65418 65407 65391 65366 65305 65363 65346 65245 65283 65321 65333 65335 65328 65325 65327 65321 65316 65315 65315 65313 65306 65303 65304 65300 65302 65306 65296 65296 65293 65278 65265 65380 65395 65397 65396 65394 65390 65388 65389 65387 65386
65206 65209 65216 65220 65225 65227 65222 65236 65233 65239 65247 65256 65256 65253 65262 65267 65273 65278 65270 65253 65203 65302 65406 65423 65429 65420 65365 65236 65204 65150 65194 65298 65356 65379 65398 65407 65415 65421 65425 65424 65431 65434 65433 65432 65436 65438 65439 65440 65440 0 0 65443 65443 65443 0 65429 65435 65449 0 0 65447 0 0 0 0 65448 0 0 0 0 0 0 0 0 0 0 0 0 0 0 0 0 0 0 0 0 0 0 0 0 0 0 0 0 0 0 0 0 0 0 0 0 0 65438 65435 65438 65437 65437 65437 65434 65437 65438 65437 65436 65437 65437 65438 65437 65436 65438 65437 65438 65439 65438 65440 65439 65437 65438 65438 65435 65435 65433 65432 65428 65420 65406 65397 65368 65301 65360 65348 65248 65284 65315 65326 65328 65332 65327 65328 65328 65322 65314 65316 65316 65314 65309 65298 65305 65301 65306 65309 65298 65293 65290 65266 65321 65389 65395 65394 65394 65391 65389 65388 65386 65385 65384
65207 65215 65219 65221 65221 65231 65224 65240 65236 65244 65248 65248 65248 65258 65252 65264 65274 65277 65278 65257 65230 65252 65376 65427 65427 65424 65412 65369 65247 65205 65151 65186 65291 65351 65381 65397 65407 65415 65423 65423 65428 65430 65434 65434 65435 65439 65439 65438 65440 0 65441 65441 0 0 0 65443 65425 65442 0 0 0 0 0 65447 0 0 0 0 0 0 0 0 0 0 0 0 0 0 0 0 0 0 0 0 0 0 0 0 0 0 0 0 0 0 0 0 0 0 0 0 0 65442 65439 65439 65438 65438 65437 65436 65438 65437 65439 65439 65439 65438 65439 65439 65436 65439 65439 65438 65438 65437 65438 65440 65439 65438 65437 65437 65437 65435 65434 65432 65429 65421 65410 65391 65369 65306 65356 65355 65255 65275 65313 65325 65333 65327 65334 65330 65327 65321 65316 65317 65318 65318 65313 65313 65310 65308 65300 65305 65302 65293 65291 65286 65260 65362 65394 65392 65392 65387 65392 65388 65386 65384 65384 65381
65208 65206 65213 65218 65220 65233 65235 65231 65232 65238 65238 65247 65256 65260 65262 65269 65267 65278 65276 65275 65245 65215 65310 65400 65421 65418 65419 65409 65376 65255 65208 65172 65176 65286 65351 65380 65395 65408 65415 65421 65426 65425 65431 65433 65435 65435 65438 65437 65441 65441 0 65442 0 65444 0 0 0 65423 0 0 0 0 65447 65444 0 0 0 0 0 0 0 0 0 0 0 0 0 0 65453 0 0 0 0 0 0 0 0 0 0 0 0 0 0 65452 0 0 0 0 0 0 65440 65440 65438 65437 65438 65436 65438 65439 65438 65438 65438 65438 65439 65438 65438 65436 65439 65438 65437 65439 65438 65437 65438 65438 65438 65439 65436 65438 65436 65435 65429 65430 65420 65410 65395 65369 65312 65350 65356 65268 65277 65314 65332 65337 65336 65337 65332 65333 65325 65324 65316 65318 65316 65315 65317 65309 65308 65291 65296 65300 65299 65296 65295 65287 65289 65380 65388 65392 65387 65387 65389 65386 65386 65383 65380 65376
65212 65205 65213 65213 65218 65220 65226 65229 65232 65235 65244 65247 65261 65261 65261 65263 65269 65275 65281 65286 65264 65216 65224 65306 65390 65415 65416 65415 65409 65382 65265 65211 65178 65180 65274 65339 65380 65396 65405 65413 65420 65427 65428 65431 65432 65435 65438 65441 65440 65438 65439 65443 0 0 65444 0 0 65434 65429 0 0 0 0 0 65447 0 65449 0 0 0 0 0 0 0 0 0 0 0 0 0 0 0 0 0 0 0 0 0 0 0 0 0 0 0 0 0 0 0 0 65439 65439 65440 65437 65437 65437 65438 65439 65439 65438 65439 65438 65438 65439 65439 65438 65438 65439 65439 65440 65440 65442 65437 65440 65440 65440 65439 65435 65439 65434 65432 65429 65423 65413 65398 65367 65308 65346 65359 65279 65281 65319 65335 65337 65334 65333 65327 65336 65333 65330 65320 65320 65319 65319 65318 65315 65314 65306 65303 65304 65294 65300 65297 65294 65273 65337 65389 65390 65388 65387 65387 65385 65384 65380 65381 65377 65379
65235 65222 65221 65219 65216 65221 65215 65231 65233 65238 65245 65250 65259 65256 65262 65274 65273 65268 65284 65287 65283 65254 65214 65245 65303 65381 65410 65413 65409 65405 65384 65268 65232 65192 65181 65267 65340 65374 65392 65402 65415 65421 65425 65428 65430 65436 65438 65439 65440 65439 0 65441 65442 65445 65445 0 0 65446 65430 65438 0 0 0 0 0 0 65449 0 0 0 0 0 0 0 0 0 0 0 0 0 0 0 0 0 0 0 0 0 0 0 0 0 0 0 0 0 0 65445 65438 65440 65440 65439 65437 65439 65439 65440 65438 65439 65440 65437 65439 65439 65439 65440 65440 65436 65439 65442 65439 65439 65439 65440 65441 65440 65441 65437 65438 65437 65431 65430 65423 65412 65397 65366 65305 65341 65362 65289 65277 65318 65343 65340 65337 65332 65334 65336 65337 65335 65330 65318 65320 65327 65321 65317 65314 65313 65306 65316 65305 65299 65298 65296 65292 65278 65370 65391 65389 65387 65386 65384 65384 65382 65379 65376 65374 65374
65251 65228 65221 65223 65218 65224 65225 65228 65240 65243 65251 65251 65253 65249 65255 65272 65272 65272 65277 65288 65285 65272 65228 65256 65325 65310 65379 65411 65411 65414 65410 65391 65289 65229 65202 65183 65256 65330 65369 65386 65405 65412 65419 65425 65430 65435 65437 65438 65439 0 65441 65443 65442 65442 65444 0 0 0 0 65424 0 0 0 0 0 0 0 0 0 0 0 0 0 0 0 65450 0 0 0 0 65449 0 65451 0 0 0 0 0 0 0 0 0 0 0 0 0 65444 65440 65439 0 65439 65440 65441 65437 65439 65438 65439 65439 65437 65441 65439 65437 65439 65436 65441 65440 65441 65440 65441 65440 65442 65440 65440 65440 65441 65438 65436 65433 65430 65425 65414 65398 65368 65309 65339 65362 65297 65271 65308 65336 65348 65339 65340 65335 65333 65333 65338 65335 65332 65318 65322 65327 65323 65317 65320 65320 65314 65310 65306 65306 65303 65299 65284 65310 65385 65390 65384 65385 65383 65381 65380 65378 65377 65374 65372 65370
65257 65241 65226 65204 65214 65220 65222 65232 65227 65241 65247 65251 65252 65251 65260 65261 65274 65280 65282 65285 65292 65277 65247 65260 65335 65345 65303 65375 65410 65412 65413 65411 65396 65312 65242 65222 65188 65249 65320 65360 65385 65402 65412 65421 65424 65426 65432 65436 65439 65439 65440 65439 65443 0 65440 0 65445 65445 65446 65442 65430 0 0 0 0 0 0 0 0 0 65449 0 0 0 0 0 0 0 0 0 0 0 0 0 0 0 0 0 0 0 0 0 0 0 0 65443 65440 65440 65439 65441 65438 65441 65439 65440 65441 65438 0 65439 65441 65439 65438 65441 65440 65440 65441 65442 65443 65441 65441 65443 65442 65441 65441 65440 65439 65439 65436 65431 65425 65416 65398 65373 65306 65329 65361 65306 65271 65307 65327 65339 65339 65338 65345 65337 65341 65337 65334 65338 65334 65329 65330 65327 65321 65319 65320 65318 65312 65307 65299 65303 65300 65298 65281 65359 65390 65387 65384 65382 65381 65379 65372 65374 65373 65372 65368 65367
65257 65235 65223 65214 65217 65217 65220 65222 65231 65241 65245 65252 65258 65255 65260 65270 65277 65276 65282 65284 65285 65285 65268 65233 65312 65374 65346 65303 65366 65410 65411 65415 65411 65401 65334 65255 65232 65188 65235 65303 65358 65384 65400 65410 65420 65425 65426 65434 65435 65435 65438 65439 65440 0 0 0 65444 0 0 0 65437 0 0 0 0 0 0 0 0 0 0 0 0 0 0 0 0 0 0 0 0 0 0 0 0 0 0 0 0 0 0 0 0 65448 65443 65439 0 65440 65441 65439 65437 65439 65441 65440 65441 65441 65440 65439 65441 0 65441 0 65442 65441 65442 65442 65440 65444 65441 65442 65441 65441 65441 65439 65439 65437 65431 65424 65411 65404 65376 65316 65330 65362 65317 65262 65301 65334 65337 65324 65318 65338 65344 65338 65340 65331 65334 65338 65335 65330 65325 65323 65321 65322 65315 65314 65310 65308 65298 65299 65297 65295 65291 65377 65389 65383 65383 65380 65379 65374 65373 65372 65371 65368 65367 65366
65250 65235 65223 65213 65213 65227 65218 65232 65234 65235 65246 65251 65255 65260 65266 65267 65271 65275 65274 65282 65291 65293 65277 65254 65277 65359 65380 65345 65307 65363 65409 65414 65415 65414 65406 65353 65260 65239 65198 65222 65286 65351 65381 65399 65409 65419 65427 65431 65434 65435 65437 65438 65439 65441 0 65442 65443 0 0 0 0 65425 65445 0 0 0 0 0 0 0 0 0 0 0 0 0 0 0 0 0 0 0 0 0 0 0 0 0 0 0 0 0 0 65442 65442 65442 65441 0 65441 65440 65441 0 0 65440 65440 65440 65441 65438 65441 65442 65441 65442 65441 65443 65443 65441 65442 65442 65443 65443 65442 65441 65441 65440 65437 65432 65426 65414 65404 65382 65325 65328 65363 65320 65267 65314 65337 65347 65353 65349 65356 65355 65347 65343 65337 65326 65332 65336 65331 65318 65324 65323 65318 65318 65324 65320 65311 65308 65302 65294 65298 65293 65330 65386 65385 65380 65378 65375 65373 65369 65370 65369 65369 65365 65361 65361
65238 65237 65221 65222 65212 65219 65229 65230 65232 65228 65239 65246 65253 65264 65263 65274 65279 65282 65280 65287 65297 65292 65284 65279 65248 65325 65382 65378 65349 65302 65354 65410 65416 65415 65416 65410 65368 65268 65243 65208 65211 65273 65343 65378 65397 65412 65419 65427 65431 65436 65435 65438 65441 65441 65440 65442 0 65443 65445 65446 0 65443 65433 0 0 0 0 0 0 0 0 0 0 0 0 65452 0 0 0 0 0 0 0 0 0 0 0 0 0 0 0 0 0 65442 65442 0 65440 65442 65441 65443 65439 65441 65441 65441 65440 65441 65443 65440 65441 65441 65442 65441 65443 65442 65444 65443 65444 65442 65443 65443 65441 65440 65440 65437 65436 65426 65417 65406 65385 65331 65322 65363 65328 65272 65311 65343 65351 65351 65354 65367 65372 65367 65358 65343 65334 65335 65333 65334 65331 65322 65328 65323 65323 65324 65322 65314 65315 65311 65302 65297 65298 65290 65362 65384 65381 65378 65377 65374 65374 65371 65365 65368 65364 65362 65359 65356
65212 65219 65234 65229 65223 65214 65220 65231 65232 65241 65239 65243 65255 65257 65257 65270 65277 65280 65285 65290 65292 65295 65303 65292 65253 65291 65372 65387 65378 65346 65280 65352 65408 65412 65417 65418 65409 65382 65282 65251 65210 65197 65271 65336 65373 65398 65411 65421 65427 65431 65436 65436 65436 65439 65442 65443 65442 65445 0 0 0 65447 0 0 65448 0 0 0 0 0 0 0 0 0 0 0 0 0 0 0 0 0 0 0 0 0 0 0 0 0 65445 65442 65443 65442 65439 65441 65442 65442 65442 65442 65442 65443 65443 65442 65440 65441 65439 65442 0 65443 65443 65444 0 65444 65444 65443 65442 65442 65442 65441 65442 65441 65438 65435 65430 65419 65407 65386 65338 65321 65358 65330 65270 65316 65339 65347 65349 65348 65344 65349 65360 65367 65357 65339 65338 65338 65337 65337 65334 65331 65324 65327 65330 65325 65322 65317 65314 65310 65296 65294 65297 65303 65370 65388 65382 65376 65372 65372 65370 65368 65363 65362 65361 65360 65357 65353
65181 65199 65221 65234 65230 65224 65222 65226 65236 65246 65239 65245 65252 65253 65253 65266 65273 65277 65283 65286 65295 65299 65304 65299 65282 65264 65336 65383 65385 65368 65282 65269 65344 65406 65413 65415 65419 65415 65394 65296 65252 65221 65202 65257 65321 65369 65399 65411 65420 65423 65432 65435 65438 65439 65441 65441 0 65443 65444 0 0 0 0 65429 0 0 0 65448 0 0 0 0 0 0 0 0 0 0 0 0 0 0 0 0 0 0 0 0 0 65444 65443 65442 65442 65443 65442 65443 65441 65441 65442 65441 65443 65442 65441 65443 65442 65443 0 0 65441 65445 65442 65443 65445 65443 65444 65442 65444 65441 65440 65441 65440 65436 65435 65429 65422 65410 65389 65343 65318 65358 65333 65268 65309 65343 65348 65347 65339 65343 65337 65343 65352 65346 65345 65339 65338 65337 65335 65332 65331 65332 65327 65329 65326 65319 65316 65318 65312 65306 65296 65299 65288 65339 65381 65383 65379 65371 65370 65370 65369 65365 65362 65359 65359 65356 65351 65351
65169 65190 65202 65211 65221 65226 65228 65240 65247 65241 65235 65242 65247 65254 65267 65269 65275 65274 65281 65288 65298 65305 65304 65301 65288 65255 65301 65376 65380 65377 65347 65261 65267 65336 65402 65415 65417 65418 65415 65403 65321 65268 65243 65202 65243 65313 65366 65397 65411 65417 65427 65431 65434 65437 65439 65441 65441 65443 0 65444 0 65446 0 65442 65434 0 0 0 0 0 0 0 0 0 0 0 0 0 0 0 0 0 0 0 0 0 0 65448 65444 65443 65444 0 0 0 0 65443 65443 65442 65443 0 65442 65440 65442 0 65443 65443 65442 65445 65444 65445 0 0 65444 0 0 65442 65443 65441 65442 65438 65439 65435 65428 65420 65411 65394 65351 65318 65361 65336 65274 65311 65345 65353 65352 65343 65338 65344 65341 65350 65346 65345 65340 65340 65342 65337 65332 65331 65328 65326 65328 65325 65319 65319 65321 65315 65314 65307 65305 65303 65292 65356 65381 65384 65375 65370 65369 65369 65367 65362 65358 65353 65353 65352 65347 65345
65167 65171 65183 65202 65212 65215 65225 65251 65257 65259 65256 65243 65248 65255 65265 65266 65279 65280 65285 65293 65296 65299 65300 65302 65304 65281 65275 65345 65381 65383 65367 65300 65274 65261 65329 65397 65415 65417 65422 65419 65408 65342 65274 65241 65188 65232 65305 65363 65395 65408 65413 65426 65430 65433 65436 65440 65440 65442 0 65442 65443 0 0 65447 65434 0 65445 0 0 0 0 0 0 0 0 0 0 0 0 0 0 0 0 0 0 0 0 65445 0 65442 65441 65443 65444 65442 65443 0 65441 0 65442 0 65442 65441 65443 65443 65441 0 65444 65444 65444 65444 65445 65445 65445 65442 65446 65441 65442 65443 65441 65438 65434 65431 65419 65412 65393 65357 65315 65361 65339 65275 65301 65340 65353 65355 65351 65348 65348 65351 65349 65347 65339 65343 65334 65336 65342 65335 65331 65333 65326 65333 65327 65319 65315 65318 65326 65316 65310 65300 65303 65297 65312 65366 65378 65380 65375 65368 65366 65362 65362 65360 65355 65352 65350 65348 65341 65342
65145 65162 65163 65172 65197 65211 65231 65241 65256 65263 65277 65271 65261 65262 65260 65257 65271 65281 65285 65291 65304 65303 65299 65294 65306 65294 65266 65311 65375 65377 65374 65343 65297 65279 65264 65323 65394 65415 65420 65420 65422 65410 65365 65265 65252 65225 65219 65292 65355 65391 65410 65419 65425 65429 65432 65437 0 65441 0 0 0 0 0 0 65446 65434 65439 0 65447 0 0 0 0 0 0 0 0 0 0 0 0 0 0 0 0 65447 0 65444 65443 65441 65443 0 65444 0 65443 65442 65443 65444 0 65442 65444 0 65443 65442 65446 65444 0 65444 65445 65446 65443 65443 0 65445 65445 65443 65442 65441 65438 65433 65430 65420 65410 65393 65354 65320 65361 65342 65280 65306 65334 65352 65360 65355 65353 65353 65350 65354 65345 65342 65339 65343 65334 65337 65342 65336 65333 65334 65334 65325 65328 65324 65322 65319 65320 65314 65310 65306 65301 65294 65341 65373 65377 65376 65369 65366 65362 65361 65359 65357 65354 65350 65346 65342 65337 65334
65136 65156 65159 65169 65193 65213 65221 65235 65248 65267 65276 65283 65277 65272 65269 65259 65269 65278 65286 65293 65302 65305 65301 65304 65307 65304 65283 65289 65352 65379 65379 65362 65312 65313 65295 65260 65316 65384 65419 65422 65423 65422 65417 65384 65290 65273 65227 65217 65274 65348 65389 65405 65416 65425 65430 65433 65435 65438 0 65441 0 0 0 0 65447 65446 65433 65438 0 0 0 0 0 0 0 0 0 0 0 0 0 0 0 0 0 0 0 65443 65443 65443 65443 0 0 0 65442 65441 65441 0 0 65444 65444 65445 65444 0 65445 65444 0 65446 0 65446 0 65445 65445 0 65442 65442 0 65438 65436 65429 65420 65407 65392 65355 65319 65362 65345 65271 65309 65340 65356 65360 65357 65353 65350 65356 65358 65351 65344 65348 65344 65341 65342 65339 65343 65336 65335 65329 65325 65325 65329 65329 65329 65323 65318 65315 65309 65311 65308 65300 65356 65371 65374 65374 65367 65363 65360 65356 65357 65355 65350 65346 65342 65339 65333 65329
65138 65152 65165 65180 65185 65184 65213 65220 65237 65252 65267 65268 65273 65283 65288 65284 65280 65281 65287 65294 65296 65304 65306 65307 65307 65310 65297 65275 65322 65376 65380 65369 65338 65327 65318 65301 65267 65311 65379 65420 65418 65423 65422 65420 65399 65307 65275 65237 65220 65264 65334 65383 65403 65414 65421 65427 65433 65436 65439 65441 65441 0 65444 0 65445 0 65446 65434 65442 0 0 0 0 0 0 0 0 0 0 0 0 0 0 0 0 0 0 65443 65443 65444 65444 0 65444 0 65444 65444 65444 0 0 65446 65445 0 0 0 0 65446 65445 0 0 65446 65445 65446 65444 65442 65444 65440 65438 65435 65429 65421 65409 65389 65352 65324 65367 65347 65284 65308 65339 65356 65356 65357 65347 65344 65352 65353 65358 65350 65345 65346 65348 65338 65345 65348 65344 65335 65342 65335 65327 65328 65331 65330 65330 65321 65319 65311 65309 65316 65305 65328 65363 65367 65373 65371 65365 65360 65357 65354 65354 65351 65348 65343 65338 65336 65332 65324
65132 65134 65157 65169 65178 65187 65192 65214 65226 65240 65255 65263 65262 65260 65278 65281 65295 65301 65289 65289 65297 65300 65304 65306 65307 65304 65302 65287 65296 65358 65378 65374 65359 65323 65332 65324 65316 65276 65303 65367 65418 65421 65422 65427 65422 65405 65335 65284 65268 65234 65257 65326 65376 65399 65411 65419 65428 65432 65435 0 65440 0 65444 65444 65445 0 0 65446 65432 65442 0 0 0 0 0 0 0 0 0 0 0 0 0 0 65445 0 65444 65445 65445 0 0 65444 0 65445 0 0 65446 0 0 0 65446 0 0 0 65446 0 0 0 65446 65446 65446 65444 65444 65442 65442 65440 65438 65432 65417 65408 65389 65347 65322 65370 65354 65284 65315 65348 65360 65363 65362 65356 65352 65351 65349 65356 65352 65346 65345 65346 65343 65348 65349 65346 65345 65343 65343 65332 65329 65328 65326 65323 65322 65322 65319 65314 65311 65309 65296 65345 65362 65363 65367 65367 65362 65356 65353 65352 65349 65344 65342 65337 65334 65328 65323 65320
65117 65132 65148 65163 65180 65183 65194 65209 65216 65230 65235 65257 65264 65257 65264 65268 65278 65299 65305 65307 65304 65295 65300 65296 65302 65307 65308 65299 65286 65329 65374 65376 65367 65337 65333 65333 65334 65318 65283 65297 65360 65415 65425 65425 65424 65422 65414 65356 65288 65273 65238 65236 65308 65365 65395 65410 65419 65426 65431 65436 65437 65440 65440 0 65443 0 0 0 0 65440 65442 0 0 0 0 0 0 0 0 0 0 0 0 0 0 0 0 0 0 0 0 0 65445 0 65444 0 65445 0 0 65447 65446 65445 0 65445 0 0 65447 0 65446 65445 65446 0 65443 65442 65437 65438 65431 65421 65405 65384 65342 65326 65371 65354 65295 65316 65345 65359 65367 65361 65362 65355 65350 65348 65355 65355 65348 65346 65347 65343 65345 65351 65348 65344 65346 65343 65340 65333 65327 65329 65325 65323 65318 65323 65324 65320 65314 65305 65319 65355 65361 65362 65366 65365 65361 65354 65350 65347 65341 65343 65337 65332 65332 65326 65322 65314
65110 65124 65148 65161 65174 65186 65185 65197 65211 65224 65231 65250 65267 65273 65269 65251 65264 65278 65294 65304 65312 65313 65310 65299 65300 65305 65310 65305 65297 65309 65362 65376 65372 65357 65331 65328 65338 65334 65316 65294 65290 65349 65411 65423 65425 65427 65427 65420 65378 65297 65283 65262 65238 65291 65355 65389 65407 65417 65423 65428 65434 65437 65439 65440 0 65444 65446 0 0 0 65449 0 0 0 0 0 0 0 0 0 0 65447 0 0 0 0 0 0 0 0 0 0 0 65446 0 65447 0 65446 0 65447 0 0 0 0 0 65447 65446 0 0 0 65445 65443 65439 65439 65436 65431 65422 65406 65380 65331 65327 65373 65354 65290 65314 65348 65362 65361 65361 65361 65362 65356 65356 65357 65355 65352 65351 65345 65342 65344 65344 65351 65344 65345 65344 65338 65337 65331 65328 65334 65325 65320 65320 65324 65323 65318 65316 65307 65338 65359 65356 65360 65363 65365 65357 65349 65345 65344 65342 65338 65334 65330 65325 65319 65313 65308
65105 65128 65135 65143 65158 65172 65181 65187 65202 65216 65223 65232 65259 65266 65275 65268 65266 65271 65278 65286 65299 65306 65321 65323 65313 65313 65309 65309 65302 65295 65335 65375 65376 65365 65342 65332 65339 65334 65337 65326 65302 65288 65341 65401 65426 65426 65428 65428 65423 65397 65310 65294 65269 65240 65275 65340 65384 65402 65418 65422 65426 65431 65436 65438 65442 65443 0 0 0 0 0 0 0 0 0 0 0 0 0 0 0 0 0 0 0 0 0 0 65447 0 65448 0 0 0 0 0 0 0 0 0 65448 0 0 0 0 0 65446 0 65446 0 65445 65442 65439 65436 65430 65420 65406 65380 65333 65334 65373 65358 65297 65325 65349 65362 65362 65360 65364 65365 65362 65357 65359 65360 65357 65351 65351 65342 65343 65344 65343 65351 65344 65340 65337 65332 65333 65335 65332 65330 65320 65320 65324 65318 65321 65321 65309 65318 65351 65359 65357 65356 65362 65362 65355 65346 65342 65340 65337 65332 65328 65321 65321 65317 65310 65302
65104 65102 65126 65137 65149 65172 65178 65176 65198 65217 65218 65225 65228 65253 65276 65279 65273 65270 65273 65282 65282 65296 65305 65311 65320 65331 65328 65320 65309 65294 65316 65364 65374 65374 65356 65343 65338 65334 65343 65343 65334 65314 65291 65333 65392 65426 65428 65427 65426 65426 65408 65334 65296 65283 65254 65261 65327 65371 65396 65412 65419 65426 65429 65435 65436 65440 65442 0 65446 0 0 0 0 0 0 0 0 0 0 0 0 0 0 0 0 0 0 0 0 0 0 0 65449 0 0 0 65447 65448 65447 65446 0 0 0 65445 0 0 0 0 65444 0 65442 65441 65434 65433 65424 65407 65384 65333 65333 65373 65355 65295 65324 65354 65361 65365 65363 65362 65366 65369 65363 65356 65357 65358 65359 65357 65357 65350 65346 65344 65345 65351 65347 65345 65343 65336 65334 65335 65335 65333 65322 65321 65322 65322 65315 65315 65310 65345 65367 65362 65358 65355 65359 65356 65350 65345 65340 65338 65333 65330 65326 65319 65316 65310 65302 65299
65083 65102 65118 65128 65156 65164 65176 65182 65194 65208 65215 65215 65212 65237 65262 65285 65282 65272 65274 65279 65281 65287 65289 65289 65303 65316 65327 65340 65334 65314 65313 65339 65374 65374 65361 65343 65336 65336 65338 65343 65341 65331 65322 65291 65325 65387 65419 65427 65429 65429 65427 65416 65363 65300 65294 65266 65253 65304 65363 65395 65409 65417 65426 65430 65434 65437 65441 0 65444 65445 65446 0 0 0 0 0 0 0 0 0 0 0 0 0 0 0 0 0 65447 0 65449 0 0 65447 0 0 65448 0 0 65448 0 0 0 0 0 0 65446 0 65444 65444 65443 65436 65435 65423 65410 65385 65338 65336 65375 65353 65301 65326 65352 65367 65368 65367 65369 65365 65371 65363 65360 65361 65354 65358 65358 65356 65355 65353 65350 65348 65348 65350 65354 65349 65341 65343 65338 65331 65333 65333 65330 65322 65322 65319 65312 65311 65317 65355 65368 65363 65356 65353 65356 65354 65346 65339 65334 65331 65328 65323 65320 65317 65312 65304 65299 65290
65074 65076 65109 65126 65145 65157 65161 65166 65181 65205 65212 65211 65227 65233 65259 65272 65283 65281 65275 65276 65283 65286 65289 65286 65295 65299 65319 65324 65334 65341 65331 65322 65358 65364 65341 65316 65343 65335 65340 65340 65347 65338 65340 65321 65301 65320 65373 65420 65426 65429 65426 65430 65422 65388 65314 65296 65263 65248 65296 65349 65386 65406 65417 65422 65427 65434 65438 0 0 65443 0 0 0 0 0 0 0 0 0 0 0 0 0 0 0 0 0 0 0 0 0 0 0 0 0 0 0 0 0 0 0 0 0 65447 0 65445 0 65444 65444 65443 65438 65435 65426 65411 65387 65345 65341 65371 65356 65301 65325 65354 65363 65364 65371 65371 65370 65369 65368 65365 65363 65360 65357 65356 65359 65358 65359 65355 65354 65349 65348 65350 65348 65341 65344 65342 65333 65331 65329 65328 65328 65325 65317 65316 65308 65298 65311 65345 65353 65352 65354 65353 65356 65349 65345 65335 65332 65326 65324 65318 65315 65310 65303 65296 65289 65284
