13659 13388 12755 9331 5456 6018 7252 7855 8393 9004 9342 9560 9828 10185 10457 10886 11202 11457 11390 10960 11546 11052 11313 11030 11143 10913 10679 10644 10584 10773 10854 11081 11524 11465 11720 12117 11940 11512 12491 12269 11388 8933 6197 6891 7143 65533 65533 65533 65533 65533 65533 65533 10112 9537 8895 9189 9831 9548 9428 9715 9814 9880 9827 10043 10806 65533 11315 11538 65533 11502 12356 12082 12167 65533 11609 11469 11378 11386 11070 11303 11053 11426 12939 13767 14396 14934 14323 15133 65533 65533 65533 65533 65533 65533 65533 65533 65533 65533 65533 65533 65533 65533 65533 65533 65533 65533 14022 65533 65533 65533 65533 65533 65533 65533 65533 13508 65533 14012 15271 15313 65533 65533 15038 14786 14747 14334 65533 14185 14466 14483 14158 14160 14061 14750 13798 14572 13941 13449 11527 11547 11834 11683 11729 11572 11595 11730 11479 11298 11665 11553 11582 11502 11723 11743 12012 11774 11967 11462 11147 9986 8431 6572 5203 6579 8438 13035 15317 16125 16689 16333 16084 15857 15083 11465 14594 18779
13550 13388 12743 9920 5478 6197 7329 8095 8630 8930 9300 9560 9889 9981 10447 10870 11106 11667 11977 11565 10941 10713 10966 10634 10637 10726 10993 10993 11489 11410 11796 11775 11990 11938 11916 12374 12258 12497 12219 12278 12268 11397 9193 6171 6337 8255 65533 65533 65533 65533 65533 65533 10981 10549 9265 9643 9817 9585 9658 9605 9941 10141 9736 10341 11121 10857 11399 11294 11663 11583 11921 11606 10962 11483 11467 11634 11602 11194 10721 11378 11269 13528 13292 13474 65533 65533 65533 65533 65533 65533 65533 65533 65533 65533 65533 65533 65533 65533 65533 65533 65533 65533 65533 65533 65533 65533 14190 65533 65533 65533 65533 65533 65533 65533 65533 65533 65533 65533 65533 65533 14790 14221 14648 14573 13912 14616 14433 14055 14603 13282 14574 13829 14482 14283 14604 13903 12469 11299 11264 11547 11543 11488 11693 11482 11398 11505 11497 11191 11471 11591 11771 11834 11808 11813 11973 11821 11823 11424 10427 9093 7323 5503 6473 7842 12349 14720 15917 15689 16376 16693 15941 15465 13958 10197 16480 18838
13599 13423 12743 10612 6251 6029 7553 8258 8750 9104 9611 9678 9903 10136 10470 10618 11196 11272 11732 12265 11858 11086 10634 10568 10890 11052 11401 11784 12221 12402 12275 12370 12295 12295 12138 12689 12356 12470 12462 11991 11989 12085 11340 9005 6355 6487 7902 65533 65533 65533 65533 65533 65533 65533 65533 10119 10055 9950 9709 9531 10028 9941 10268 10560 11188 11028 11429 65533 11126 11773 11064 11544 12021 11890 11558 12059 11926 11352 11011 11669 13532 14189 13362 65533 65533 65533 65533 65533 65533 65533 65533 65533 65533 65533 65533 65533 65533 65533 65533 65533 65533 65533 65533 65533 65533 65533 13721 14383 65533 65533 65533 65533 65533 65533 65533 65533 65533 65533 14509 65533 14433 14172 14293 13819 14445 14334 13912 14706 13583 14184 14014 13785 14206 14232 14207 12042 11290 11325 11518 11380 11464 11373 11613 11393 11443 11649 11488 11364 11563 11370 11780 11946 11874 11993 11878 12168 11655 10874 9682 8134 5972 6181 7251 11407 14531 15791 16454 16253 16322 16213 15830 15958 14026 10450 17604 18874
13797 13478 13257 11420 7290 5797 7340 8114 8761 9179 9441 9657 9851 10250 10215 10366 10687 11093 11192 11711 12031 12254 11774 11125 11002 11592 12067 12640 12496 12633 12675 12275 12234 12403 12920 12831 12542 12426 12435 11527 11430 12050 12017 11449 10047 6683 6901 7566 8763 65533 10631 65533 65533 10837 10575 65533 10459 10140 9950 9752 10037 10228 10405 10833 11217 11542 11567 11025 10962 11143 11873 65533 12038 12122 65533 12101 11675 11059 11376 14117 65533 13743 65533 65533 65533 65533 65533 65533 65533 65533 15397 65533 65533 65533 65533 65533 15183 14734 65533 65533 65533 13963 13805 14156 65533 65533 65533 65533 65533 14944 14414 65533 65533 65533 65533 65533 65533 65533 65533 13144 14036 13789 13901 13955 13745 13425 14089 13343 13960 14195 14272 14519 13289 13850 11114 11127 11185 11009 11336 11190 11603 11382 11563 11201 11551 11225 11325 11510 11279 11315 11669 11732 11846 11728 11964 11622 11124 9931 8505 6759 6102 6917 10276 13985 15958 16327 16572 16365 16606 16482 16373 15936 12867 12827 18412 18779
13896 13260 13185 12368 9447 5626 6399 7506 8335 8834 9324 9615 9778 10003 10174 10225 10697 10529 11153 11361 11472 11622 12427 12268 11408 10674 10987 11502 12244 12459 12857 12556 12910 12824 12786 12671 12587 12567 12497 12167 12245 11666 11833 11722 11831 10099 7186 7463 8522 9081 10272 65533 65533 65533 65533 11281 10170 10708 10326 10187 10395 10502 10481 10875 10673 11428 11382 10991 11050 11122 65533 12083 11625 11645 12507 12174 11045 11341 13904 14078 14295 65533 65533 65533 65533 65533 65533 65533 65533 65533 65533 65533 65533 14117 65533 13917 65533 13753 13637 65533 65533 13470 65533 13553 14425 14282 65533 65533 65533 65533 65533 65533 65533 65533 65533 65533 65533 65533 65533 14688 65533 14276 13597 13669 13233 13758 13413 13643 13952 13635 14113 13696 13347 11218 10836 11048 11185 11290 11301 11234 11479 11258 11438 11129 11388 11098 11364 11508 11656 11854 11743 11881 11921 11842 11641 11421 10179 8851 7337 6224 6851 9630 13220 15622 16842 16191 16657 16775 17010 16394 16238 15242 11604 15589 18434 18741
13994 13538 13554 12837 11039 7752 5592 6677 7735 8414 8834 9215 9716 9612 9981 10500 10719 10866 11113 11173 11662 11848 11910 12344 12257 12371 11285 10466 10607 10318 11155 11968 12568 12501 12527 12384 12129 11878 12073 11820 11395 11194 11301 11748 12845 13194 10619 7583 7583 8591 65533 65533 65533 65533 65533 65533 11000 10586 10131 10492 11309 11267 10857 11250 11094 11263 10931 10532 10899 11286 11298 11370 11554 11097 11801 11377 11728 13922 65533 14431 15282 65533 65533 14770 65533 65533 65533 65533 65533 65533 65533 65533 65533 65533 13369 13286 13570 13236 13746 13855 13813 65533 13645 65533 65533 65533 65533 65533 65533 65533 65533 65533 65533 65533 65533 65533 65533 65533 65533 65533 14973 65533 65533 14266 14014 13850 13737 13849 13591 13842 13923 13159 10999 10418 10970 10880 11036 10817 11093 11084 11214 11062 11188 11183 11072 11361 11519 11306 11702 11854 11816 11780 11946 12012 11258 10488 8987 7460 6170 7095 8639 12988 15471 16466 17123 16916 16860 16990 17042 16383 16967 15254 10658 16843 18398 19043
13564 13236 13483 13200 12204 10423 7049 5394 6854 7692 8479 8834 9237 9560 9838 10164 10406 10487 10430 10908 11205 11452 11804 12021 12096 12164 12132 12308 11628 11050 9815 9599 10066 10027 11084 11206 11346 11789 11481 11125 11229 11238 11144 11057 11209 11805 12139 10904 8522 7225 8823 10067 65533 65533 65533 65533 11102 10748 10892 11311 65533 11817 65533 11601 11748 10985 10318 10695 11399 11462 11185 11332 11769 11496 11701 12061 13721 14064 65533 65533 14700 65533 65533 65533 14038 65533 65533 14053 13536 13344 65533 13502 65533 13495 13228 13395 65533 65533 13537 65533 65533 65533 13477 14483 65533 65533 65533 65533 65533 65533 65533 65533 65533 65533 65533 65533 65533 65533 65533 65533 65533 65533 65533 15288 65533 13833 13754 13471 13239 13682 11707 10765 10749 10801 10822 10880 10659 11063 11120 11081 11106 11072 11120 11415 11243 11261 11473 11745 11564 11845 11546 11621 11766 11631 10684 9378 7713 6317 7095 7920 11868 15399 16918 17061 16717 17390 17445 16861 16780 16925 16653 13912 11777 18166 18529 18716
14435 13871 13865 14018 13247 12411 10002 6802 5693 6633 7509 8270 8563 9279 9807 10103 10023 9998 10589 11016 10972 11288 11345 11584 12211 11974 12464 12039 12770 12530 12331 12019 10963 9901 9326 9384 9639 10363 10408 10316 10755 10510 10355 10194 10340 10166 10730 11153 10999 9495 7714 8437 9510 10092 65533 11058 10564 65533 11342 11557 65533 11712 11893 11271 11736 11073 11668 11651 11428 11096 11879 11614 11500 12365 65533 14214 65533 65533 65533 65533 14123 65533 13863 13813 13153 65533 12501 12234 12067 11825 11967 11925 12258 12484 12969 65533 65533 14173 14031 65533 65533 65533 65533 65533 65533 65533 65533 65533 65533 65533 65533 65533 65533 65533 65533 65533 65533 65533 65533 13825 13657 13097 13327 12980 13576 14380 13711 13661 13368 11603 10574 10756 10862 10534 10705 10895 10632 11142 11225 11152 11097 11009 11246 11342 11316 11255 11343 11600 11947 12021 11294 11630 11521 10871 9497 8056 6400 7229 7649 11286 13915 16377 16836 16676 16895 17126 17594 17304 17168 17392 16186 12844 13853 18564 18588 18741
13645 13539 13889 13804 13809 13865 12253 9962 6655 5728 6345 7482 8163 8905 9570 9940 10114 10287 10427 10727 10918 11166 11231 11603 11859 12021 12136 12449 12169 12309 12422 12211 12719 12493 12090 10950 9813 9523 9185 9257 9199 9467 9342 9253 9140 8820 9005 8931 9101 9219 8952 8075 8017 8851 9571 9965 10470 11126 11562 11665 11939 11896 11848 11352 11888 11931 65533 11989 11364 12279 11778 11887 65533 14784 65533 15020 65533 65533 65533 65533 13528 13604 65533 13336 13453 13445 65533 13387 13295 13153 13345 65533 13562 13478 65533 65533 65533 65533 65533 65533 65533 14558 65533 65533 65533 65533 65533 65533 65533 65533 65533 65533 65533 65533 65533 14289 65533 14257 11927 12285 12268 12201 12519 14081 15083 14474 13789 13256 10697 10280 10678 10531 10775 10691 10783 10825 10949 10758 11036 11053 11098 11201 11021 11117 11551 11082 11745 11775 11956 11769 11518 11625 10890 9717 8616 6594 7013 7887 10698 14053 16063 16632 17021 17144 16832 17349 17443 17457 17179 16787 15504 11327 16409 18838 18765 18795
13670 13120 13345 13947 13996 13865 13856 11912 9916 6819 5688 6333 7386 8205 8946 9478 9838 10083 10497 10698 10908 11127 11279 11211 11460 11804 11846 12086 12160 12233 12621 12532 12311 12438 12388 12160 12322 12085 11302 9858 8948 9084 9125 9324 9532 9593 9924 9932 10393 10429 10614 10868 10607 9878 9724 9784 10477 10726 11433 11604 11682 11913 11998 12111 12579 12988 12616 12627 12824 12714 12363 13661 65533 65533 65533 65533 65533 65533 65533 65533 14089 65533 65533 65533 65533 65533 65533 65533 65533 65533 65533 65533 65533 65533 65533 65533 13837 65533 65533 65533 65533 65533 65533 65533 13655 65533 65533 65533 65533 65533 65533 65533 65533 65533 65533 65533 65533 13910 13204 13520 13310 65533 65533 65533 65533 14330 65533 10706 10775 10626 10556 10653 10456 10652 10720 10562 10914 11014 10859 11035 11107 11237 11099 11424 11464 11901 11846 11702 11799 11536 11480 11077 10253 8683 6947 6808 8102 9609 13194 15902 16784 17320 17567 17175 17516 17211 17141 17020 17035 16922 14640 11258 17721 18648 18983 19029
13908 13810 13490 13614 13376 14102 14095 13935 12394 10026 7255 5602 6365 7585 8436 8963 9706 9882 10167 10420 10663 10680 10816 11124 11431 11356 11578 12071 11769 11891 12410 12358 12338 12076 12261 12379 12205 12491 12414 11878 11146 9463 9905 10801 10547 11310 11044 10999 11110 11396 11775 11604 12019 12176 12429 12425 12733 65533 65533 12846 12208 11784 12227 12136 13246 12824 12573 13038 65533 12247 13271 14293 65533 65533 65533 65533 65533 65533 65533 65533 65533 65533 65533 65533 65533 65533 65533 65533 65533 65533 65533 65533 65533 13929 65533 13761 65533 65533 65533 65533 65533 65533 65533 65533 13897 65533 65533 65533 65533 65533 65533 65533 65533 65533 65533 65533 14905 65533 15114 14812 65533 65533 65533 65533 65533 12903 10855 10662 10341 10513 10531 10578 10595 10801 10492 10940 10617 10912 10920 11009 11232 11317 11261 11678 11555 11773 11665 11965 11723 11593 11181 10323 8942 7304 6522 8131 9132 13102 15491 16094 16540 17032 17175 17369 17669 17486 17501 17289 17511 17079 13890 13311 18190 18957 18644 18992
13978 14134 14290 14131 14399 14488 13969 14424 14187 12768 10081 7132 5407 6364 7583 8263 9105 9398 10154 10387 10638 10614 10816 11105 10761 11289 11493 11433 12058 12391 12198 11389 12267 12311 12230 12153 12196 12107 11969 11878 12002 11693 9999 9721 10670 65533 11592 65533 11640 65533 12155 12137 65533 12259 12639 65533 65533 13220 65533 65533 13612 13212 12761 12779 12915 13340 65533 13188 12878 13699 65533 65533 65533 65533 65533 65533 65533 65533 65533 65533 65533 65533 65533 65533 65533 65533 65533 65533 65533 65533 65533 65533 65533 65533 65533 65533 65533 13699 65533 65533 65533 65533 65533 65533 65533 65533 65533 65533 65533 65533 13442 65533 13950 65533 65533 65533 65533 65533 65533 65533 65533 65533 65533 65533 12354 11001 10507 10496 10773 10556 10644 10595 10827 10413 10667 10740 10634 10868 10875 10911 11389 11469 11624 11501 11483 11599 11858 11762 11332 11227 10540 9341 7697 6493 8034 8446 12134 14765 16240 16507 16550 15982 16904 17116 17307 17745 17555 17378 17348 16186 12734 15999 18445 18511 18341 18659
14323 14547 14696 14397 14435 14289 14522 14026 14647 14305 12940 10213 7498 5556 6480 7438 8397 9135 9700 10307 10470 10643 10748 10825 11057 10919 11099 11578 11546 11918 12289 11941 11810 11555 12094 12207 11838 11972 11938 11969 11913 11870 11327 10387 9537 10880 11449 11870 11891 12364 65533 12681 13127 65533 65533 65533 65533 13459 13267 65533 65533 65533 14080 65533 14187 13916 13882 65533 65533 65533 65533 65533 65533 65533 65533 65533 14293 65533 65533 65533 65533 65533 65533 65533 65533 65533 65533 65533 65533 65533 65533 65533 65533 65533 65533 13935 65533 65533 65533 65533 65533 65533 65533 65533 65533 65533 65533 65533 65533 65533 14145 65533 13458 65533 13908 13808 65533 65533 65533 65533 65533 65533 65533 12156 11061 10913 10704 10695 10721 10514 10569 10687 10574 10703 10782 10802 10974 11017 11027 11063 11246 11388 11442 11564 11846 11702 11789 11425 11077 10459 9700 8277 6539 7805 8306 11555 14488 16280 16588 17121 16929 16624 17019 16653 16721 16915 17020 17400 17000 15902 11685 17042 17969 19140 18610 18921
14284 14535 14758 14276 14554 14652 14863 14695 14367 14927 14680 12896 10591 7887 5649 6397 7512 8372 9065 9828 10203 10094 10682 10816 10767 10856 11194 11294 11321 11704 11687 11867 11978 11837 11983 11823 11883 11739 11956 11844 11302 11913 11870 11406 10571 9831 10670 11318 11670 12238 65533 12603 65533 13368 13213 65533 65533 13542 65533 65533 65533 65533 65533 65533 65533 65533 65533 65533 65533 65533 65533 65533 65533 65533 65533 65533 65533 65533 13628 65533 65533 65533 65533 65533 65533 65533 65533 65533 65533 65533 65533 65533 65533 65533 65533 65533 13251 65533 65533 65533 65533 65533 65533 65533 65533 65533 65533 65533 65533 65533 13873 65533 65533 65533 65533 65533 65533 65533 65533 65533 65533 14517 11873 11113 10792 10766 10393 10461 10557 10395 10674 10635 10659 10703 10740 10718 10762 11035 11268 11317 11189 11406 11928 11728 11663 11610 11419 11201 10449 9653 8486 6826 7410 8190 10835 14234 16111 17009 16941 17039 17021 17019 17474 17243 17680 17239 17212 17124 17000 14731 12815 18213 18588 18813 18869 18758
14524 14884 14535 14425 14796 14959 15285 15076 14799 15173 15366 14969 13456 11208 7995 5503 6377 7481 8361 9216 9708 10084 10251 10223 10748 10837 10843 11040 11087 11415 11555 11539 11564 11553 11674 11560 11732 11397 11918 11786 11729 11727 11693 11605 11591 10448 9796 11144 11644 65533 12420 65533 65533 65533 65533 65533 65533 65533 65533 65533 65533 65533 65533 65533 65533 65533 65533 65533 65533 65533 65533 65533 65533 65533 65533 65533 65533 13482 65533 65533 65533 65533 65533 65533 65533 65533 65533 65533 65533 65533 65533 65533 65533 65533 65533 65533 65533 65533 65533 65533 65533 65533 65533 65533 65533 65533 65533 65533 65533 65533 65533 65533 65533 65533 65533 65533 65533 65533 65533 65533 65533 11976 11079 10906 10835 10609 10565 10584 10427 10682 10574 10746 10711 10694 10493 10718 11044 11107 11210 11461 11333 11723 11537 11846 11932 11826 11257 10496 9690 8832 7184 7276 8326 10057 13292 15854 16340 17203 16658 16469 17104 17102 17727 17669 17626 17752 17632 17527 16879 13519 15624 18826 18644 18620 18561 18845
14889 14999 14272 14130 14760 14542 14980 15376 15185 15095 14946 15233 14642 13553 11303 7101 5409 6339 7506 8359 8909 9500 10015 10231 10271 10767 10847 11042 11143 11358 11360 11197 11499 11536 11645 11692 11542 11694 11156 11581 11661 11720 11763 11614 11573 11737 10273 65533 11240 65533 65533 65533 13108 65533 65533 12895 65533 13548 65533 65533 65533 65533 65533 65533 65533 65533 65533 65533 65533 65533 65533 65533 65533 65533 65533 65533 65533 65533 65533 65533 65533 65533 65533 65533 65533 65533 65533 65533 65533 65533 65533 65533 65533 65533 65533 65533 65533 65533 65533 65533 65533 65533 65533 65533 65533 65533 65533 65533 65533 65533 65533 65533 65533 65533 65533 65533 65533 65533 65533 65533 11426 11035 10898 10611 10816 10739 10704 10418 10534 10408 10483 10203 10632 10740 10762 11009 10573 11402 11273 11550 11759 11273 11691 11352 11637 11327 10819 9859 8973 7383 7161 8278 8953 13228 15587 16635 16420 16295 17192 17279 17643 17495 17520 17062 17831 17413 17964 17381 16015 12227 17147 18481 18983 18585 18469 18586
14967 14833 14823 14758 14857 14649 15256 15320 15722 15845 15936 15609 15711 15277 13698 9436 6501 5454 6223 7577 8268 8919 9490 9574 10164 10497 10770 11004 11153 10908 11424 11360 10901 11343 11389 11292 11546 11452 11532 11640 11456 11346 11764 11364 11499 11134 10931 65533 65533 12129 65533 65533 65533 65533 65533 65533 65533 65533 65533 65533 65533 65533 65533 65533 65533 65533 65533 65533 65533 65533 65533 65533 65533 65533 65533 65533 65533 65533 65533 65533 65533 65533 65533 65533 65533 65533 65533 65533 65533 65533 65533 65533 13911 65533 65533 65533 65533 65533 65533 65533 65533 65533 65533 65533 65533 65533 65533 65533 65533 65533 65533 65533 65533 65533 65533 65533 65533 65533 12159 10850 11190 10846 10421 10600 10652 10487 10488 10560 10451 10285 10720 10720 10678 10762 10744 10946 11134 11524 11469 11470 11316 11592 11535 11499 11132 10568 9962 9072 7596 6861 8204 8934 13043 14861 17031 17578 16390 15932 16051 16538 17227 16895 17104 17087 17304 16770 17482 17982 15015 12827 18014 18529 18608 18672 18469 18842
15338 14980 15318 14999 15201 15305 15685 15800 15826 15583 16003 15775 15766 15687 15051 12080 8100 7094 6493 6233 7341 8130 8807 9378 9956 10203 10729 10694 10900 10804 10955 11117 11391 11262 11610 11462 11501 11415 11469 11595 11595 11384 11542 11683 11623 11737 11573 12210 65533 12365 65533 65533 65533 65533 65533 13708 65533 65533 65533 65533 65533 65533 65533 65533 65533 65533 65533 65533 65533 65533 65533 65533 65533 65533 13797 65533 65533 65533 65533 65533 65533 65533 65533 65533 65533 13784 65533 65533 65533 65533 65533 65533 65533 65533 65533 65533 65533 65533 65533 13552 65533 65533 65533 65533 65533 65533 65533 65533 65533 65533 65533 65533 65533 65533 65533 65533 65533 11456 11125 11027 10769 10550 10851 10643 10600 10427 10508 10691 10582 10615 10421 10872 10749 11019 10884 11304 11317 11578 11460 11515 11701 11416 11435 11113 10818 10158 9006 7794 6823 7908 8703 12331 14931 15695 17299 17568 16749 16591 16764 16832 17116 16811 17349 17464 16890 17168 17381 17379 14038 15355 18886 18487 18758 19146 18169 18561
14501 15266 15357 15199 15238 15498 15875 15917 16114 16529 16140 16686 16306 16584 16215 13784 9605 9133 11464 6864 6182 7179 8080 8976 9358 9950 10189 10493 10567 10615 11172 11012 11164 11206 11030 11096 11617 11637 11533 11279 11434 11259 11831 11675 11329 11614 11257 10571 65533 65533 65533 65533 65533 65533 65533 65533 65533 13196 65533 65533 65533 65533 65533 65533 65533 65533 65533 65533 65533 65533 65533 65533 65533 65533 65533 65533 65533 65533 65533 65533 65533 65533 65533 65533 65533 65533 65533 65533 65533 65533 65533 65533 65533 65533 65533 65533 65533 65533 65533 65533 65533 65533 65533 65533 65533 65533 65533 65533 65533 65533 65533 65533 65533 65533 65533 65533 11396 11065 10924 10777 10749 10453 10617 10721 10410 10595 10456 10565 10483 10685 10808 10925 10682 10848 10920 11161 11533 11415 11470 11537 11501 11462 10993 10660 10270 9325 8030 6576 7783 8674 11790 14717 16421 16794 16979 17618 16739 16713 17381 17289 16675 16508 17023 17817 17223 17471 17135 16095 12930 17077 18350 18704 18881 18896 18548 18546
15179 15162 15842 15512 15763 16136 16696 16779 16714 16495 16072 16485 16095 16060 16215 14763 10761 9489 12702 13790 7109 6080 7081 8085 8877 9466 10028 10304 10359 10672 10964 10768 10852 11090 11179 11435 11352 11292 11528 11542 11388 11595 11518 10937 11773 11781 11887 11433 10993 65533 65533 12896 65533 65533 65533 65533 65533 65533 13207 65533 65533 65533 65533 65533 65533 65533 65533 65533 65533 65533 65533 65533 65533 65533 65533 65533 65533 65533 65533 65533 65533 65533 65533 65533 65533 65533 65533 65533 65533 65533 65533 65533 65533 65533 65533 65533 65533 65533 65533 65533 65533 65533 65533 65533 65533 65533 65533 65533 65533 65533 65533 65533 65533 65533 12339 11044 11048 10889 10192 10680 10687 10453 10383 10618 10610 10430 10670 10641 10650 10720 10581 10992 11000 11071 11259 11291 11388 11678 11352 10973 11306 11389 10790 10298 9339 8069 6652 7764 8453 11655 14736 16555 17098 17051 17139 17576 17294 17649 17518 17310 16822 17051 16764 16988 17090 17527 17288 16022 13411 18029 18541 18680 18696 18770 18242 18871
15962 15059 16190 16161 16377 16382 16454 16161 16819 16622 16299 16618 15969 16571 16519 15407 12868 9415 11745 17042 13933 7231 6070 6911 8035 8711 9425 9889 9832 10713 10710 10738 11049 11062 11151 11345 11380 11251 11392 11298 11333 11361 11291 11536 11506 11871 11719 11614 10685 11186 12263 12601 65533 65533 12686 13183 13321 65533 12974 13026 65533 65533 14063 65533 65533 65533 65533 65533 65533 65533 65533 65533 65533 65533 65533 65533 65533 65533 65533 65533 65533 65533 65533 65533 65533 65533 65533 65533 65533 65533 65533 65533 65533 65533 65533 65533 65533 65533 65533 65533 65533 65533 65533 65533 65533 65533 65533 65533 65533 65533 65533 65533 65533 11379 11099 10859 10794 10680 10585 10868 10488 10201 10618 10584 10421 10381 10492 10746 10711 10837 10735 11116 11142 11036 11300 11532 11532 11452 11273 11251 11113 10653 10216 9516 8228 6982 7849 8011 10923 13768 16827 17069 17803 17998 17369 17203 17385 18009 17435 17274 17190 17260 16868 16825 17135 16888 16493 14395 15531 18993 18595 18622 19209 19161 18832 18559
16328 16281 16581 16097 16339 16431 16139 17023 17327 16901 16783 16572 16810 16748 16529 16010 14465 10335 10320 16561 18236 13525 7562 5833 6818 7936 8603 9464 9947 10263 10520 10842 11059 11218 11239 11290 11398 11407 11297 11228 10926 11406 11542 11443 11616 11444 65533 11851 11314 10333 65533 65533 12645 65533 65533 65533 65533 13105 65533 65533 65533 65533 65533 65533 65533 65533 65533 65533 65533 65533 65533 65533 65533 65533 65533 65533 65533 65533 65533 65533 65533 65533 65533 65533 65533 65533 65533 65533 65533 65533 65533 65533 65533 65533 65533 65533 65533 65533 13042 65533 65533 65533 65533 65533 65533 65533 13157 13391 65533 65533 65533 65533 10804 10764 10674 10648 10723 10800 10557 10322 10530 10610 10621 10438 10320 10562 10370 10843 10731 10647 11143 10866 11215 11264 11479 11397 11406 11328 11288 11069 10736 10170 9544 8491 6907 8633 8077 10090 13990 16127 17765 16970 17427 17728 16900 17996 17762 17497 17196 17095 17530 17217 17337 17577 17303 17061 16449 12954 17018 18600 18341 18721 18570 18599 19236 18817
16341 16347 17356 16828 16646 16815 16616 16950 17327 16866 16656 16447 16294 16989 16891 16071 15417 12538 9668 13336 19110 18205 14177 7895 5713 6788 7828 8695 9233 9610 10339 10529 10823 10909 11006 11211 11132 11352 11261 11110 11173 11442 11415 11488 11694 11456 11711 11586 11834 11614 10228 11868 65533 65533 65533 12748 65533 65533 65533 65533 65533 13104 65533 65533 65533 65533 65533 65533 65533 65533 65533 65533 65533 65533 65533 65533 65533 65533 65533 65533 65533 65533 65533 65533 65533 65533 65533 65533 65533 65533 65533 65533 65533 65533 13263 65533 65533 65533 65533 65533 13341 65533 65533 65533 65533 65533 65533 65533 65533 65533 65533 10618 10644 10545 10726 10559 10714 10514 10617 10305 10288 10604 10308 10582 10790 10396 10676 10599 10749 11054 10911 10679 11402 11398 11424 11325 11091 11164 11133 10726 10253 9777 8594 7141 8728 8856 9650 13748 16016 16915 17186 17655 17748 17657 17515 17681 17176 17560 17800 17190 17938 17741 17245 17544 17729 17595 15987 13633 18267 18632 19029 18770 18829 18956 18910 19003
17188 17603 17516 17323 17131 17054 16825 17119 17083 16791 16597 17221 16856 16855 16759 16442 15999 14145 10431 11604 18236 19079 17681 14389 6142 5623 6541 7847 8598 9224 9822 10387 10482 10842 10918 10698 11030 11197 11067 11270 11446 11110 11325 11478 11604 11197 11599 11880 11603 11949 11684 10008 11851 65533 65533 12488 12721 65533 65533 12784 12814 13073 65533 65533 65533 65533 65533 65533 65533 65533 65533 65533 65533 65533 65533 65533 65533 65533 65533 65533 65533 65533 65533 65533 65533 65533 65533 65533 65533 65533 65533 65533 65533 65533 65533 65533 65533 65533 65533 13131 65533 65533 65533 65533 65533 65533 65533 65533 65533 10807 10386 10553 10450 10671 10352 10341 10444 10452 10513 10401 10595 10691 10451 10483 10466 10377 10784 10934 11107 11169 11304 11304 11380 11514 11370 11560 11146 10895 10717 10318 9809 8957 7338 8275 9835 9018 13336 15949 17450 17598 17576 17427 18098 17243 17559 17628 16613 17937 18032 17573 17842 17872 18085 17964 17936 17983 14840 15566 18719 18777 19029 18758 18944 18924 19176 19176
18242 18064 17994 17245 16997 17425 17066 16875 17156 16696 16304 17210 16629 16675 16518 16582 17010 15708 12070 10394 15656 19921 19543 17803 10336 5852 5512 6562 7769 8666 9243 9832 10301 10738 11049 10955 10680 10605 11048 11288 11270 11346 11026 11678 11829 11622 11759 11563 11889 11745 11851 11667 10008 12013 65533 65533 65533 12582 65533 12808 65533 65533 65533 65533 65533 65533 65533 65533 65533 65533 65533 65533 65533 65533 65533 65533 65533 65533 65533 65533 65533 65533 65533 65533 65533 65533 65533 65533 65533 65533 65533 65533 65533 12952 65533 65533 65533 65533 65533 65533 65533 65533 65533 65533 65533 65533 65533 65533 10412 10421 10338 10579 10266 10499 10367 10374 10582 10332 10193 10517 10757 10696 10343 10317 10623 10775 10846 10850 11160 10875 11224 11308 11415 11189 11307 11046 11059 10736 10165 9716 9088 7703 7926 10124 9142 12628 15022 17275 17722 17775 18070 17299 17737 17915 17966 17011 17185 17632 17935 17755 17435 17942 17378 18323 18004 17198 13130 17315 18741 19299 18683 18808 18803 19210 18884 19135
19004 18505 18091 17529 16581 17259 17154 16825 16938 16708 16863 16901 16149 16549 16406 16361 16333 15751 14124 9930 12824 19412 19697 19239 16033 8238 6672 5462 6454 7596 8548 9175 9775 10158 10530 10740 10862 10903 11095 10846 11315 11251 11292 11098 11488 11559 65533 11706 11509 12093 65533 12064 11534 10131 65533 65533 65533 65533 65533 65533 65533 65533 13053 65533 65533 65533 65533 65533 65533 65533 65533 65533 65533 65533 65533 65533 65533 65533 65533 65533 65533 65533 65533 65533 65533 65533 65533 65533 65533 65533 65533 65533 65533 65533 65533 65533 65533 65533 65533 65533 65533 65533 65533 65533 65533 65533 11641 10395 10373 10433 10404 10395 10341 10410 10253 10322 10471 10375 10499 10652 10346 10466 10623 10703 10828 10815 10709 10982 11152 11402 11084 11315 11009 11406 10909 11087 10748 10266 9772 8939 7881 7675 10238 9797 12302 14434 16701 17654 17755 17358 18368 17538 17233 17609 17351 17321 17716 17935 17935 18100 17631 17732 18345 18300 18029 16409 13622 18267 19249 18179 18896 19110 18728 19375 19461 19295
18692 18284 18037 17662 17492 17375 17131 16502 16616 17168 16922 16843 16391 16152 16493 16720 16151 15755 14986 11208 11425 18074 20868 20932 18984 11031 9878 7251 5433 6248 7557 8384 9133 9640 10263 10294 10862 10852 10661 10919 11168 11142 11508 11100 11388 11424 11505 11470 11474 11875 12022 11887 12126 11049 9946 65533 65533 65533 65533 65533 12425 12295 65533 65533 12940 12589 65533 65533 65533 65533 65533 65533 65533 65533 65533 65533 65533 65533 65533 65533 65533 65533 65533 65533 65533 65533 65533 65533 65533 65533 65533 65533 65533 65533 65533 65533 65533 65533 65533 65533 65533 65533 65533 12955 65533 10717 10243 10433 10231 10024 10367 10557 10487 10556 10471 10418 10543 10587 10486 10049 10501 10210 10676 10325 11001 10833 11169 11384 11286 11335 11451 11433 11153 11073 11105 10721 10239 9855 9237 7942 7357 10549 10263 12245 14887 17193 18160 17696 17655 17863 17778 17445 17396 17206 17040 17092 17548 17743 17938 18101 18704 18233 18513 18311 17787 15133 15946 18741 18721 19046 19008 18676 18780 19309 18796 19254
18521 18323 18353 17562 17529 17049 17195 16941 16468 16527 16720 16779 16761 16529 16447 16417 16261 16137 15657 13435 10431 14349 20847 21416 20808 18058 11364 10787 7630 5513 6209 7373 8307 8903 9683 10149 10417 10749 10717 10931 11206 10975 11325 11453 11519 10972 11506 65533 11569 11857 11741 11844 11834 12144 10502 9875 65533 65533 65533 65533 65533 12277 65533 12521 65533 65533 65533 65533 65533 65533 65533 65533 65533 65533 65533 65533 65533 65533 65533 65533 65533 65533 65533 65533 65533 65533 65533 12942 65533 65533 12985 65533 65533 65533 65533 65533 65533 65533 65533 65533 65533 65533 65533 65533 10553 10205 10490 10291 10306 10375 10435 10530 10427 10305 10482 10491 10679 10521 10571 10352 10571 10632 10819 10966 10868 11124 11036 11161 11335 11261 11351 11234 10973 11197 10648 10230 9744 8939 8063 7319 10172 10282 11774 14523 16972 18053 18344 17981 17764 18028 17727 17630 17518 17742 17747 17674 17445 17777 17572 18133 18649 18154 18459 18190 17627 14102 17458 18704 19016 18971 19161 18871 18804 19366 18796 19129
18504 17770 17826 17630 17489 16880 16607 17029 16327 16382 16720 16672 16550 16103 16495 16470 16530 16383 15886 14286 10548 12421 20020 22949 23566 22060 16164 11899 11196 7857 5483 6079 7421 8153 8951 9579 9940 10313 10562 10382 10959 11327 11094 11041 11343 11564 11560 11596 11523 11676 65533 11947 11907 11844 11692 9981 10564 12585 65533 65533 12535 65533 65533 65533 65533 12626 65533 65533 65533 65533 65533 65533 65533 65533 65533 65533 65533 65533 65533 65533 65533 65533 65533 65533 65533 65533 65533 65533 65533 65533 65533 65533 65533 65533 65533 65533 65533 65533 65533 65533 65533 65533 65533 10429 10136 10438 10393 10263 10418 10175 10435 10349 10340 10343 10456 10451 10574 10510 10597 10667 10643 10811 10974 10840 11142 11134 10965 11246 11379 11045 11053 11100 11206 10913 10349 9541 9133 8138 6925 9964 9955 11156 14399 16344 17177 17586 18099 17546 18108 18383 17798 17192 17670 17924 17853 17443 17030 17637 17359 18638 19017 18243 17822 18064 16433 14816 18281 19078 18946 18883 18676 18468 19017 19162 19060 19429
18140 18167 18238 17674 17114 17516 16477 17029 16928 16542 16628 16285 16208 16608 15733 16061 16328 16653 16405 14937 12519 10867 16664 23797 23375 22537 20522 16134 12005 11076 8223 5473 5923 7159 8268 8846 9398 9907 10341 10431 10689 10931 11243 11085 11151 11617 11546 11343 11587 65533 11622 11613 65533 65533 65533 11621 9610 11314 65533 65533 65533 12193 65533 12190 65533 65533 65533 65533 65533 65533 65533 65533 65533 65533 65533 65533 65533 65533 65533 65533 65533 65533 65533 65533 65533 65533 65533 65533 65533 65533 65533 65533 65533 65533 65533 65533 11759 65533 65533 65533 65533 11007 10490 10384 10419 10341 10244 10244 10401 10375 10540 10604 10674 10539 10705 10676 10317 10615 10667 10714 10572 10576 10866 11000 10938 10977 11138 11162 11198 11071 11119 11004 10950 10276 9670 8717 8007 6972 9643 10181 11023 13824 15987 17068 17829 17588 18130 18248 17948 17525 17406 17628 18215 17851 17790 18201 17798 17970 17566 18085 18289 17709 17914 17745 15447 16541 18910 18844 18996 18778 19288 19083 19325 19000 19406 19358
18509 17574 17529 17493 17386 17410 17503 17010 16340 16302 15841 16200 16565 16374 16655 16483 16015 16686 15896 15962 13627 10687 12911 19410 21929 21374 21498 19799 16517 12145 11173 8659 5621 5914 7197 8191 8855 9436 9719 10228 10524 10391 10762 11188 11076 10986 11434 11237 11714 11578 65533 11649 65533 11893 65533 65533 65533 9283 65533 65533 65533 65533 12298 11746 65533 65533 65533 65533 65533 12226 65533 65533 65533 65533 65533 65533 65533 65533 12974 65533 65533 65533 65533 65533 65533 65533 65533 65533 65533 65533 65533 65533 65533 12681 65533 65533 65533 65533 65533 65533 10626 10470 10254 10210 10331 10097 10279 10505 10236 10377 10325 10495 10591 10466 10370 10175 10667 10625 10502 10709 10762 10644 10795 10884 11013 11183 10901 11261 11026 11246 10666 10895 10211 9642 8911 8007 7132 9184 10049 10776 13910 16084 17425 18043 17981 18308 17991 18308 17707 17783 17351 17659 17830 17884 17913 17788 17842 16879 17356 18166 18084 18237 18017 17627 14875 18015 17982 19397 18739 18829 19158 19149 19298 19157 19287 19143
19015 17705 17656 17628 17563 17047 16892 16659 16659 16264 16465 16247 16986 16625 16409 16287 16197 16402 16642 16792 14915 11560 10282 12623 17958 20868 20870 20645 19494 16890 12285 11123 9253 5964 5729 6734 8075 8712 9237 9568 10153 10637 10633 10753 10882 11094 11380 11727 11483 11153 11261 11595 65533 65533 11724 65533 65533 10297 9752 65533 65533 65533 65533 65533 12079 65533 12287 65533 65533 65533 65533 65533 65533 65533 65533 65533 65533 65533 65533 65533 65533 65533 65533 65533 65533 65533 65533 65533 65533 65533 65533 65533 65533 65533 65533 65533 65533 65533 65533 10348 10400 10487 10114 10166 10175 10384 10491 10517 10386 10408 10451 10413 10501 10544 10492 10298 10493 10753 10780 10928 11115 10688 11098 11147 11291 11243 10809 11216 10918 10904 10648 10285 9837 9059 7952 6925 8978 10077 10596 13805 16132 17541 17654 17834 17696 17536 18138 18020 18180 17538 17639 17986 18021 18009 18169 18132 17566 17732 17930 17527 18141 18156 18213 16708 15982 19201 18844 18971 18701 19366 19375 19311 19212 19379 19117 19695
20985 18941 18663 17373 17078 16708 16369 16732 16828 16761 16490 16321 16781 16732 16339 16843 16714 15754 16698 16989 16493 13911 10698 10675 12256 16843 19849 20129 19290 18689 16799 11835 11766 9741 6464 5738 6696 7630 8425 9028 9643 10181 10337 10400 10671 11253 11306 11490 11526 11455 65533 11424 11631 11982 11963 65533 65533 12036 9799 10620 65533 65533 65533 65533 65533 65533 12316 65533 65533 65533 65533 65533 65533 65533 65533 65533 65533 65533 65533 65533 65533 65533 65533 65533 65533 65533 65533 65533 65533 65533 65533 65533 65533 65533 65533 65533 65533 11215 10158 10384 10366 10384 10236 10447 10377 10438 10294 10399 10556 10212 10475 10500 10500 10632 10696 10316 10647 11010 10804 10706 10822 11004 11246 11126 11297 11008 11219 11210 10648 10739 10285 9559 8809 7840 6785 8800 10039 10272 13518 15950 18120 17965 17991 17441 17813 18417 18625 18362 18149 17330 17830 18410 18168 18169 18057 18166 17942 18605 17975 17913 18098 18072 18434 15768 17676 19349 19447 19390 19444 18950 19030 19515 19129 19486 19273 19641
21795 19432 18140 18024 17557 17258 16843 16613 16971 16646 16991 16778 16579 15994 16101 16644 16632 16229 16470 16630 16306 15002 11794 11528 14156 12698 16426 19984 19862 19901 19149 17193 12155 11598 10123 7053 5593 6483 7467 8176 9094 9464 9888 10262 10531 10968 11179 11223 11508 65533 11428 11828 11605 11452 11829 65533 65533 65533 65533 9230 65533 65533 65533 65533 65533 65533 65533 65533 65533 65533 65533 65533 65533 65533 65533 12538 65533 65533 65533 65533 12252 65533 12382 65533 65533 65533 65533 65533 65533 65533 65533 65533 65533 65533 65533 65533 10827 10427 10297 65533 10325 10447 10587 10224 10338 10259 10373 10343 10028 10641 10483 10193 10475 10202 10780 10638 10786 10715 11045 10768 11183 11057 11081 11270 11234 11073 10909 10840 10625 10285 9652 8939 7775 6841 8622 10049 10016 13212 15165 17589 18510 17790 17785 17744 17878 17838 18191 18608 18380 17310 17591 18232 18233 17982 18450 18559 18373 18031 18141 18710 18271 18307 17470 15752 19139 19447 19159 19084 19158 19362 19501 19614 19670 19287 19172 19626
23200 20786 18911 17196 17217 16870 17050 17114 16387 16477 16863 16352 16333 16567 16442 16220 16597 16922 16515 16765 16686 15631 13234 11646 15094 15433 12003 15999 19557 19440 19412 18978 17747 12874 11727 10820 7514 5573 6300 7228 8022 8837 9426 9926 10196 10158 10745 11114 11435 11315 11352 11187 11601 65533 11207 65533 11946 11847 11793 11152 9902 65533 65533 65533 65533 65533 65533 65533 65533 65533 12228 65533 65533 65533 65533 65533 65533 65533 65533 65533 65533 65533 65533 65533 65533 65533 65533 65533 65533 65533 65533 65533 65533 65533 65533 10796 10438 10456 10247 10508 10198 10539 10215 10294 10597 10133 65533 10307 10518 10343 10290 10546 10726 10523 10715 10866 11197 10947 10950 11246 11243 11243 11243 11270 11182 11173 10959 10588 10165 9679 8836 7933 6832 8322 9737 9759 12982 15031 16431 17703 17926 17942 18694 18018 18328 18040 18098 18575 18380 18059 18558 18307 18316 17777 18395 18395 18166 17925 17561 18225 17991 18481 16672 17579 19939 19459 19390 19327 19441 19096 18728 19143 19145 19448 19522 19823
23262 20267 18688 17779 17806 16876 16606 16274 16201 17396 16971 16722 16778 16321 16236 16890 16779 16597 16783 16618 16317 16552 14791 11827 13877 18402 15401 11993 15011 18987 19069 19606 18907 17788 13673 12014 10947 7828 5631 5943 6998 7994 8761 9171 9794 10196 10093 10913 10919 10919 11085 11032 11380 65533 65533 65533 11759 65533 65533 65533 10501 65533 65533 65533 65533 65533 65533 65533 65533 65533 65533 65533 65533 65533 65533 65533 65533 65533 65533 65533 65533 65533 65533 65533 65533 65533 65533 65533 65533 65533 65533 65533 65533 11631 10644 10320 65533 10285 10469 10093 10054 10238 10527 10422 10509 10544 10439 10290 10528 65533 10682 65533 10831 10679 10929 11000 10607 11291 11048 11297 11063 11252 11401 11237 11215 11004 10634 9963 9263 9097 7979 6869 8218 9728 9911 12474 14399 16846 17246 16370 16088 17724 18368 17788 18292 17701 18081 18596 18475 18305 18275 18062 17863 18308 18284 18356 18009 17970 17833 17979 18088 17946 16176 19041 19998 19595 19756 19093 19455 19244 19046 19571 19898 19259 19477 19640
22871 20592 19227 17973 17313 17472 16961 17175 16965 16586 17036 16722 16799 17166 16764 16877 16410 16374 16409 16760 17004 16698 15288 13697 12733 17066 19116 15391 12361 14928 18905 19646 19697 19008 18128 14252 12212 11330 8671 5719 5663 6879 7860 8524 9142 9681 10328 10627 10847 10993 11077 11076 11076 11389 65533 11346 11542 65533 65533 65533 65533 9300 11595 65533 65533 65533 65533 65533 65533 65533 65533 65533 65533 65533 65533 65533 65533 65533 65533 65533 65533 65533 65533 65533 65533 65533 65533 65533 65533 65533 65533 65533 65533 10536 10501 10483 10457 65533 10440 10282 10518 65533 65533 10237 10387 10308 10581 10160 10549 10753 10653 10599 10661 10947 11018 10564 11004 11126 11261 11298 11388 11319 11310 11178 11012 10625 10124 9429 9069 8181 6869 8096 9879 9712 12379 15337 16750 17985 18549 18167 19347 19556 18537 18494 17925 17192 17731 18611 18316 17179 17871 17842 17850 18030 18638 18648 18220 18317 17885 17417 18124 17749 16838 20174 19860 19301 19262 19056 19203 19226 18963 19245 19811 19507 19273 19948
21611 20608 19445 18585 17497 17255 17231 17119 16789 16667 16626 16529 16837 16841 16493 17121 17071 16815 16562 16795 17648 16834 15969 15211 12436 15155 19662 19169 15949 12193 14127 18905 19553 19270 19028 18637 15221 12281 11605 9358 6079 5499 6657 7505 8343 9227 9624 10215 10496 10968 11024 11058 11352 11361 11178 11389 65533 11492 11714 11995 65533 11234 10170 65533 65533 65533 65533 65533 65533 65533 65533 65533 65533 65533 65533 12602 65533 65533 65533 65533 65533 65533 65533 65533 65533 65533 65533 65533 65533 65533 65533 65533 65533 10430 10377 65533 10263 10483 10316 10623 10105 10458 10396 10475 10434 10443 10629 10448 10564 10475 10715 10732 10956 10797 11201 10973 11207 11098 11207 11364 11110 11242 11306 10892 10901 10050 9522 9069 8219 6972 7973 9721 9702 12312 14906 17435 18345 18364 18785 20317 21614 20605 19754 18333 17772 17917 18215 18368 18200 17626 18165 17959 18166 18439 18760 18243 18502 18375 18026 17803 18245 16912 18376 19835 19837 19691 19813 19256 19623 19282 19330 19883 19998 19328 19564 19273
20138 19170 19587 18494 18018 17327 16993 17018 17022 17047 16440 16507 16880 16608 16227 16764 16902 17240 17101 17335 16875 16945 17550 16417 13376 13518 18919 20740 19372 15980 11130 13825 18380 18884 19453 19401 18108 16130 12439 11977 9672 6371 5644 6464 7467 8419 9189 9813 10219 10543 10922 10903 10938 11243 11462 11591 11251 11755 65533 65533 65533 12004 65533 65533 11838 65533 65533 65533 65533 65533 65533 65533 65533 65533 65533 65533 65533 65533 65533 65533 65533 65533 65533 65533 65533 65533 65533 65533 65533 65533 10896 10421 10623 10511 65533 10299 10422 10555 10422 10431 10487 10664 10576 10443 10279 10430 10226 10625 65533 10777 10752 10977 65533 11144 11108 11216 10926 11219 11210 11096 11279 11260 10984 10929 10429 9721 9050 8097 6963 7803 9341 9389 12273 15389 16846 17946 18128 18148 17793 18547 19606 20904 19402 18129 18153 18257 18526 18747 18552 18380 18264 18275 18815 18748 18743 18448 18352 18635 17612 17845 17870 16136 18845 20948 20537 19470 19481 19610 19628 19741 19188 19651 19507 19946 20011 19768
17756 18426 19525 19430 18662 17854 17225 16848 17571 17383 16531 16600 16594 16225 16225 16715 16912 16877 16970 17220 17452 17360 17720 16743 15173 12878 16126 20643 20675 18360 12277 10951 13201 18102 18915 19168 19361 18657 16849 12608 11663 10113 7100 5538 6194 7161 8559 9151 9709 9832 10543 10824 11145 11201 11216 11253 65533 11508 11517 65533 65533 65533 65533 9768 65533 65533 65533 11784 65533 65533 65533 65533 65533 65533 65533 65533 65533 65533 65533 65533 65533 65533 65533 65533 65533 65533 65533 65533 65533 10634 10369 10431 10599 10629 10523 10664 10408 10372 10540 10381 10617 10591 10484 10564 10581 10759 65533 65533 10519 11004 10667 10901 11243 10999 11225 11100 11373 10855 11105 11197 11131 10772 10762 10299 9832 9090 8303 7077 7605 9189 9465 11833 14743 17097 17664 17951 17235 17685 17479 18038 18967 18638 18333 18081 18038 18205 18168 18297 18154 18402 18133 18682 18737 18199 18334 18663 18354 18303 17351 17954 17293 17605 20259 20437 20030 19415 19732 20072 19933 19571 19593 19805 19885 20121 19477 20043
17880 17773 18054 17828 17836 18402 17794 17966 17826 17022 16382 16436 16493 16750 17157 16815 17216 16776 16986 16946 17958 18026 17521 17277 15880 13324 14271 19759 20228 20007 16817 12130 10909 12962 17495 19007 19188 19220 18328 17688 13122 12558 10977 7762 5661 5962 7103 8271 9132 9503 10021 10549 10665 10885 11062 11271 11271 11536 65533 11553 65533 11553 65533 10909 10066 65533 11732 65533 65533 65533 65533 65533 65533 65533 65533 65533 65533 65533 65533 65533 65533 65533 65533 65533 65533 65533 65533 11408 10647 10602 10700 65533 65533 65533 65533 10671 10573 10439 10502 10555 10545 10134 10581 65533 10618 10735 10654 10977 10901 11036 65533 11180 10990 65533 65533 11037 11215 11105 11297 10837 11040 10707 10000 9562 9240 8528 7256 7650 9256 9344 11929 14521 17068 18150 18197 17324 17101 17708 17399 18604 18557 18455 18349 18132 18517 18431 17903 18089 17982 18101 18329 18524 17785 18425 18733 18236 18471 18386 18341 18438 16778 18206 20603 20993 20345 19854 19583 20086 19940 19956 19745 19045 19701 19917 19816 20055
17467 17140 17456 17570 17796 17332 17467 19164 19056 18280 17895 16396 16254 16985 17258 16863 17442 17392 17699 17603 17743 17756 17569 17452 17152 15286 13705 17212 20665 20955 19350 14624 13087 11046 12442 16867 19121 19239 19825 19401 18238 13577 12637 11065 7927 5748 5972 7168 8185 8856 9218 9983 10332 10552 10731 11043 11024 11271 65533 11343 11462 65533 65533 11883 10018 65533 11180 65533 65533 65533 65533 65533 65533 65533 65533 65533 65533 65533 65533 65533 65533 65533 65533 65533 65533 65533 65533 10911 65533 10457 10279 10626 10626 10518 10607 65533 10250 65533 10500 65533 10546 10430 10636 10609 10465 65533 10928 10982 10954 11035 11098 11255 11191 11014 11526 10840 11140 11324 11114 10975 10680 10494 9578 9297 8350 7350 7431 9218 9401 12024 14077 16866 17897 18148 17932 17764 17968 18258 18201 18312 17538 17989 17612 17778 18547 18190 17755 18423 17773 18505 18592 17807 17822 18190 19572 18576 18303 17749 18549 17859 16327 19135 20576 21048 20331 19827 19892 19684 20145 19796 19820 19533 19932 20091 19639 19822
17010 17175 16390 16309 17376 17639 17989 18360 18751 18692 19542 18602 17684 17277 16841 16568 17195 17592 17539 17872 18390 18017 17463 16761 17302 16424 13862 15173 20341 19999 20083 17529 15178 13203 11172 12254 16538 18925 19341 19401 19633 17938 14646 11875 11379 9505 6273 5750 6831 8013 9028 9588 9883 10096 10370 10909 65533 11276 65533 11290 65533 65533 65533 65533 11691 10026 10573 65533 11628 65533 65533 65533 65533 65533 65533 65533 65533 65533 65533 65533 65533 65533 65533 65533 65533 11179 65533 10616 10456 10134 10625 10518 10652 65533 10645 10474 10510 10618 65533 10385 10649 65533 10658 10586 11018 10800 65533 10899 11155 11219 11064 11114 65533 11380 11370 11242 11095 11216 10903 10419 10318 9671 9086 8247 7222 7517 9123 9334 11838 14366 16214 17547 18638 18288 18417 18427 18252 18483 18007 18081 17618 18226 17716 17958 18605 18413 18176 18330 18660 17931 18625 18391 18433 18583 18693 18267 18293 18027 18007 17492 18025 20290 20811 20570 20478 20086 20010 19769 20000 20147 20312 20152 19508 19752 19755 20132
16690 17170 16504 16590 17117 17325 17317 18035 18360 19114 19443 19406 19101 17982 17224 16529 17153 17361 17592 17761 18063 18257 17791 17815 17291 17095 15470 14322 18177 21125 20872 18994 15934 16274 14307 11246 11599 15766 19399 19789 19734 19452 18727 15671 12598 12281 9849 6770 5631 6590 7950 8702 9294 9911 10266 10464 10552 10890 65533 11220 65533 65533 65533 65533 11794 11481 10026 10373 65533 65533 65533 65533 65533 65533 65533 65533 65533 65533 65533 65533 65533 65533 65533 65533 65533 65533 65533 10627 10582 10510 10582 65533 65533 65533 10523 10369 10378 65533 65533 10667 10757 10926 10800 65533 10827 10818 65533 11164 65533 11398 65533 11260 11306 65533 11123 11132 65533 10941 10633 10187 9606 8926 8247 7288 7431 9277 9392 11404 14376 16302 18099 18569 18456 18061 17968 18604 19068 18414 17927 18369 18215 18189 18368 17903 18908 18348 18548 18251 17908 18020 18755 19240 19194 18670 18612 18680 18366 18869 18545 17118 18893 20238 20969 21305 20876 19989 19854 19782 20117 20435 19778 19870 19800 19972 20132 19995
17122 16637 16573 17330 17356 16664 17246 17011 17526 18509 19026 18706 18103 19295 19027 18326 17687 17412 17705 18206 18179 18027 18196 17850 17452 17245 16229 14208 16070 20979 21358 20228 17281 17109 16306 14781 11488 11651 15198 19573 18913 19453 19300 19137 17059 12855 12519 10496 7877 5631 6310 7661 8511 9085 9531 9959 10398 10709 10946 11096 11115 65533 11658 65533 11558 65533 11591 10174 10809 65533 65533 65533 65533 65533 65533 65533 65533 65533 65533 65533 65533 65533 65533 65533 65533 65533 65533 10568 10541 10694 10667 65533 10640 65533 10700 10718 10763 65533 65533 10945 10899 65533 65533 65533 65533 11288 11041 65533 65533 11361 11186 11484 11308 11141 11481 11043 10754 10618 10149 9643 8973 8153 7098 7716 9679 9590 11819 14162 16292 17961 18298 18338 17568 17079 18090 18413 18944 18359 17814 18132 18768 17663 18637 19210 18768 17948 19401 18306 18087 18379 19298 19125 19349 18493 18588 18184 18389 19622 18219 17680 19600 20185 21169 20776 20488 20393 20493 20058 20192 20221 20294 20495 20121 20338 20424 20157
17064 16294 16921 16556 16457 16341 16276 17184 17668 17675 18155 18547 17940 17383 18376 18376 18884 19067 17961 17705 18219 18019 17446 18160 17767 16866 16622 15064 14935 19320 21606 21048 19443 16791 17529 16700 15646 12330 11422 14377 18966 19096 19351 19956 19169 17269 13607 12667 11850 8926 6011 6264 7371 8461 8855 9420 9968 10291 10568 65533 11049 65533 11546 11481 11695 65533 65533 11567 9966 10975 65533 65533 65533 65533 65533 65533 65533 65533 65533 65533 65533 65533 65533 65533 10863 65533 10754 10872 10773 65533 65533 10773 65533 10863 65533 65533 11055 65533 10773 65533 10955 65533 65533 65533 11123 65533 65533 65533 11251 11447 11391 11299 11276 11173 11283 11087 10880 10417 9247 8942 8125 7113 7611 9918 9967 11808 14590 17284 18363 18724 18773 18298 17778 17757 18037 18852 18153 17799 18028 18484 18084 18754 19231 18908 19083 19246 19279 18300 18368 18571 18490 18330 18517 18838 18777 18844 18996 18858 17182 18950 20026 20225 20695 21056 20918 20987 20101 20609 20358 20466 20689 19929 20205 20012 20103 20362
16166 16404 16104 16779 17055 16773 16810 16587 17184 17454 17169 17937 18620 17472 17812 17494 17383 19123 19431 19173 18469 17868 17724 16974 17591 17255 17475 16045 14938 17175 21236 21617 20573 17697 17904 17346 17083 16008 12550 11339 13752 18586 19882 19901 19472 19129 18178 14163 12746 12232 9672 6189 5894 7052 8124 8847 9344 9947 10177 10814 10785 11011 10992 11030 11499 65533 65533 65533 65533 10697 11021 65533 65533 65533 65533 65533 65533 65533 65533 65533 65533 65533 65533 65533 65533 65533 65533 65533 65533 65533 65533 65533 10973 65533 10776 65533 10840 65533 65533 11105 11105 10846 65533 11140 65533 65533 11419 65533 11465 11313 11490 65533 11312 11162 10823 10870 10247 9588 8619 8003 7075 7892 9754 9774 12119 14697 16598 17892 19021 18467 18687 18272 17677 17660 18231 18596 18163 17986 18253 18350 18169 19113 19312 18788 19191 19107 18928 18641 18225 18548 18588 18624 18041 19297 19398 19522 18983 18395 17752 19827 20066 20424 21098 21443 20861 20464 20460 20343 20372 20168 20334 19888 20837 20654 20192 19976
16856 16510 16791 16833 16608 17072 16657 16600 16681 16736 17194 17809 18605 18592 18507 16329 16884 17476 18565 18884 19288 18870 18444 17342 16817 17325 17386 16679 15687 16206 20346 21673 21517 20108 17599 17151 18046 17253 15689 13476 11320 12951 18112 19419 19555 19952 19593 18867 15161 12707 12548 10830 7220 6011 6838 7747 8761 9291 9708 10014 10434 10786 10995 10992 65533 11527 11593 65533 65533 65533 11890 65533 65533 65533 65533 65533 65533 65533 65533 65533 65533 11242 65533 65533 65533 65533 65533 65533 65533 65533 65533 65533 65533 11004 65533 11251 65533 11048 65533 11131 65533 65533 65533 65533 65533 11499 11285 65533 65533 65533 11340 11227 10794 11040 10558 10358 9645 8741 7821 6902 7776 9803 9872 11837 14283 16931 18268 18268 18437 18437 18615 18516 18231 18760 18586 18070 18309 17811 18031 18052 18445 19486 18526 18859 19286 18883 18630 18375 18237 19209 18648 18136 18801 19422 19522 19121 19429 18650 18806 20331 20179 20917 21278 21797 20798 20639 20954 20695 20435 20802 20538 20837 20166 20210 20362 20561
16240 16491 16701 16404 16477 16642 16190 16523 16487 16964 16736 17256 18152 18547 18408 17756 17466 17304 17290 17728 18403 18599 19384 19585 18229 17966 17507 17196 16175 15295 18075 21858 22054 20631 18351 17676 18068 17486 17680 16253 13981 11562 12795 16925 19563 19728 20135 19915 19149 16390 12784 13251 11717 8299 5905 6478 7703 8432 9349 9581 9736 10234 10605 10843 11394 11304 65533 65533 65533 65533 65533 65533 65533 65533 65533 65533 65533 65533 65533 65533 65533 65533 11410 11206 65533 65533 65533 65533 11168 65533 11407 65533 65533 65533 65533 65533 65533 65533 65533 65533 11465 65533 65533 65533 65533 65533 11462 65533 11508 65533 11511 11162 10909 10558 10139 9411 8788 7661 6956 8143 9979 10145 12105 14969 17130 18080 18368 18268 18988 19199 19005 18292 18781 19027 18694 18295 18410 17541 17807 18111 18537 19246 18881 18659 18334 18379 18871 18859 18869 19100 18136 18632 19299 19171 19434 19722 18924 18012 19800 20681 20751 20599 21698 22106 21517 20385 20312 20702 20754 20821 20438 20166 20796 20878 20924 20389
16748 16140 16280 16146 16607 16921 16556 15807 17240 17311 16979 16491 16112 18003 19026 18621 17868 17313 17101 17264 17330 17739 18216 18219 18933 19853 19007 18112 17029 15566 16878 20959 22005 22267 20026 18749 18229 17402 17928 18154 17232 14976 11951 12462 16041 19512 19831 19667 19300 19270 17525 13144 13214 12291 9619 6288 6415 7207 8199 8861 9359 9938 9985 10550 10617 10995 11280 65533 11625 65533 65533 65533 65533 65533 65533 65533 65533 65533 65533 65533 65533 65533 65533 65533 65533 65533 65533 65533 65533 65533 65533 65533 11382 65533 65533 65533 65533 11387 11266 11248 65533 65533 65533 65533 65533 65533 65533 65533 11266 65533 11213 11090 10454 10512 9736 8828 8008 7062 8024 9824 10045 12085 15012 17467 18298 18627 18534 18514 19005 19392 18956 18246 18538 18725 19199 18947 18999 18520 18477 18155 18439 19301 19006 19017 19198 18975 18363 19021 19231 19243 18559 18696 19209 19259 18905 19366 18351 19681 21929 21472 21319 21103 22062 21949 20936 20954 20891 21255 20576 20771 21009 21063 21301 20639 20580 20553
15691 16665 16081 16147 16441 16566 16761 16522 16540 16681 16955 16524 15620 16737 18390 19114 18550 17452 17438 17508 17024 17114 17375 17029 17530 18369 18930 20023 19140 17220 16761 18728 22482 22028 20937 18670 17776 17975 17686 18188 17604 16679 15327 12172 11961 15427 18767 19862 19893 19932 19392 18171 14601 13244 13164 10777 6996 6013 7092 8053 8744 9328 9841 9996 10459 10665 11096 65533 11470 11660 11736 65533 65533 65533 65533 65533 65533 65533 65533 65533 65533 65533 65533 65533 65533 65533 65533 65533 11304 65533 11443 65533 65533 11443 65533 65533 11593 65533 65533 11415 65533 65533 65533 65533 65533 65533 11612 65533 11384 11603 11316 10646 10738 9774 9060 8015 7178 8102 9966 9956 12439 15082 16959 18557 18767 18967 19199 18913 19402 19038 18829 18694 18410 18863 18946 18839 18930 18639 18723 18926 18793 19085 19959 19721 19056 19217 19033 18922 18803 19430 19398 19184 19159 19122 18793 18819 18193 20830 21956 21971 21287 21321 21699 21562 21489 21425 20294 20835 21154 21198 21170 20476 21081 21249 21249 20956
15996 15318 15882 16677 16949 16625 16068 16584 16487 17090 16778 16487 17184 16797 17928 18986 18968 18592 17452 17577 17657 17609 17427 17036 17118 17116 18933 18573 19092 19878 18564 17475 20755 21097 18732 16652 18636 17886 18406 17981 18330 17120 17432 15572 13251 12024 14137 18923 19481 19913 18974 19891 18846 15902 13774 13134 10946 7590 6165 6602 7739 8671 9279 9474 9950 10536 10874 65533 65533 11412 65533 65533 65533 65533 65533 65533 65533 65533 65533 65533 65533 65533 65533 65533 65533 65533 65533 65533 65533 65533 65533 65533 65533 65533 65533 65533 65533 65533 65533 65533 65533 65533 65533 11546 65533 11508 65533 11393 11546 11326 10854 10719 9841 9085 7947 7190 8250 9760 10203 12528 15171 17409 18208 18453 19189 19382 19443 19646 19254 19214 19058 18726 18758 18733 19285 19156 19399 19203 19346 18815 18961 19516 19096 19182 19478 19384 18850 19067 18862 19053 19434 19196 19008 19041 18429 17688 17915 20084 20959 21315 21859 21408 22247 21673 22037 21110 21368 21187 21336 20665 20992 21228 21268 21408 20970 21060
16688 16646 15960 16081 17174 16261 16312 15855 15628 17072 17007 16858 17011 17451 17607 18226 17952 19114 19316 17979 17355 17928 17662 17336 17739 18063 17780 17968 18130 19043 19297 18184 16577 17299 16068 18917 19937 19219 18446 18914 18561 17839 18014 17755 16785 13730 11477 13771 17872 20025 20119 20067 19952 19351 17011 13270 11757 12505 11666 7125 6442 7551 8416 8966 9532 10106 10427 10748 10787 11317 11163 11383 65533 65533 65533 65533 65533 65533 65533 65533 65533 65533 65533 65533 65533 65533 65533 65533 65533 65533 65533 65533 65533 65533 65533 65533 65533 65533 65533 65533 65533 65533 65533 65533 11555 65533 65533 11549 11182 10603 10602 9941 9104 8250 7396 8348 9945 10193 12954 15151 16919 18514 18746 19300 18720 18905 19213 18496 19016 18957 18610 18659 18988 19598 19533 19705 19534 19113 18491 18872 19300 18720 19229 18951 19548 18814 18765 18958 19595 19585 19409 19327 19249 19587 18924 17562 17467 18838 19613 20522 20944 21577 22590 22398 21896 21530 21654 21697 21439 21081 21357 21459 20484 20931 21018 21328
16438 15953 16993 16334 16359 16624 16968 17233 16815 16659 16694 16973 16988 17074 17199 17439 17571 18475 19782 19131 17480 17895 17738 17808 18499 18038 18280 18573 17830 18819 18967 17349 16791 16577 19619 20936 20382 19505 19050 19096 19058 18572 18221 18035 18305 16969 14539 11665 13350 17243 19776 20254 20088 19882 19687 18119 17707 18736 17848 14083 8519 6304 6996 8243 8936 9446 10025 10252 10719 65533 11370 65533 65533 65533 65533 65533 65533 65533 65533 65533 65533 65533 65533 65533 65533 65533 65533 65533 65533 65533 65533 65533 65533 65533 65533 65533 65533 65533 65533 65533 65533 65533 65533 65533 11896 65533 11565 65533 65533 10738 9996 9319 8250 7362 8243 9936 10347 12884 15690 16991 18342 19321 19443 19491 18956 19193 19068 19031 19242 18467 18595 18887 19544 20032 19050 18616 18870 19062 18816 18743 19517 19678 19021 19897 20064 19733 19043 19582 19986 19259 19850 19952 19067 19720 19081 17860 18408 19117 19273 18765 20430 22040 22284 22414 22273 21437 21571 21284 21472 21154 21081 21134 21070 21412 21718 20743
16752 16460 16256 16560 16562 16737 16128 17675 17582 16406 17003 17347 17373 17165 17058 17184 17393 18599 19244 19666 19245 17743 17771 17684 17728 18100 18338 17948 18382 18695 18425 18758 18801 19041 19862 20380 19771 19563 18618 18993 19275 19320 18085 18483 18537 18341 17012 14523 12187 12985 16559 19326 20171 20057 65533 19985 20023 19809 19249 18342 14551 8969 6272 6911 7996 8827 9381 9711 10319 10614 65533 65533 65533 65533 65533 65533 65533 65533 65533 65533 65533 65533 65533 65533 65533 65533 65533 65533 65533 65533 65533 65533 65533 65533 65533 65533 65533 65533 65533 65533 65533 65533 65533 65533 65533 11623 65533 11330 10594 10231 9381 8471 7541 8579 9778 10267 12887 15186 17384 18577 19524 19368 19697 19349 19048 18923 19589 19746 19382 19116 18994 19113 19770 19214 19191 18457 18849 19061 19050 19298 19505 18295 19195 19743 19684 20050 19755 19785 19409 19454 19783 19783 19734 19244 18118 17812 19046 19143 19346 19209 19609 20221 21974 22645 23053 21887 21851 21898 21780 21301 21727 21567 21910 20977 21328 21803
17197 16704 16165 16213 16251 17080 17214 16051 16496 16864 17153 17123 16857 17373 17052 16901 17969 17898 17750 18605 20029 19245 17979 17992 17996 17795 17914 18260 18191 18573 18432 19299 19792 19370 19297 20052 19595 18822 18560 19217 20005 19186 19690 18826 19478 19181 18668 17820 15708 12517 12400 15075 19157 20262 20317 20213 19944 20139 19524 18149 15022 12645 8742 6484 6492 7690 8689 9292 9718 10143 10777 65533 11359 65533 11614 65533 65533 65533 65533 65533 65533 65533 65533 65533 65533 65533 65533 65533 65533 65533 65533 65533 65533 65533 65533 65533 65533 65533 65533 65533 65533 65533 65533 65533 65533 65533 11202 11153 10232 9213 8589 7540 8529 10114 10477 13250 15725 17854 18659 19131 18987 19380 19536 19224 18842 19199 19808 19191 19587 19447 19705 19574 19324 19290 19768 19365 19903 19794 19217 19794 19056 19064 19112 19757 19644 19447 19898 19761 18637 19626 20119 19495 19379 18533 17535 18805 19840 19651 19537 19762 19243 19430 20544 20954 21937 21765 22307 22609 21596 21746 21845 22241 21578 21198 21963 22519
15705 15675 16105 16620 16430 15919 16935 16915 16777 16791 17490 16904 17141 17073 17123 17440 17529 17372 17760 18048 18983 19491 18805 17909 17812 18172 17728 18113 17947 17501 18216 18733 18770 19312 19539 20047 19148 18755 18881 19136 19413 19255 19766 19365 19948 19987 19401 19279 18330 16441 13629 12123 14433 18431 20020 20136 19599 19693 19790 18308 15653 12181 12456 10836 7341 6524 7522 8250 9248 9948 10307 10658 65533 65533 65533 65533 65533 65533 65533 65533 65533 65533 65533 65533 65533 65533 65533 65533 65533 65533 65533 65533 65533 65533 65533 65533 65533 65533 65533 65533 65533 65533 65533 65533 65533 65533 65533 10387 9428 8669 7512 8541 9962 10527 14035 16194 17927 19666 19563 19214 19588 19599 19526 19641 19531 19297 19059 19759 19846 19759 20396 19954 19936 19836 19414 19994 19471 19725 19115 20183 19231 19007 19273 19804 19742 19397 20067 18586 19392 19309 19123 19528 18450 17715 18521 19796 20159 19656 20175 19487 20089 20220 20271 19788 19754 20672 21010 22038 22071 22561 21686 21371 21783 22417 21440 21849
16511 16362 16082 16233 16779 16300 16727 16538 17015 16835 16938 17490 17472 17175 17340 18156 17828 17780 17796 17485 18092 19239 19375 18507 18145 18131 18457 18837 18180 17726 18468 17910 18507 19171 19336 19016 18934 18053 19052 18670 18553 18444 19182 19221 19482 19421 19679 19312 18749 18744 17522 14642 12541 13773 17711 19263 19578 19957 19973 19630 18278 15354 14140 14232 12415 8738 6508 7189 8440 9206 9912 10487 10477 65533 11146 65533 65533 65533 65533 65533 65533 65533 65533 65533 65533 65533 65533 65533 65533 65533 65533 65533 65533 65533 65533 65533 65533 65533 65533 65533 65533 65533 65533 65533 65533 11256 10547 9650 8631 7593 8922 10073 10490 13138 16383 17917 18843 19755 20077 20157 19347 18852 19446 18861 19533 19425 19345 20185 20241 20341 19865 19824 19994 19573 19563 20463 20474 20157 20112 19707 19382 19636 19939 20161 19184 19939 20628 19522 19813 19813 19556 19670 18672 18195 19419 19854 19998 20526 19778 20152 20625 21171 20488 20820 20245 18841 20068 20274 22163 21905 22531 22672 22758 21712 21825 22559
15894 16538 16590 16177 16119 17120 16646 17308 17233 17750 17370 17343 17619 17579 17708 17506 17989 18054 18000 18377 18646 19135 20028 19811 18408 18748 18394 18104 18213 18379 18559 18689 18625 19212 19134 19139 19299 19164 18474 18969 18838 18670 19010 19436 18743 18891 18827 19118 19489 18771 19213 18101 16431 12756 13392 16604 19787 20244 20157 20346 20140 19193 17383 14304 13512 12596 9972 6813 7007 8168 9267 9942 10477 10628 65533 11256 65533 65533 65533 65533 65533 65533 65533 65533 65533 65533 65533 65533 65533 65533 65533 65533 65533 65533 65533 65533 65533 65533 65533 65533 65533 65533 65533 65533 65533 10557 9821 8596 7781 8871 9971 10774 13728 16002 18122 19287 19401 20073 19831 20191 19489 19308 20072 19738 19094 19137 19694 19766 19976 20508 19578 19868 20403 20371 20140 20673 20298 20433 19696 19805 20296 20050 20149 20274 20361 20563 20121 20265 20125 20030 19795 19808 19472 19331 19883 19998 20312 20236 20514 20220 20405 20388 20424 20476 19517 19957 19510 20016 19698 20438 22889 22585 22463 22663 22508 22820
62289 63630 64495 64258 64145 64321 64445 64541 64726 65015 64713 64453 64151 63276 61789 63661 64652 63229 59738 59848 59423 60218 59296 59423 60311 60400 60056 59954 60400 61836 62988 60311 61107 58292 60570 63894 63630 63030 63051 63806 64814 65068 64800 63414 63439 63399 63707 63384 62528 60311 59505 60311 60122 58463 58626 57925 62528 64203 63943 63860 62528 54593 58463 62743 63496 63453 63468 63229 62988 63726 63796 63825 63841 63841 63870 63841 63960 63860 63929 63968 63998 64082 64049 64128 64187 64174 64170 64232 64235 64199 64199 64214 64232 64158 64199 64145 64121 64139 64089 64107 63990 64026 64013 63968 64068 64049 64089 63952 63929 63309 62929 61789 63326 63468 63545 63618 63650 63642 63707 63673 63510 63352 62528 63661 64744 64953 65056 65119 65157 65152 65122 65135 65286 65333 65333 65332 65335 65340 65340 65329 65313 65288 65234 65255 65308 65340 65341 65324 65314 65323 65325 65328 65336 65341 65339 65323 65314 65318 65314 65317 65317 65310 65301 65281 65239 65195 65181 65202 65241 65262 65255 65238 65194 65146 65100 65020
61449 63175 64187 64938 64702 64568 64538 64568 64556 64765 64235 63193 61393 60486 61449 64082 64761 61910 59848 59738 59954 59848 59954 60218 61041 63030 62883 63384 63030 63162 62644 57726 58463 59624 58626 63685 64639 63929 64258 63929 63796 63468 63009 63258 63326 63894 64334 64158 62528 60703 60973 60056 58881 58626 58626 58463 62644 64267 64006 63879 63030 61393 59164 61041 63009 63368 63143 63384 63758 63785 63747 63841 63885 63960 63920 63935 63920 63974 63998 63990 64013 64018 64089 64151 64220 64174 64199 64252 64267 64214 64241 64252 64241 64258 64306 64226 64241 64232 64214 64114 64134 64107 64164 64096 64096 64018 64061 64034 63806 63468 62859 61504 62644 63030 62218 62347 62587 62743 63162 63105 62662 62944 64488 64919 65048 65118 65150 65195 65201 65187 65150 65267 65332 65332 65329 65331 65335 65342 65345 65343 65333 65319 65299 65243 65222 65270 65315 65338 65346 65335 65337 65341 65340 65345 65347 65338 65339 65329 65322 65318 65313 65309 65309 65303 65295 65278 65241 65184 65175 65208 65238 65255 65254 65217 65162 65113
63860 64258 64495 64909 65019 64682 64495 64339 63974 63009 61295 60703 60311 60703 63605 64661 64158 60311 59738 59848 60218 60624 61558 62743 63051 62690 63860 63832 62716 62324 58881 58292 60056 60624 56647 61610 63618 63860 64349 64415 64334 63605 63342 62966 62988 63841 64806 65057 62794 63051 59848 57588 57925 58881 59026 58730 62218 64329 64049 63894 63276 62254 62380 58730 60311 62445 63453 63758 63860 63815 63796 63894 63935 63841 63982 63990 63968 63982 64006 64061 64026 64089 64164 64151 64187 64199 64199 64252 64241 64252 64235 64220 64263 64288 64293 64277 64252 64241 64241 64174 64235 64258 64145 64181 64187 64082 64041 63929 63726 63247 64391 65039 65182 65199 65159 65053 64947 64726 64407 64145 64434 64949 65097 65171 65223 65260 65272 65323 65313 65299 65280 65305 65310 65312 65318 65323 65324 65335 65347 65351 65349 65336 65322 65311 65270 65228 65220 65265 65307 65331 65335 65339 65342 65346 65354 65346 65332 65328 65331 65327 65310 65302 65302 65309 65311 65307 65295 65274 65238 65185 65176 65210 65245 65258 65229 65165
64445 64585 64639 64720 65079 64854 64114 62743 60854 60122 60400 60056 60122 62037 64288 64858 62254 60311 60570 61107 62477 63352 63935 64344 64068 62380 62794 63143 59624 59505 60703 60854 59954 58292 57588 58626 61558 63559 64740 64553 64349 63519 63309 62906 63065 62966 63510 64096 61393 60486 59026 58463 58292 58113 57726 58113 62289 64402 64075 63912 63293 62218 62644 62445 60624 61610 63618 63796 63903 63935 63960 63990 63960 64018 64013 63974 64006 64061 64075 64096 64089 64139 64193 64241 64232 64214 64247 64277 64277 64235 64288 64258 64316 64293 64311 64293 64329 64306 64235 64277 64258 64267 64311 64235 64139 64193 64082 63815 63414 64531 65298 65338 65326 65306 65290 65307 65288 65223 65104 65020 65039 65121 65165 65190 65220 65254 65286 65331 65337 65346 65348 65341 65334 65320 65315 65326 65324 65317 65331 65348 65359 65356 65336 65331 65324 65309 65277 65271 65275 65297 65316 65340 65332 65332 65337 65305 65275 65278 65286 65284 65284 65278 65291 65291 65305 65313 65309 65303 65298 65272 65217 65167 65171 65192 65207 65190
64599 64641 64621 64445 64768 65031 63825 60854 60218 59954 60780 60218 60780 63968 64825 64041 60400 61910 62906 63768 64306 64588 64568 64538 64277 61910 61504 60122 58626 60624 62662 61558 57726 55220 57144 58626 61953 62835 64174 64994 65100 63685 63414 62988 63009 62810 62254 61107 59738 58292 58626 57925 58463 58113 58626 57726 62254 64461 64101 63903 63085 61693 63496 63642 62835 60486 63175 63841 63935 63912 63968 63974 64026 64013 63982 64041 64034 64026 64114 64082 64174 64114 64170 64247 64226 64258 64272 64247 64296 64334 64311 64306 64263 64329 64321 64293 64277 64316 64306 64293 64321 64334 64277 64277 64214 64199 64006 63650 64006 65042 65345 65332 65310 65281 65245 65239 65259 65309 65311 65261 65146 65123 65176 65211 65228 65274 65318 65321 65318 65330 65342 65346 65348 65342 65342 65361 65368 65342 65324 65336 65354 65365 65356 65330 65342 65337 65337 65332 65326 65320 65316 65323 65308 65291 65263 65249 65239 65226 65227 65240 65249 65246 65244 65233 65223 65227 65246 65274 65288 65283 65270 65265 65226 65154 65102 65077
64550 64391 64049 63229 62413 64895 64670 62587 60570 60780 60486 59848 63162 64522 64857 63143 63968 64382 64634 64669 64675 64661 64602 64535 64398 63796 62180 60122 60056 62037 62498 59296 57588 54853 57372 58463 62380 62180 63943 64610 63685 62835 64373 63593 62743 61610 61693 59296 58463 58113 58463 59296 59026 57925 58292 58881 61996 64562 64247 63960 63352 62644 63815 63815 63593 61504 62037 63642 63952 64018 63982 64026 64075 64018 64114 64075 64068 64114 64139 64170 64128 64203 64203 64203 64203 64247 64282 64282 64296 64311 64277 64272 64282 64272 64311 64339 64301 64301 64311 64296 64258 64316 64296 64277 64220 64056 63768 63468 65038 65299 65258 65266 65282 65316 65331 65328 65312 65295 65287 65308 65318 65264 65199 65223 65249 65253 65286 65335 65348 65342 65328 65331 65344 65346 65351 65348 65378 65372 65361 65339 65345 65360 65368 65352 65343 65350 65344 65344 65328 65291 65303 65319 65224 65244 65281 65281 65267 65261 65241 65215 65206 65214 65226 65231 65231 65212 65193 65191 65198 65211 65241 65283 65273 65256 65201 65116
63982 62859 61504 60703 61041 64220 64989 63815 60926 60400 60780 61393 64306 65025 64656 64796 65009 65050 64894 64748 64691 64644 64541 64422 64277 63726 62347 60973 60703 62528 63309 59164 56647 58292 59296 59164 62587 63030 63545 63258 63009 62117 63105 61742 59505 60400 61610 58463 59423 59296 58113 58463 58881 58881 58881 58292 61953 64656 64258 63960 63726 63009 63796 63968 63879 63009 60218 63593 64018 64068 64034 64082 64107 64114 64128 64121 64181 64128 64128 64187 64193 64199 64151 64252 64267 64282 64311 64293 64361 64356 64316 64321 64349 64329 64321 64325 64316 64349 64370 64321 64356 64329 64356 64203 64121 63870 63879 65023 65280 65298 65275 65274 65270 65244 65267 65325 65344 65347 65345 65330 65306 65347 65348 65287 65271 65266 65264 65295 65333 65351 65353 65344 65336 65331 65345 65350 65369 65378 65375 65373 65361 65355 65366 65370 65345 65353 65352 65334 65294 65204 65291 65204 65202 65247 65267 65276 65281 65283 65278 65259 65250 65225 65196 65167 65187 65209 65198 65173 65143 65146 65171 65206 65229 65245 65249 65232
60780 60400 60780 60486 60780 61742 64781 64810 62929 61107 61504 64006 64920 65088 65126 65161 65008 64988 64971 64687 64591 64474 64226 63650 62347 60218 60218 60218 60973 63009 61742 61644 59296 60624 60780 56647 61335 63832 63785 62528 61393 59505 59296 60056 59423 60400 61996 58626 58626 57726 59164 58730 57925 59026 58463 58730 61881 64652 64349 64101 63860 63009 63851 63974 63952 63545 61041 63414 64121 64134 64101 64145 64114 64121 64151 64075 64139 64134 64164 64151 64181 64241 64252 64277 64311 64311 64316 64391 64349 64329 64334 64334 64361 64361 64349 64373 64352 64356 64391 64378 64382 64386 64288 64170 63935 63785 65160 65318 65328 65339 65346 65339 65349 65348 65310 65266 65295 65343 65349 65359 65355 65338 65367 65373 65338 65292 65272 65278 65309 65336 65348 65357 65357 65357 65341 65343 65343 65368 65377 65378 65373 65370 65361 65367 65357 65354 65342 65305 65208 65180 65209 65227 65272 65313 65333 65342 65346 65346 65342 65332 65326 65315 65299 65274 65243 65216 65198 65193 65161 65169 65154 65153 65168 65185 65199 65244
60570 60486 60311 60311 60122 60218 63368 64898 64426 63352 64013 64850 65196 65187 65226 65204 65090 64921 64874 64528 64187 63414 61836 60570 59738 58881 59954 60854 60400 60854 61172 61881 59954 62380 61107 57588 60056 61693 60570 59624 59848 59026 59296 59423 59624 59296 59505 59624 58730 58113 58626 59026 59423 57588 58881 58463 61693 64579 64373 64096 63929 63124 63747 63968 63968 63618 61610 63258 64018 64068 64075 64151 64174 64158 64114 64139 64187 64220 64181 64187 64235 64282 64258 64329 64306 64301 64344 64386 64344 64382 64334 64329 64352 64386 64386 64407 64334 64378 64411 64329 64325 64339 64226 63974 63429 64512 65241 65268 65322 65326 65309 65282 65312 65360 65380 65376 65338 65297 65340 65366 65366 65366 65342 65356 65381 65359 65311 65279 65293 65326 65347 65353 65359 65358 65359 65358 65351 65356 65372 65372 65375 65372 65371 65360 65347 65351 65319 65226 65213 65231 65292 65331 65347 65353 65356 65357 65355 65351 65348 65343 65337 65336 65334 65327 65315 65295 65254 65258 65263 65228 65200 65174 65157 65155 65160 65183
60400 60400 60056 60400 60780 60400 61558 64263 64988 64718 64875 65164 65242 65265 65251 65240 65168 65014 64366 63065 61172 60400 60056 60218 59848 60218 60486 60400 59624 59505 59848 59423 60624 62662 60122 60570 59505 60218 59848 60122 59423 60122 59164 59026 59954 59423 59026 59296 59296 58881 59738 58730 58113 58292 58113 58881 61335 64482 64311 63990 63920 62743 63211 63193 63085 62662 61172 63414 64128 64151 64164 64187 64199 64220 64241 64203 64193 64209 64232 64235 64247 64321 64296 64311 64325 64352 64329 64382 64382 64349 64366 64391 64391 64398 64402 64378 64411 64411 64391 64325 64293 64187 63974 63545 64370 65132 65242 65285 65251 65239 65238 65235 65254 65286 65333 65356 65382 65378 65328 65324 65359 65368 65365 65341 65360 65382 65366 65330 65292 65298 65329 65346 65356 65359 65359 65359 65358 65356 65350 65368 65379 65380 65376 65369 65358 65349 65284 65203 65283 65337 65355 65359 65356 65356 65353 65360 65359 65355 65353 65348 65342 65337 65336 65325 65330 65318 65287 65259 65278 65289 65272 65227 65194 65171 65171 65154
60400 60311 60311 60400 61393 62883 63912 64678 65014 65154 65135 65206 65271 65292 65277 65252 65138 64267 61789 60973 60056 60122 60703 61041 60400 59848 60400 60311 60400 58626 59624 59296 60122 59164 60624 60122 60122 59624 59954 59423 59505 59505 59164 59164 59164 59505 58292 58730 58730 57588 57925 58292 59423 58113 58292 58292 60926 64235 64407 63894 63894 61504 61172 62142 62254 62558 63051 63982 64139 64214 64187 64226 64232 64252 64263 64263 64258 64209 64263 64288 64316 64321 64329 64339 64329 64366 64426 64370 64434 64395 64407 64445 64445 64395 64391 64422 64457 64430 64391 64311 64247 64006 63559 64661 65246 65262 65326 65358 65368 65325 65306 65315 65325 65340 65348 65351 65362 65377 65389 65357 65318 65363 65367 65367 65337 65367 65381 65369 65345 65311 65311 65332 65344 65349 65355 65355 65358 65354 65355 65354 65375 65384 65385 65380 65366 65341 65258 65320 65356 65360 65360 65356 65368 65378 65379 65376 65368 65364 65362 65358 65355 65347 65339 65323 65328 65320 65305 65290 65271 65291 65299 65286 65263 65218 65186 65172
59164 60780 61610 62716 63768 64615 64970 65118 65191 65216 65224 65230 65247 65249 65245 65209 64959 62587 60973 60973 60624 60624 60486 60703 60624 60703 60056 60570 60780 60624 59296 58730 59505 60056 59954 60122 59738 60056 59505 59954 60122 59423 59848 58730 59296 59296 58730 58292 59164 59296 58730 58881 58292 58881 58463 58730 60780 64096 64591 64226 64082 63051 63775 64089 64151 64164 64203 64181 64252 64226 64214 64241 64316 64277 64296 64316 64301 64282 64293 64321 64296 64288 64356 64356 64402 64419 64430 64402 64434 64407 64442 64445 64373 64453 64461 64434 64430 64419 64344 64220 64041 63796 64937 65273 65259 65283 65328 65362 65381 65390 65367 65346 65361 65369 65379 65384 65382 65379 65380 65390 65369 65327 65356 65365 65366 65324 65379 65379 65372 65354 65327 65324 65336 65349 65351 65352 65352 65354 65348 65344 65347 65374 65383 65381 65360 65295 65342 65362 65368 65361 65373 65383 65380 65364 65348 65328 65316 65311 65315 65313 65319 65330 65325 65322 65332 65323 65313 65322 65294 65276 65296 65296 65294 65277 65251 65203
61393 62768 63768 64398 64792 64989 65170 65207 65219 65228 65233 65199 65193 65186 65165 65066 64272 61504 61107 61295 60780 60973 61107 60311 60570 60218 60218 60926 60973 60703 60703 60056 60973 60926 59738 60056 59954 60122 59026 59954 58730 60122 59296 58730 59624 59505 59423 58730 58113 59026 59164 58626 59026 59738 59505 59164 60311 64101 64865 64515 64352 63545 63960 64247 64263 64293 64293 64296 64277 64235 64311 64267 64288 64334 64316 64344 64352 64352 64349 64356 64356 64349 64391 64415 64445 64415 64543 64467 64445 64445 64478 64419 64430 64478 64461 64461 64467 64445 64306 64101 63929 65187 65338 65324 65330 65357 65373 65381 65388 65394 65396 65383 65373 65375 65376 65386 65391 65396 65393 65387 65396 65378 65328 65354 65366 65354 65333 65379 65385 65375 65357 65338 65337 65341 65350 65352 65352 65351 65350 65336 65330 65348 65371 65371 65321 65348 65366 65364 65364 65380 65369 65336 65296 65277 65262 65260 65261 65262 65261 65253 65262 65303 65298 65294 65315 65325 65320 65319 65308 65283 65281 65294 65300 65292 65282 65265
63747 64415 64713 64779 64933 65134 65182 65219 65207 65210 65197 65138 65122 65117 65109 64961 63143 61234 60854 61335 60703 60570 61172 60703 59738 60311 60854 60854 60570 60926 61041 60703 60570 60703 60056 60703 60218 59954 59505 58881 59954 59423 59738 58881 59423 58463 59164 57372 59026 58113 57588 59164 58292 59505 59423 58881 59738 64082 64855 64689 64646 64101 64068 64311 64306 64306 64316 64339 64329 64321 64296 64382 64329 64370 64344 64370 64334 64378 64382 64395 64407 64402 64434 64419 64411 64457 64503 64471 64488 64442 64471 64499 64488 64503 64503 64482 64430 64407 64164 63885 65047 65374 65384 65387 65390 65394 65391 65393 65393 65396 65400 65398 65386 65376 65383 65385 65390 65398 65399 65399 65391 65395 65380 65332 65354 65372 65328 65360 65381 65383 65372 65361 65349 65345 65351 65356 65354 65354 65353 65349 65330 65322 65352 65330 65342 65358 65350 65364 65372 65331 65281 65272 65286 65293 65303 65302 65296 65291 65286 65270 65314 65317 65328 65321 65303 65308 65318 65316 65313 65311 65276 65286 65299 65294 65287 65279
