1.53707 1.5389 1.53088 1.55745 1.55741 1.5629 1.54806 1.5932 1.58952 1.56593 1.59836 1.5882 1.61467 1.55243 1.54822 1.58315 1.59176 1.58826 1.55593 1.57674 1.60245 1.5626 1.56106 1.58496 1.56594 1.57383 1.56336 1.54816 1.5527 1.56421 1.5491 1.55469 1.57168 1.57956 1.53898 1.56616 1.55746 1.52308 1.58823 1.48883 1.47072 1.47618 1.57095 1.5036 1.52115 1.52831 1.55414 1.53662 1.52855 1.51418 1.46107 1.46415 1.46511 1.48514 1.53858 1.50247 1.46301 1.46891 1.55196 1.98012 2.01794 2.02221 2.03004 2.24262 2.23848 2.24329 2.25047 2.18525 1.86969 1.43638 1.30397 1.29234 1.29391 1.28734 1.29458 1.29368 1.28914 1.28849 1.2571 1.17627 1.13427 1.12025 1.12098 1.11988 1.12178 1.1125 1.1222 1.11861 1.11621 1.11982 1.11708 1.11945 1.12571 1.12111 1.12613 1.12811 1.12978 1.13052 1.12974 1.13676 1.13654 1.14413 1.13995 1.13937 1.14509 1.14386 1.14953 1.14827 1.1569 1.15318 1.15966 1.16251 1.16564 1.16814 1.16583 1.14701 1.13838 1.15726 1.15128 1.14617 1.11057 1.10575 1.10121 1.10143 1.09685 1.09196 1.07366 1.0622 1.05578 1.05203 1.0539 1.05575 1.05223 1.05165 1.05076 1.0528 1.05599 1.04292 1.06906 1.05977 1.05695 1.05794 1.05536 1.05805 1.0607 1.07414 1.08431 1.07778 1.08143 1.08418 1.08892 1.08344 1.08781 1.08692 1.0776 1.08358 1.095 1.09856 1.10638 1.12822 1.13102 1.12317 1.12188 1.12454 1.12799 1.17634 1.19464 1.19185 1.18337 1.18079 1.17759 1.17576 1.16967 1.16831 1.16466 1.16737
1.53325 1.54928 1.51666 1.55301 1.55968 1.52212 1.5348 1.55931 1.59291 1.57863 1.56935 1.57305 1.58212 1.56402 1.59957 1.58188 1.57211 1.5792 1.54452 1.54455 1.54424 1.56961 1.54259 1.53632 1.58108 1.55874 1.56658 1.56185 1.55531 1.5528 1.54819 1.54412 1.50187 1.53492 1.58621 1.53698 1.54973 1.53712 1.57342 1.45916 1.48415 1.56918 1.47256 1.52063 1.5207 1.51451 1.53024 1.5326 1.468 1.51638 1.45697 1.51161 1.45773 1.51208 1.49181 1.47776 1.44602 1.53956 1.494 1.81489 2.00875 2.01511 2.00524 2.18465 2.21949 2.18016 1.99177 1.54297 1.30394 1.27942 1.28103 1.28653 1.28208 1.28243 1.28275 1.28364 1.27428 1.21728 1.13462 1.11883 1.11176 1.11191 1.11233 1.11183 1.11283 1.10807 1.11083 1.11237 1.1163 1.1178 1.11567 1.11773 1.12068 1.12482 1.12442 1.12731 1.12747 1.1261 1.13255 1.13597 1.14298 1.14575 1.14368 1.14942 1.14972 1.1512 1.15417 1.15801 1.15763 1.15993 1.1604 1.16085 1.16518 1.16619 1.16837 1.16664 1.13821 1.14813 1.14304 1.11102 1.10173 1.09601 1.09566 1.08842 1.06954 1.06884 1.0565 1.05398 1.06125 1.05512 1.05283 1.05201 1.05117 1.04971 1.04734 1.04938 1.05288 1.04424 1.06597 1.05345 1.05829 1.06193 1.06053 1.05911 1.06147 1.06761 1.08013 1.07215 1.07757 1.08062 1.08538 1.08223 1.07906 1.08747 1.08423 1.08125 1.09269 1.09742 1.10238 1.12627 1.13051 1.12926 1.12195 1.11777 1.13893 1.19072 1.19482 1.1929 1.18299 1.18071 1.17781 1.17514 1.17103 1.16883 1.16659 1.17071
1.54637 1.53842 1.57008 1.55384 1.56359 1.53332 1.58692 1.58695 1.52855 1.57032 1.59739 1.56012 1.55803 1.59473 1.62777 1.56623 1.59317 1.59137 1.58951 1.58816 1.53791 1.62145 1.55419 1.55488 1.56598 1.56542 1.57501 1.56153 1.54563 1.55012 1.54461 1.52206 1.52581 1.55126 1.54938 1.52804 1.58026 1.49188 1.48712 1.47758 1.49875 1.55573 1.53605 1.52371 1.51161 1.50303 1.52798 1.51992 1.50229 1.46822 1.44986 1.46367 1.45299 1.45242 1.44405 1.45657 1.45112 1.48336 1.50961 1.72494 1.99231 1.99446 1.98008 2.11635 2.11604 1.7134 1.35729 1.28233 1.28038 1.28291 1.28242 1.27347 1.27654 1.27357 1.27388 1.25218 1.16081 1.12636 1.11209 1.10504 1.1064 1.10051 1.10908 1.1116 1.11199 1.11115 1.11301 1.11395 1.11426 1.11938 1.11966 1.1172 1.12136 1.12399 1.12691 1.12407 1.13147 1.1289 1.13173 1.13877 1.13795 1.13921 1.14166 1.1459 1.15373 1.151 1.15397 1.1506 1.16105 1.16154 1.16442 1.16067 1.17011 1.16901 1.1826 1.17876 1.14102 1.14435 1.10782 1.10333 1.10272 1.09701 1.07604 1.0709 1.06485 1.05908 1.06374 1.06359 1.05658 1.05729 1.05441 1.05211 1.05097 1.04655 1.04803 1.05009 1.0456 1.04465 1.05843 1.05682 1.06403 1.05766 1.05833 1.05955 1.06515 1.06426 1.08003 1.07935 1.07835 1.08141 1.08646 1.08914 1.08917 1.09061 1.08766 1.08265 1.08428 1.09855 1.09402 1.11564 1.13285 1.13016 1.12916 1.1264 1.15015 1.19257 1.19639 1.18709 1.18514 1.18229 1.17912 1.17702 1.17516 1.16511 1.17212 1.18798
1.54079 1.54984 1.55998 1.57288 1.55622 1.56506 1.53658 1.57611 1.57829 1.57331 1.59072 1.57106 1.56783 1.56224 1.59122 1.5772 1.60762 1.57214 1.55784 1.61967 1.60007 1.60266 1.54604 1.54555 1.55228 1.56101 1.56563 1.56467 1.55022 1.53598 1.54978 1.54392 1.58821 1.52087 1.52689 1.53142 1.52942 1.48991 1.45856 1.47855 1.51955 1.54874 1.53408 1.50363 1.52475 1.50903 1.52508 1.48695 1.44873 1.46884 1.46747 1.47622 1.48046 1.47303 1.49038 1.48768 1.43944 1.42406 1.47846 1.64203 1.97941 1.98186 1.8966 1.7091 1.461 1.28633 1.27089 1.27226 1.2682 1.27434 1.26902 1.27452 1.27338 1.27251 1.23514 1.14436 1.12711 1.10501 1.10611 1.10267 1.10675 1.10689 1.10339 1.10199 1.10872 1.1112 1.10793 1.11218 1.1131 1.1137 1.11548 1.11453 1.119 1.11891 1.12515 1.12533 1.13364 1.13258 1.13421 1.14034 1.1362 1.14441 1.14234 1.14748 1.15381 1.15741 1.15737 1.16092 1.16294 1.16103 1.16391 1.16407 1.17712 1.18714 1.18241 1.18187 1.14531 1.11866 1.0986 1.1076 1.09771 1.08362 1.0767 1.07604 1.07447 1.0675 1.05873 1.05711 1.05159 1.05528 1.04794 1.04684 1.0463 1.05197 1.0416 1.04307 1.04303 1.04385 1.04702 1.06047 1.05884 1.06573 1.05963 1.06057 1.05971 1.05883 1.07403 1.0839 1.07881 1.07808 1.09248 1.0972 1.09402 1.09227 1.08265 1.0849 1.07872 1.09995 1.09715 1.11188 1.13515 1.13362 1.13176 1.13387 1.16049 1.19866 1.19508 1.18266 1.18498 1.18271 1.18124 1.17915 1.17364 1.17483 1.18772 1.20637
1.58873 1.54251 1.53832 1.54499 1.5547 1.52855 1.52907 1.53349 1.57813 1.56063 1.58086 1.56829 1.59361 1.60808 1.53365 1.55425 1.55675 1.56869 1.61293 1.56767 1.60093 1.5412 1.5866 1.53995 1.54608 1.55771 1.54512 1.55318 1.53372 1.53467 1.52795 1.52998 1.52286 1.5351 1.53701 1.50854 1.49235 1.50238 1.50855 1.49901 1.51281 1.52393 1.53236 1.52148 1.52391 1.46447 1.47632 1.49917 1.48775 1.46018 1.46985 1.45889 1.45864 1.42906 1.47003 1.43887 1.46006 1.40003 1.45385 1.65589 1.8356 1.53919 1.34162 1.28601 1.27483 1.26993 1.26922 1.27239 1.26923 1.26333 1.26403 1.2644 1.26024 1.20538 1.12725 1.11242 1.10029 1.09658 1.101 1.10209 1.10043 1.10239 1.10039 1.10745 1.10602 1.11213 1.10825 1.11312 1.11464 1.11554 1.11551 1.12 1.11449 1.12015 1.11612 1.1296 1.12855 1.12748 1.13546 1.14069 1.14258 1.13661 1.1442 1.14995 1.14814 1.15234 1.15893 1.16249 1.16391 1.16471 1.17181 1.18008 1.19464 1.19985 1.19933 1.18917 1.13788 1.10491 1.10585 1.10766 1.08518 1.08396 1.06747 1.06413 1.05688 1.04784 1.04087 1.04373 1.04239 1.03895 1.03877 1.04421 1.04695 1.04698 1.04877 1.04372 1.03954 1.0386 1.04502 1.06145 1.0672 1.06348 1.05826 1.06479 1.06776 1.06482 1.07153 1.08551 1.07633 1.07823 1.10228 1.09767 1.09333 1.08984 1.08313 1.07959 1.08384 1.08861 1.10546 1.10953 1.13916 1.1382 1.13721 1.13645 1.16224 1.19873 1.19175 1.18986 1.18139 1.18537 1.18249 1.18012 1.178 1.18875 1.21061 1.21524
1.5599 1.57598 1.58334 1.56789 1.51679 1.56054 1.57299 1.54375 1.58162 1.58258 1.54871 1.53207 1.58507 1.56028 1.5669 1.53066 1.56448 1.56231 1.57653 1.55922 1.53109 1.54864 1.53832 1.53692 1.54479 1.54622 1.54439 1.5732 1.55784 1.5427 1.55621 1.5245 1.52383 1.51606 1.51382 1.51656 1.49919 1.46372 1.51066 1.51739 1.53091 1.51269 1.52557 1.50576 1.51204 1.49093 1.53883 1.45953 1.46895 1.48282 1.4719 1.46541 1.37159 1.45831 1.42148 1.44478 1.34251 1.4455 1.33107 1.33445 1.33241 1.25042 1.26122 1.26448 1.26742 1.26071 1.26149 1.26196 1.25366 1.2586 1.24423 1.23103 1.15113 1.1116 1.10101 1.10066 1.09516 1.09386 1.09466 1.10571 1.10587 1.09937 1.10039 1.1005 1.09937 1.10458 1.10795 1.11312 1.11343 1.11373 1.12005 1.1188 1.11541 1.12228 1.1258 1.12659 1.13461 1.12931 1.13517 1.14192 1.1417 1.13694 1.14362 1.15028 1.15059 1.15932 1.1644 1.16434 1.17269 1.1744 1.18601 1.21897 1.21758 1.22188 1.21323 1.15739 1.11389 1.10194 1.08727 1.0708 1.05223 1.04804 1.04892 1.0426 1.03806 1.03739 1.04148 1.04673 1.03794 1.03718 1.04087 1.03739 1.04192 1.04405 1.04377 1.04703 1.04344 1.03805 1.03827 1.05945 1.0655 1.06208 1.05834 1.06576 1.07079 1.06403 1.08014 1.0868 1.08435 1.08391 1.10243 1.0987 1.09145 1.09407 1.08823 1.08091 1.08749 1.08995 1.10075 1.12964 1.14142 1.135 1.13804 1.15018 1.17369 1.20534 1.19236 1.19418 1.18827 1.18544 1.18879 1.18558 1.18599 1.2184 1.21328 1.22885
1.61455 1.52205 1.53182 1.56321 1.53009 1.53716 1.52182 1.57044 1.55836 1.53906 1.56068 1.54917 1.54128 1.53788 1.55853 1.54525 1.57075 1.53569 1.55969 1.55073 1.56457 1.5047 1.51841 1.53385 1.53152 1.5373 1.55326 1.53267 1.53921 1.54542 1.52695 1.56246 1.52683 1.52081 1.51858 1.54226 1.51456 1.47731 1.5009 1.49223 1.51729 1.4581 1.48845 1.47899 1.48347 1.48702 1.46612 1.46424 1.46173 1.46754 1.45809 1.41242 1.45851 1.37262 1.41209 1.37905 1.30817 1.29749 1.25826 1.24899 1.25892 1.26373 1.25198 1.26216 1.25336 1.25386 1.25525 1.24456 1.24379 1.23184 1.15983 1.11099 1.09289 1.09318 1.09405 1.09098 1.09544 1.09203 1.09464 1.09451 1.09497 1.09844 1.10068 1.1032 1.10026 1.10486 1.10552 1.10554 1.11009 1.10888 1.11732 1.11727 1.12356 1.12499 1.12005 1.12628 1.13037 1.13566 1.13548 1.138 1.14292 1.14358 1.14695 1.14788 1.15422 1.16084 1.16925 1.1716 1.1878 1.20758 1.221 1.24432 1.22004 1.21653 1.18472 1.11503 1.07514 1.05719 1.06115 1.05489 1.04682 1.04533 1.03812 1.03869 1.03595 1.032 1.0334 1.0315 1.03972 1.05656 1.04534 1.0365 1.0452 1.04138 1.042 1.04022 1.03871 1.03926 1.04452 1.04885 1.06969 1.06597 1.06399 1.06494 1.06057 1.07057 1.07406 1.08368 1.09148 1.09279 1.10722 1.10232 1.10032 1.09886 1.09185 1.0886 1.09227 1.10371 1.11133 1.13879 1.14279 1.14472 1.1443 1.15416 1.17997 1.21422 1.19923 1.1962 1.19455 1.19342 1.19168 1.19554 1.22217 1.21654 1.20891 1.22003
1.51426 1.51089 1.48073 1.54891 1.5476 1.51907 1.48979 1.50119 1.54783 1.56352 1.55465 1.52624 1.53605 1.53435 1.53574 1.5178 1.57065 1.55403 1.51388 1.51323 1.56848 1.52889 1.58014 1.5456 1.53656 1.53417 1.53406 1.53917 1.5378 1.5487 1.49704 1.52959 1.50978 1.50079 1.4944 1.48559 1.47673 1.45923 1.52545 1.4996 1.5051 1.45506 1.51068 1.52443 1.43757 1.46492 1.45442 1.45491 1.45059 1.45759 1.44513 1.42845 1.42907 1.41648 1.31845 1.28744 1.25097 1.23815 1.24902 1.23854 1.24516 1.25056 1.24542 1.24566 1.24438 1.24578 1.24204 1.23375 1.18954 1.11994 1.10007 1.08651 1.09346 1.0868 1.08555 1.09064 1.09087 1.09078 1.09581 1.09538 1.0913 1.09628 1.09489 1.10074 1.10022 1.10573 1.10578 1.10762 1.11036 1.1155 1.11668 1.11754 1.1199 1.12315 1.12637 1.12051 1.13095 1.13473 1.14181 1.14282 1.14411 1.14659 1.15419 1.15814 1.16116 1.17171 1.17469 1.20661 1.22461 1.22509 1.22616 1.22388 1.22008 1.21927 1.11612 1.06448 1.05646 1.05294 1.05481 1.04585 1.03958 1.04889 1.04528 1.03985 1.03921 1.03256 1.03456 1.03296 1.02537 1.03059 1.02983 1.04334 1.05383 1.0503 1.04972 1.04853 1.04109 1.04312 1.04985 1.04945 1.05937 1.06866 1.0658 1.06764 1.07297 1.07709 1.07588 1.08785 1.09332 1.09112 1.10966 1.10389 1.10655 1.0946 1.08993 1.0983 1.09849 1.10414 1.1242 1.1485 1.14845 1.14981 1.1537 1.15638 1.19769 1.20506 1.19665 1.19791 1.20025 1.19713 1.21947 1.22527 1.22026 1.2107 1.20477 1.21059
1.51149 1.51959 1.52512 1.50693 1.52048 1.50036 1.51437 1.50139 1.57081 1.53466 1.54971 1.52155 1.51787 1.53508 1.55745 1.51101 1.51744 1.56571 1.52178 1.4742 1.55147 1.54581 1.53311 1.52614 1.52786 1.51435 1.52591 1.51402 1.52024 1.56516 1.5267 1.54871 1.54628 1.51904 1.51442 1.47845 1.56626 1.4926 1.48838 1.49775 1.4896 1.47427 1.47107 1.56423 1.47467 1.46093 1.46593 1.45777 1.43105 1.525 1.43273 1.26849 1.2723 1.2656 1.24868 1.23291 1.23901 1.23999 1.24034 1.24127 1.23737 1.23615 1.23671 1.23725 1.23717 1.23495 1.22849 1.15835 1.10142 1.09454 1.08643 1.08403 1.08131 1.0819 1.08216 1.08574 1.08476 1.09283 1.09514 1.09138 1.09517 1.09561 1.08605 1.10128 1.10076 1.10053 1.10814 1.11241 1.11212 1.10878 1.11148 1.11598 1.11712 1.12673 1.12239 1.12742 1.13 1.14043 1.13541 1.14127 1.15587 1.15502 1.16383 1.16325 1.17383 1.18589 1.21061 1.21687 1.22583 1.2239 1.22165 1.22209 1.21105 1.1476 1.07725 1.06352 1.06392 1.06401 1.05625 1.0551 1.04612 1.04013 1.03952 1.03051 1.03376 1.02771 1.02434 1.02813 1.02711 1.02965 1.02888 1.03346 1.03682 1.03152 1.05029 1.05326 1.06362 1.06356 1.05429 1.05596 1.05701 1.07044 1.0664 1.07031 1.07418 1.08154 1.08503 1.09025 1.10305 1.0947 1.11032 1.10396 1.10255 1.09644 1.09991 1.11031 1.11224 1.11121 1.14199 1.15472 1.15814 1.15631 1.15474 1.15571 1.20594 1.20358 1.20118 1.20729 1.21247 1.22354 1.22998 1.21879 1.21775 1.2082 1.20538 1.21065
1.50894 1.48362 1.5172 1.48148 1.51476 1.5028 1.53101 1.48791 1.44715 1.42757 1.50815 1.52282 1.55842 1.5329 1.52247 1.5572 1.57956 1.52881 1.54818 1.53771 1.51292 1.54412 1.52441 1.54628 1.54189 1.51084 1.51742 1.4973 1.52726 1.55459 1.55019 1.56575 1.47819 1.48477 1.49045 1.52417 1.54195 1.46675 1.50755 1.49202 1.51652 1.45781 1.44477 1.4424 1.45279 1.52042 1.42192 1.40447 1.43118 1.40677 1.26051 1.26164 1.23938 1.22546 1.2265 1.23352 1.22611 1.22858 1.22923 1.23587 1.23648 1.23164 1.22557 1.23665 1.22722 1.19544 1.11686 1.08799 1.08354 1.08299 1.08454 1.08093 1.08123 1.08695 1.08208 1.08474 1.0886 1.08458 1.09143 1.0916 1.09236 1.09311 1.09504 1.10151 1.10129 1.09893 1.10504 1.109 1.11356 1.11749 1.11322 1.11681 1.12069 1.1206 1.12535 1.13159 1.13629 1.1434 1.14201 1.14665 1.15521 1.15558 1.16984 1.17439 1.18709 1.21245 1.21572 1.21776 1.21525 1.21544 1.22164 1.20066 1.17818 1.09632 1.06482 1.05079 1.0509 1.04949 1.04174 1.03519 1.03372 1.02864 1.02774 1.02623 1.03428 1.02883 1.03713 1.02656 1.02554 1.03077 1.03896 1.05607 1.0457 1.05767 1.0681 1.066 1.06656 1.06383 1.059 1.0583 1.05876 1.06511 1.07023 1.07385 1.07978 1.08832 1.09711 1.09615 1.10485 1.10119 1.11243 1.10577 1.10553 1.09708 1.11949 1.11214 1.10971 1.12146 1.15108 1.15861 1.15943 1.15819 1.16267 1.18489 1.21044 1.21352 1.21197 1.20894 1.21327 1.21129 1.2223 1.22161 1.21492 1.20933 1.20624 1.22051
1.56046 1.49757 1.5112 1.50929 1.51351 1.4919 1.2371 0.983829 0.970297 1.07084 1.45649 1.53437 1.52036 1.50797 1.50411 1.54919 1.50167 1.51323 1.49406 1.51627 1.5167 1.51039 1.53838 1.50952 1.51617 1.50232 1.48429 1.50047 1.5589 1.56366 1.54544 1.57807 1.52083 1.48084 1.51073 1.49215 1.51138 1.45743 1.51485 1.45687 1.48669 1.45974 1.45205 1.43895 1.4416 1.43676 1.44651 1.39261 1.31499 1.26057 1.22101 1.22421 1.2211 1.22606 1.2334 1.22511 1.21408 1.22406 1.2238 1.219 1.22773 1.22138 1.19903 1.1477 1.10565 1.09704 1.07905 1.07884 1.07347 1.07413 1.08172 1.07418 1.07508 1.07657 1.08107 1.07889 1.08396 1.08508 1.08527 1.0912 1.09196 1.09422 1.09797 1.10171 1.09967 1.10156 1.10918 1.10648 1.10983 1.11346 1.1107 1.12096 1.12423 1.12748 1.12587 1.13605 1.14166 1.14211 1.14223 1.15869 1.15907 1.1661 1.17007 1.19067 1.21062 1.20364 1.20782 1.21531 1.20706 1.19698 1.19323 1.17316 1.10393 1.07332 1.05779 1.04979 1.04056 1.03795 1.03622 1.03508 1.03452 1.03424 1.03034 1.02762 1.02579 1.02544 1.02296 1.02915 1.03232 1.05041 1.04724 1.05629 1.05249 1.06416 1.06209 1.06119 1.06592 1.0718 1.05154 1.05826 1.05931 1.05975 1.07818 1.08652 1.09362 1.10363 1.0977 1.09645 1.10398 1.10795 1.11245 1.10873 1.10644 1.11754 1.11605 1.11481 1.12023 1.14735 1.16335 1.16277 1.16301 1.15773 1.17662 1.20431 1.21951 1.21428 1.21731 1.20742 1.20408 1.20268 1.20237 1.20881 1.20583 1.20281 1.20058 1.23119
1.55982 1.49968 1.55332 1.47695 1.43329 1.3052 0.975742 0.909892 0.902764 0.930127 1.26225 1.51695 1.50662 1.54451 1.50182 1.52297 1.47219 1.50251 1.53345 1.50783 1.51783 1.51646 1.49113 1.50246 1.50442 1.51073 1.47951 1.4819 1.52918 1.54007 1.5068 1.54441 1.49654 1.48129 1.49967 1.48136 1.49644 1.47001 1.46605 1.42848 1.41697 1.39887 1.38963 1.42951 1.4396 1.37776 1.33251 1.25877 1.23127 1.21896 1.21739 1.22059 1.21837 1.22572 1.22226 1.21395 1.22426 1.2153 1.22015 1.21294 1.19847 1.1475 1.07355 1.06859 1.06904 1.06493 1.07259 1.07328 1.07395 1.07431 1.07464 1.07586 1.06709 1.07735 1.08094 1.07998 1.07839 1.0789 1.08514 1.08562 1.09335 1.09288 1.09361 1.09735 1.09834 1.10326 1.10452 1.10515 1.11032 1.11031 1.11574 1.12691 1.12503 1.1301 1.1303 1.13806 1.14308 1.14928 1.15425 1.15951 1.17201 1.17146 1.19088 1.20451 1.19966 1.20569 1.1999 1.20799 1.19883 1.1664 1.15451 1.11271 1.07848 1.05782 1.04923 1.03128 1.02085 1.02668 1.02105 1.02112 1.02027 1.02631 1.02661 1.0257 1.01817 1.02592 1.04142 1.05239 1.04328 1.04732 1.05401 1.0565 1.06254 1.06109 1.07154 1.06558 1.0709 1.07203 1.06096 1.04544 1.06725 1.06827 1.08405 1.09209 1.09802 1.11481 1.10651 1.09761 1.10397 1.11234 1.11305 1.11254 1.11551 1.12544 1.11753 1.12503 1.13858 1.17122 1.18575 1.17414 1.1764 1.18264 1.19459 1.20473 1.21622 1.2173 1.21289 1.20702 1.20225 1.20372 1.19688 1.19909 1.19925 1.19399 1.20165 1.223
1.50945 1.50289 1.48156 1.48917 1.43134 1.09072 0.923476 0.905029 0.906724 0.922102 1.00219 1.27436 1.50174 1.52784 1.51765 1.51169 1.51174 1.50478 1.48063 1.5127 1.50061 1.48523 1.49512 1.50558 1.50988 1.49511 1.53009 1.4941 1.49411 1.52466 1.49341 1.5322 1.46806 1.49649 1.50601 1.48858 1.46516 1.4544 1.47683 1.4446 1.43786 1.42303 1.44121 1.39082 1.34718 1.24134 1.23003 1.2127 1.21746 1.21262 1.21254 1.21484 1.21681 1.21666 1.21409 1.20487 1.21698 1.21192 1.20021 1.16407 1.08448 1.06118 1.05924 1.06906 1.06226 1.06147 1.06308 1.0677 1.06867 1.06933 1.06966 1.07421 1.07269 1.07569 1.07929 1.07953 1.07915 1.07966 1.08591 1.08578 1.09321 1.09183 1.09923 1.09842 1.0985 1.10463 1.10498 1.11138 1.11048 1.11563 1.12137 1.12618 1.1337 1.13392 1.13473 1.1434 1.15933 1.15553 1.16141 1.17333 1.17402 1.19377 1.19199 1.19322 1.19927 1.19894 1.1995 1.19762 1.19875 1.15058 1.13295 1.10987 1.07895 1.05889 1.05149 1.02811 1.01075 1.01026 1.01277 1.00893 1.00809 1.03458 1.03068 1.03667 1.03333 1.03927 1.03829 1.03819 1.04795 1.05108 1.05031 1.054 1.06064 1.06606 1.06757 1.06667 1.07289 1.07788 1.08195 1.06967 1.05502 1.07234 1.07866 1.09942 1.10623 1.12567 1.11825 1.11169 1.10982 1.11731 1.12446 1.11662 1.12895 1.1199 1.12658 1.14136 1.15141 1.19392 1.18755 1.18665 1.1889 1.19716 1.20593 1.2057 1.21145 1.21169 1.20987 1.20001 1.19013 1.19133 1.19874 1.19471 1.19234 1.18992 1.20241 1.21815
1.52639 1.50634 1.44212 1.46773 1.36194 0.995716 0.909227 0.894155 0.899821 0.908326 0.92341 1.0002 1.13325 1.30297 1.53143 1.49373 1.54348 1.52063 1.4579 1.52016 1.48974 1.4618 1.52826 1.49611 1.51677 1.50141 1.50797 1.5048 1.49394 1.49244 1.51769 1.4822 1.47937 1.50043 1.45346 1.46528 1.46286 1.45655 1.45671 1.5909 1.40935 1.38913 1.37033 1.25962 1.23525 1.21142 1.20546 1.20485 1.20751 1.21225 1.20317 1.20546 1.20773 1.20427 1.20469 1.19787 1.17537 1.11551 1.05465 1.05067 1.04846 1.05559 1.05214 1.06045 1.0627 1.05949 1.06322 1.05907 1.06397 1.06886 1.07343 1.07314 1.06829 1.07401 1.07306 1.07361 1.07989 1.07949 1.07999 1.08592 1.09214 1.09956 1.09907 1.09856 1.09956 1.10508 1.1112 1.10759 1.11003 1.11487 1.12365 1.13058 1.13659 1.13893 1.15036 1.15751 1.1504 1.16661 1.17826 1.17927 1.19208 1.17911 1.20005 1.19522 1.19007 1.19156 1.19425 1.19509 1.18744 1.15681 1.11438 1.07982 1.0501 1.03578 1.03534 1.02009 1.02052 1.0131 1.01771 1.02983 1.02867 1.02509 1.03081 1.026 1.03047 1.03492 1.03844 1.03445 1.04122 1.04706 1.05077 1.06193 1.0626 1.06176 1.06864 1.06864 1.07516 1.07837 1.08482 1.06333 1.06529 1.06277 1.07887 1.10821 1.12683 1.12621 1.12526 1.11752 1.12358 1.13459 1.13234 1.1327 1.1298 1.12864 1.15165 1.1501 1.18401 1.18843 1.1931 1.19423 1.19965 1.19693 1.20628 1.20664 1.20263 1.21121 1.20396 1.20097 1.19423 1.18831 1.18379 1.18718 1.18908 1.19007 1.20398 1.21157
1.51548 1.50468 1.46355 1.44113 1.21166 0.963336 0.917983 0.899493 0.901168 0.89909 0.907856 0.910011 0.925652 1.00064 1.0741 1.37429 1.4123 1.50806 1.50391 1.48196 1.52859 1.49603 1.52228 1.47227 1.50842 1.50886 1.50691 1.50462 1.51463 1.52197 1.46238 1.5112 1.49687 1.45942 1.48133 1.42386 1.49524 1.4367 1.39288 1.37452 1.41799 1.26581 1.24809 1.20137 1.20293 1.20147 1.19431 1.20237 1.19963 1.20376 1.19647 1.19486 1.19021 1.19034 1.15828 1.09067 1.05185 1.0479 1.04785 1.05018 1.04828 1.04998 1.05619 1.05392 1.05587 1.06173 1.05911 1.06191 1.0653 1.06626 1.06537 1.07205 1.07174 1.07413 1.07924 1.07736 1.07456 1.08022 1.0792 1.08604 1.0865 1.0927 1.10162 1.10051 1.10515 1.10642 1.10617 1.11196 1.11531 1.12199 1.12682 1.13284 1.13733 1.14332 1.15141 1.161 1.16844 1.17708 1.1866 1.18003 1.18739 1.18169 1.18082 1.18266 1.1866 1.18234 1.18927 1.17619 1.16099 1.09889 1.07007 1.0464 1.03964 1.02291 1.01613 1.0199 1.02033 1.02044 1.02054 1.02091 1.02157 1.02611 1.02522 1.02702 1.02789 1.03715 1.04037 1.03907 1.04494 1.04779 1.0548 1.05551 1.06126 1.06728 1.07178 1.07535 1.07889 1.08597 1.08529 1.06677 1.06309 1.06146 1.07905 1.11373 1.1229 1.12583 1.13344 1.11833 1.12704 1.14804 1.13815 1.1344 1.14234 1.15724 1.156 1.16348 1.19157 1.19251 1.18933 1.18497 1.19592 1.19349 1.1994 1.1989 1.19779 1.18428 1.19858 1.18902 1.18373 1.18184 1.17932 1.17818 1.18096 1.1981 1.20128 1.20157
1.53124 1.47114 1.44516 1.41616 1.21771 0.987433 0.928149 0.903673 0.900209 0.896406 0.899431 0.899845 0.904826 0.906041 0.927717 1.00435 1.20105 1.44093 1.4416 1.48498 1.50863 1.45939 1.51743 1.4785 1.51964 1.49928 1.49643 1.48589 1.4694 1.48022 1.43707 1.51539 1.47299 1.48666 1.47397 1.41824 1.42407 1.45245 1.37414 1.25758 1.24053 1.19898 1.20446 1.19888 1.19864 1.19418 1.19389 1.19566 1.19561 1.18865 1.19725 1.18992 1.17866 1.10424 1.03874 1.03903 1.04022 1.03987 1.04102 1.04697 1.04597 1.04917 1.05297 1.0504 1.05537 1.05881 1.0583 1.06413 1.05965 1.0606 1.0685 1.06912 1.07547 1.07727 1.07692 1.07837 1.07829 1.08487 1.08112 1.08614 1.08781 1.09432 1.10446 1.10487 1.11102 1.112 1.11387 1.11359 1.12029 1.12483 1.13209 1.1363 1.14261 1.15437 1.16277 1.17479 1.17859 1.17782 1.17673 1.17714 1.18025 1.17152 1.1749 1.1822 1.17462 1.17097 1.17518 1.1297 1.07698 1.04877 1.03963 1.0217 1.01465 1.01453 1.0144 1.01244 1.02133 1.01842 1.02063 1.01588 1.02407 1.0235 1.02472 1.02682 1.031 1.03395 1.03418 1.04368 1.04236 1.04342 1.04775 1.05563 1.0599 1.06772 1.07192 1.08086 1.08083 1.08702 1.08604 1.0785 1.06413 1.06932 1.0727 1.09971 1.12841 1.14669 1.13364 1.12942 1.14519 1.14032 1.13866 1.15808 1.16658 1.16683 1.1577 1.18648 1.18514 1.18318 1.18728 1.18554 1.18723 1.19089 1.19046 1.19402 1.19234 1.19005 1.18829 1.18648 1.18435 1.17675 1.17966 1.17256 1.1816 1.19819 1.19658 1.19406
1.52953 1.4753 1.42812 1.43106 1.23592 1.02887 0.953111 0.914113 0.905515 0.900283 0.901304 0.902291 0.898639 0.904741 0.908517 0.914295 0.963505 1.01225 1.0765 1.14846 1.30391 1.43728 1.45821 1.48177 1.51824 1.44537 1.50382 1.47917 1.44677 1.46022 1.44504 1.50539 1.40768 1.48283 1.43013 1.45706 1.36677 1.24538 1.23256 1.20629 1.2017 1.19796 1.1921 1.19277 1.18685 1.19285 1.19195 1.18653 1.18738 1.1819 1.17669 1.15854 1.08775 1.04362 1.03491 1.03611 1.04 1.03725 1.03809 1.03861 1.04605 1.04805 1.04791 1.05864 1.05575 1.06252 1.06262 1.05634 1.06003 1.05977 1.06798 1.0689 1.07556 1.07614 1.07973 1.07755 1.08414 1.08465 1.08484 1.09382 1.09519 1.102 1.10668 1.11103 1.11172 1.113 1.11973 1.12128 1.12403 1.13343 1.13797 1.14369 1.15396 1.16207 1.17533 1.17035 1.16748 1.17126 1.17412 1.16936 1.17248 1.17649 1.17198 1.17504 1.17232 1.14836 1.09713 1.06893 1.04042 1.03432 1.02064 1.00725 1.01532 1.00644 1.00903 1.00859 1.01657 1.01427 1.01618 1.01867 1.02144 1.02087 1.02631 1.0251 1.02928 1.03464 1.03427 1.04168 1.04606 1.04442 1.04845 1.05634 1.06031 1.06813 1.07263 1.08128 1.0884 1.0931 1.08736 1.08458 1.07613 1.06975 1.06247 1.07855 1.10551 1.10847 1.11257 1.12312 1.14332 1.14727 1.16881 1.17148 1.16591 1.16734 1.16844 1.17475 1.17954 1.17207 1.1791 1.18608 1.184 1.18219 1.18437 1.1891 1.18686 1.19091 1.18112 1.17389 1.17693 1.17705 1.17142 1.15638 1.18249 1.18947 1.18703 1.1868
1.54636 1.45461 1.45625 1.45273 1.41165 1.05895 0.999443 0.935673 0.911949 0.902709 0.902009 0.903855 0.899911 0.900534 0.902567 0.907177 0.911767 0.916628 0.925249 0.948124 0.971614 1.0214 1.07363 1.1406 1.24843 1.23826 1.45244 1.45359 1.50034 1.43515 1.43499 1.45901 1.4372 1.43841 1.4052 1.27135 1.24378 1.20514 1.19852 1.19662 1.19052 1.18558 1.18209 1.18604 1.18668 1.1864 1.17352 1.18067 1.17341 1.15772 1.09845 1.03909 1.02892 1.03166 1.03167 1.03075 1.03705 0.0 0.0 1.04561 0.0 1.04721 1.04979 0.0 0.0 1.0526 1.06329 1.06004 1.06313 1.06074 1.06895 1.06957 1.07623 1.0762 1.08253 1.08368 1.08087 1.08715 1.09007 1.0951 1.10376 1.10845 1.11039 1.11293 1.11574 1.11338 1.12133 1.12105 1.13352 1.13898 1.14412 1.15563 1.16832 1.17553 1.15963 1.16406 1.16149 1.1671 1.16055 1.15974 1.16469 1.16961 1.15752 1.15724 1.10691 1.07357 1.0575 1.03021 1.0214 1.01651 1.00767 1.00699 1.00841 1.00135 1.00787 1.00712 1.00636 1.01252 1.01442 1.01782 1.01969 1.02033 1.02005 1.02667 1.02995 1.0302 1.03464 1.04085 1.04434 1.04779 1.05242 1.05583 1.0604 1.06912 1.07691 1.08765 1.08493 1.09798 1.09461 1.07815 1.05605 1.02833 1.02464 1.01857 1.02017 1.01643 1.0227 1.02922 1.05985 1.13391 1.16399 1.16902 1.16639 1.16577 1.16775 1.17232 1.17101 1.17199 1.17641 1.17788 1.17525 1.17431 1.18028 1.1781 1.17617 1.18714 1.18109 1.17443 1.16775 1.1699 1.16087 1.17714 1.17796 1.18014 1.1797 1.17724
1.55189 1.46547 1.47023 1.45794 1.42537 1.1445 0.980231 0.959229 0.938679 0.912569 0.909583 0.903674 0.905198 0.906979 0.901794 0.903796 0.90519 0.907136 0.908764 0.911239 0.928269 0.94298 0.944835 0.95896 0.979833 1.03859 1.09334 1.20174 1.43081 1.46606 1.48098 1.48674 1.4262 1.2583 1.22786 1.20267 1.18008 1.17941 1.17901 1.17501 1.17098 1.17466 1.17445 1.1757 1.17005 1.16527 1.16135 1.1598 1.12163 1.06478 1.03726 1.03012 1.02506 1.0293 1.03111 1.0308 1.03378 0.0 0.0 1.04928 0.0 0.0 0.0 0.0 1.05707 1.06112 1.06394 1.06371 1.05741 1.06412 1.06445 1.07234 1.07627 1.07685 1.08227 1.08464 1.09002 1.08993 1.09558 1.10153 1.10867 1.10607 1.11622 1.11967 1.12097 1.12164 1.12169 1.13327 1.13905 1.15029 1.15604 1.16451 1.15593 1.16041 1.15453 1.15988 0.0 1.14136 1.16062 1.15192 1.16354 1.15815 1.14302 1.076 1.05267 1.0357 1.02116 1.00963 1.009 1.0026 1.00225 1.00248 1.00179 1.0047 1.01093 1.00202 1.00699 1.01466 1.01235 1.01183 1.02063 1.02067 1.02401 1.02611 1.0309 1.02515 1.0389 1.04091 1.0438 1.04666 1.05249 1.06098 1.06256 1.07009 1.08058 1.08953 1.09784 1.10254 1.0834 1.02621 1.02198 1.01624 1.01998 1.01895 1.00753 1.01651 1.01304 1.01103 1.01518 1.01399 1.05775 1.14805 1.16684 1.15569 1.16354 1.1687 1.16477 1.17246 1.16875 1.1743 1.17022 1.17046 1.17297 1.17773 1.16976 1.17528 1.17729 1.17122 1.16741 1.16243 1.15683 1.17739 1.17396 1.17247 1.16894 1.17582
1.5543 1.47404 1.54984 1.47163 1.46407 1.41769 1.05452 0.975925 0.966555 0.9465 0.909388 0.903471 0.905568 0.905326 0.906783 0.909947 0.905547 0.907491 0.908826 0.911008 0.921332 0.934867 0.936416 0.945261 0.946476 0.960876 0.974695 0.996758 1.07512 1.07694 1.17264 1.26703 1.22162 1.21638 1.16898 1.17875 1.17157 1.17298 1.17406 1.17422 1.17018 1.167 1.1617 1.14889 1.13873 1.10308 1.05388 1.02796 1.02929 1.0255 1.02949 1.02805 1.0293 1.02812 1.02753 1.03143 1.03924 0.0 0.0 0.0 0.0 1.04607 1.04986 1.05273 1.06315 1.06326 1.06094 1.06344 1.06774 1.06779 1.06478 1.06964 1.08146 1.07901 1.08382 1.08983 1.09005 1.09634 1.10503 1.10885 1.10992 1.12009 1.11626 1.12487 1.13043 1.13354 1.13906 1.14517 1.15552 1.16068 1.15123 1.15574 1.15598 1.15134 1.17708 1.15021 1.15432 1.13623 1.15307 1.17141 1.14628 1.1248 1.05624 1.03383 1.03357 1.02177 1.01055 1.00297 0.998406 1.0011 1.00195 1.00219 1.0021 1.0026 1.00641 1.00747 1.01063 1.01317 1.01056 1.01547 1.02156 1.02672 1.02734 1.02644 1.02762 1.03359 1.03773 1.04065 1.04594 1.0482 1.05523 1.06313 1.06531 1.07045 1.08482 1.09049 1.0994 1.09844 1.0275 1.01288 1.01163 1.01659 1.01559 1.02019 1.02416 1.00918 1.01281 1.01346 1.01053 1.00494 1.00757 1.02866 1.13266 1.15612 1.16046 1.16008 1.15792 1.16737 1.16862 1.16401 1.16546 1.16687 1.16852 1.16724 1.16994 1.16828 1.166 1.16397 1.14758 1.15178 1.16817 1.16225 1.17163 1.16987 1.16211 1.16562
1.57555 1.5128 1.50407 1.5026 1.42687 1.44589 1.20615 0.998043 0.956921 0.95749 0.943365 0.904687 0.906206 0.905384 0.910019 0.907972 0.908786 0.907826 0.90334 0.911631 0.921665 0.929066 0.945819 0.943837 0.943581 0.951518 0.961799 0.972666 0.979403 0.974621 0.971279 0.985349 1.02192 1.11099 1.14267 1.16904 1.16155 1.17187 1.15389 1.15433 1.11925 1.08707 1.04196 1.01171 1.01281 1.01359 1.01045 1.01688 1.0134 1.02221 1.02319 1.02506 1.03142 1.03325 1.02874 1.03144 1.03955 0.0 0.0 0.0 1.05375 1.05243 1.04866 1.06151 1.06074 1.06055 1.05943 1.06678 1.06775 1.07143 1.07298 1.07329 1.08208 1.08357 1.08444 1.09501 1.09341 1.1085 1.10839 1.11495 1.11511 1.12345 1.12357 1.1325 1.13471 1.13995 1.14912 1.14428 1.14794 1.15006 1.14578 1.1503 1.15023 1.15562 1.1388 1.15115 1.14371 1.14234 1.14733 1.14136 1.10165 1.05921 1.04592 1.0229 1.02173 1.00325 0.999019 0.998715 1.00112 0.996846 0.999522 1.00157 1.00088 1.00259 1.00307 1.00626 1.01154 1.01378 1.0169 1.01426 1.02096 1.02311 1.02675 1.03157 1.03455 1.03301 1.03685 1.04067 1.04476 1.05422 1.05526 1.06765 1.06504 1.07736 1.08546 1.0983 1.10423 1.09134 1.01384 1.00993 1.00661 1.00742 1.01028 1.03683 0.0 1.01396 1.01286 0.0 1.01589 1.01324 1.00644 1.00639 1.03096 1.15565 1.16 1.14793 1.14724 1.15148 1.15624 1.15804 1.15313 1.16064 1.15392 1.16219 1.16001 1.15779 1.15381 1.15123 1.14116 1.15281 1.1618 1.15788 1.15734 1.16185 1.15807 1.1633
1.55419 1.50918 1.51232 1.50405 1.47065 1.46212 1.36673 1.09278 1.00197 0.946656 0.948888 0.950225 0.912881 0.908021 0.905715 0.908583 0.916361 0.9157 0.0 0.918939 0.9176 0.929964 0.937355 0.938876 0.940371 0.948892 0.9577 0.962378 0.973231 0.963716 0.967154 0.97294 0.979009 0.987733 0.990218 0.991495 1.00345 1.0044 1.01366 0.999368 1.00114 1.00229 1.00342 0.99885 1.00712 1.01119 1.01075 1.00968 1.0152 1.01409 1.01958 1.01813 1.02449 1.03535 1.03596 1.0263 1.03743 1.03406 1.04365 1.04538 1.04558 1.05363 1.04895 1.05394 1.06134 1.06115 1.06427 1.06556 1.06956 1.07264 1.07388 1.07935 1.07964 1.09207 1.09445 1.09804 1.09766 1.11154 1.11417 1.12042 1.1218 1.12467 1.13179 1.14558 1.14627 1.13904 1.13939 1.14611 1.13974 1.14399 1.14548 1.1354 1.13625 1.17054 1.13881 1.14355 1.14311 1.14204 1.12606 1.06994 1.04057 1.02456 1.01036 1.00952 0.999849 0.991081 0.995349 0.994137 0.996851 0.995909 0.996465 0.995186 0.999947 1.00045 1.00456 1.00352 1.0094 1.01678 1.01507 1.01968 1.02065 1.02039 1.02795 1.03759 1.03124 1.03571 1.04106 1.04487 1.04986 1.05333 1.05587 1.06587 1.06685 1.08157 1.09206 1.10579 1.1153 1.09078 1.00878 1.00518 1.00364 1.0006 1.0011 1.02262 1.02808 0.0 0.0 1.01264 1.02182 1.00944 1.00706 1.00378 1.00518 1.08246 1.14516 1.14481 1.14792 1.15362 1.15023 1.14943 1.15295 1.15641 1.14622 1.14469 1.1538 1.15217 1.14619 1.13788 1.14045 1.1501 1.15339 1.15263 1.14926 1.1589 1.15683 1.1502
1.5593 1.51964 1.52252 1.49779 1.46493 1.45667 1.42403 1.15495 1.00547 0.974832 0.95842 0.957177 0.929637 0.916997 0.908334 0.908595 0.91463 0.915708 0.919959 0.0 0.92198 0.931135 0.93765 0.938875 0.94301 0.946539 0.952696 0.959724 0.969691 0.962824 0.963895 0.966127 0.971003 0.974975 0.979821 0.977818 0.981735 0.986529 0.988627 0.991003 0.991571 0.99122 0.999815 0.99823 1.00291 1.00188 1.01222 1.01026 1.01037 1.01377 1.01835 1.02503 1.02747 1.03081 1.02931 1.03683 1.02986 0.0 1.04453 1.04475 1.0513 1.04846 1.05861 1.06178 1.06555 1.06445 1.06788 1.07281 1.07378 1.07231 1.07992 1.08327 1.09146 1.09387 1.10324 1.10835 1.11314 1.11578 1.11993 1.1271 1.13425 1.13652 1.13177 1.13583 1.13896 1.13355 1.13542 1.13515 1.13394 1.13393 1.13543 1.13904 1.13563 1.12672 1.13697 1.15115 1.16865 1.09216 1.05185 1.02553 1.015 1.00325 1.00181 0.994588 0.994337 0.990426 0.989839 0.990146 0.994986 0.994045 0.998543 0.995748 0.994756 0.999803 1.00422 1.00408 1.00937 1.01342 1.01292 1.01391 1.02182 1.02036 1.02943 1.03696 1.03543 1.03719 1.04013 1.05027 1.05045 1.05692 1.06155 1.07335 1.07254 1.08995 1.09775 1.11327 1.11203 1.08512 1.00907 1.00041 1.00274 1.00059 0.999312 0.984664 1.0109 1.0196 1.0188 1.01738 1.01652 1.00032 0.998541 0.999094 1.00079 1.02444 1.14523 1.14137 1.14362 1.13824 1.1407 1.14254 1.142 1.14723 1.14574 1.1445 1.14668 1.14824 1.1391 1.13512 1.14429 1.14965 1.1401 1.14279 1.14143 1.14684 1.13998 1.15063
1.55676 1.50689 1.52503 1.52614 1.47368 1.50077 1.42623 1.41142 1.09524 1.00789 0.976852 0.978518 0.952444 0.931451 0.920778 0.920476 0.912589 0.918896 0.915578 0.921844 0.933061 0.931118 0.938511 0.939149 0.947393 0.948575 0.951791 0.958523 0.963769 0.960435 0.960615 0.964914 0.96327 0.974648 0.972962 0.977191 0.979322 0.985602 0.989486 0.991564 0.991832 0.995663 0.997983 0.999088 1.00017 0.998241 1.00408 1.00511 1.00882 1.01132 1.01921 1.02438 1.02593 1.02956 1.0368 1.04011 1.03766 1.03882 1.03935 1.04803 1.05186 1.05356 1.05796 1.06114 1.06702 1.07138 1.0736 1.07156 1.07435 1.075 1.08261 1.08566 1.09658 1.09747 1.10351 1.11287 1.11918 1.12122 1.13388 1.13132 1.12478 1.13649 1.13143 1.13275 1.13284 1.13169 1.12504 1.1342 1.13056 1.12964 1.13418 1.13292 1.12981 1.13277 1.13267 1.15538 1.07188 1.03371 1.01409 0.997492 0.99609 0.992849 0.992024 0.99027 0.988198 0.988843 0.992811 0.991297 0.99007 0.994893 0.994238 0.989929 0.996211 0.999441 1.00538 1.00766 1.00599 1.01458 1.01438 1.019 1.02449 1.02544 1.0321 1.03149 1.0378 1.04137 1.04491 1.05203 1.05763 1.06199 1.06813 1.07453 1.083 1.09592 1.11179 1.11625 1.1165 1.07467 1.01768 1.00306 0.98873 0.995511 0.989784 0.989382 0.989253 0.0 0.98744 0.986054 0.988775 0.992641 0.994116 0.992912 0.9908 1.02063 1.13648 1.13878 1.13694 1.13887 1.13405 1.13939 1.14032 1.13946 1.14059 1.14197 1.13204 1.12843 1.12768 1.13606 1.13692 1.13401 1.1382 1.13405 1.1421 1.13985 1.14293 1.14368
1.54005 1.44458 1.51873 1.51385 1.49265 1.44165 1.45124 1.40871 1.37255 1.06736 0.992109 0.993798 0.972069 0.944448 0.9335 0.927123 0.919532 0.919739 0.920789 0.927645 0.929814 0.93664 0.941404 0.94351 0.945005 0.94677 0.954104 0.962018 0.960775 0.96098 0.962638 0.963978 0.965887 0.966886 0.966378 0.973572 0.978972 0.980486 0.987644 0.991808 0.985804 0.993814 0.994636 0.993642 0.993225 0.99908 1.00402 1.00985 1.00936 1.01486 1.02577 1.02071 1.0343 1.02769 1.04096 1.04005 1.0376 1.04178 1.04594 1.04706 1.04938 1.0538 1.05578 1.0641 1.06514 1.07071 1.079 1.08029 1.07944 1.07979 1.08984 1.09198 1.10321 1.11322 1.11227 1.12437 1.12703 1.12177 1.1244 1.12883 1.12625 1.13187 1.12864 1.12479 1.13248 1.12524 1.12955 1.12562 1.12959 1.12563 1.12986 1.12738 1.12063 1.13242 1.13414 1.04881 1.02373 1.01295 1.00488 0.994978 0.986886 0.98699 0.990422 0.992924 0.987508 0.987547 0.990301 0.993645 0.993024 0.994814 0.994463 1.00076 0.996437 0.998457 1.00439 1.01031 1.00773 1.013 1.01945 1.01832 1.02292 1.02387 1.03234 1.03626 1.04166 1.04582 1.05207 1.05739 1.06299 1.06885 1.06868 1.07928 1.09135 1.10756 1.11654 1.11832 1.10722 1.05972 1.02002 1.00479 0.992251 0.991004 0.987064 0.98815 0.988024 0.989353 0.987695 0.985719 0.985492 0.988186 0.987018 0.990824 0.995179 1.03763 1.13503 1.13529 1.12878 1.13598 1.1335 1.13477 1.13135 1.13254 1.13165 1.13189 1.13122 1.11983 1.12686 1.1298 1.13698 1.13865 1.13227 1.13469 1.13222 1.1297 1.12941 1.13359
1.52754 1.51548 1.56285 1.5197 1.5321 1.47972 1.43623 1.50388 1.38184 1.20931 1.01599 0.994073 1.00439 0.971025 0.946208 0.935495 0.928492 0.925801 0.927148 0.926717 0.935021 0.938049 0.939005 0.942867 0.945241 0.948769 0.951983 0.956062 0.959238 0.960326 0.966123 0.964799 0.969673 0.971564 0.974326 0.977961 0.977413 0.979521 0.981013 0.986364 0.988716 0.994038 0.991868 0.994164 0.999738 0.995704 0.999145 1.00858 1.00688 1.01569 1.02178 1.02605 1.02729 1.03666 1.03817 1.03846 1.04628 1.04412 1.04647 1.04759 1.05626 1.05735 1.06387 1.06433 1.07325 1.07367 1.07922 1.0793 1.08665 1.09004 1.09644 1.10648 1.1162 1.1177 1.11979 1.12156 1.12331 1.12231 1.11824 1.12298 1.12009 1.12084 1.12492 1.12045 1.11871 1.12547 1.12065 1.11824 1.1216 1.11825 1.11913 1.11818 1.14186 1.0882 1.02204 0.992412 1.00112 0.985462 0.985615 0.986361 0.983745 0.984458 0.987587 0.986443 0.984067 0.989575 0.991419 0.990512 0.990804 0.990774 0.994975 0.999762 1.00059 1.00109 1.00794 1.0075 1.00794 1.01533 1.01876 1.02096 1.02193 1.03163 1.03075 1.03618 1.04037 1.04816 1.05351 1.05973 1.06562 1.07359 1.07612 1.09242 1.10358 1.1138 1.11231 1.10601 1.11046 1.05667 1.01906 1.01724 1.00974 0.991235 0.986997 0.0 0.984403 0.0 0.981126 0.982114 0.977465 0.983709 0.975184 0.989598 0.998659 1.06284 1.12887 1.12182 1.1203 1.12751 1.13 1.12866 1.12641 1.12994 1.12819 1.12612 1.11824 1.1161 1.12574 1.12523 1.12239 1.12609 1.12316 1.13331 1.12828 1.1289 1.12436 1.13224
1.57006 1.52808 1.52641 1.49198 1.55843 1.48611 1.48692 1.49683 1.42408 1.38694 1.09167 1.01134 1.00378 1.00627 0.977736 0.958941 0.938601 0.938249 0.927954 0.928689 0.936703 0.937976 0.937758 0.942791 0.945164 0.946926 0.953671 0.956277 0.960632 0.961425 0.964264 0.970342 0.966623 0.972368 0.973645 0.976386 0.979407 0.980324 0.983605 0.985079 0.988325 0.993348 0.992074 0.993171 0.996647 0.994408 1.00475 1.00608 1.00768 1.0177 1.0262 1.03499 1.03051 1.03656 1.03385 1.04168 1.04679 1.04553 1.05272 1.04991 1.06282 1.05877 1.06378 1.06059 1.07042 1.08479 1.08337 1.09286 1.09597 1.10573 1.11458 1.11398 1.10973 1.1088 1.11757 1.11508 1.11805 1.11826 1.11754 1.11863 1.11574 1.11101 1.11843 1.11853 1.11862 1.11868 1.1099 1.10566 1.12029 1.11176 1.11204 1.14214 1.07295 1.0004 0.988441 0.999603 0.99796 0.975909 0.97576 0.978942 0.978456 0.981908 0.983822 0.987848 0.988207 0.987942 0.992521 0.993132 0.991298 0.995821 1.00093 1.00117 0.998356 1.00159 1.00632 1.01314 1.01298 1.01129 1.02017 1.02509 1.02878 1.03214 1.03789 1.03668 1.04691 1.04626 1.05853 1.06415 1.07456 1.08132 1.09765 1.10314 1.11519 1.11073 1.11314 1.11641 1.11069 1.04884 0.0 0.0 0.0 0.0 0.0 0.0 0.0 0.0 0.0 0.0 0.976797 0.0 0.987483 0.996296 1.01299 1.09243 1.11565 1.11915 1.11443 1.12136 1.12007 1.1135 1.1107 1.11831 1.11601 1.11396 1.10783 1.11696 1.1194 1.11604 1.12268 1.11436 1.12117 1.11507 1.11862 1.12011 1.11985 1.12915
1.55266 1.47383 1.50268 1.52419 1.45798 1.52529 1.50358 1.48286 1.49702 1.42722 1.20826 1.07503 1.01441 0.998111 1.00839 0.98586 0.962356 0.953595 0.941277 0.942613 0.941875 0.944618 0.943819 0.946805 0.947419 0.953596 0.952984 0.957653 0.964371 0.962211 0.963571 0.965204 0.966815 0.972857 0.97443 0.975685 0.976025 0.984984 0.986777 0.987059 0.990007 0.992938 0.994655 0.996653 0.996234 0.997293 1.00194 1.00716 1.00937 1.01157 1.01946 1.02855 1.03673 1.03735 1.03826 1.047 1.04999 1.0436 1.05381 1.05101 1.05575 1.06713 1.06791 1.07381 1.0788 1.09196 1.11209 1.09913 1.10922 1.10623 1.1093 1.10354 1.10962 1.10473 1.10864 1.10889 1.1082 1.10872 1.11378 1.10999 1.11472 1.11485 1.11467 1.11294 1.10571 1.11339 1.10217 1.10616 1.108 1.11134 1.14391 1.08051 1.01618 1.0219 1.00018 0.978765 0.975908 0.976992 0.977147 0.984286 0.978322 0.978429 0.981561 0.9865 0.986556 0.992977 0.992087 0.995129 0.994205 0.994175 1.00171 1.00074 1.00551 1.00753 1.0071 1.00817 1.01316 1.01692 1.02579 1.0289 1.03198 1.03353 1.03627 1.0414 1.04891 1.05579 1.06686 1.07518 1.08798 1.08843 1.10236 1.11295 1.10041 1.11124 1.11185 1.10615 1.09716 1.04545 0.0 0.0 0.0 0.0 0.0 0.0 0.0 0.0 0.0 0.0 0.0 0.0 0.993579 1.00268 1.01761 1.10822 1.11324 1.11529 1.11379 1.11255 1.11098 1.10909 1.11734 1.10811 1.10263 1.10263 1.11646 1.1103 1.11102 1.11601 1.11491 1.1152 1.11515 1.1082 1.11348 1.12096 1.11559 1.12633
1.59033 1.4736 1.4738 1.47193 1.49164 1.46654 1.48589 1.51442 1.48557 1.45455 1.40465 1.15719 1.06143 1.01453 0.99613 1.01771 0.996568 0.980866 0.965666 0.965867 0.954633 0.949485 0.950744 0.956674 0.95671 0.955247 0.958466 0.963435 0.96514 0.9683 0.96641 0.965379 0.970548 0.973625 0.977873 0.972883 0.975601 0.98158 0.987248 0.986334 0.989581 0.990417 0.997519 1.00192 0.996703 0.999862 0.994598 1.00523 1.00804 1.01655 1.02234 1.02992 1.02544 1.03722 1.04085 1.04899 1.04896 1.04619 1.05338 1.06146 1.06197 1.06851 1.07353 1.08611 1.10353 1.11428 1.10893 1.10416 1.10878 1.10398 1.10948 1.10737 1.09915 1.1043 1.10182 1.10511 1.10229 1.1028 1.10452 1.10073 1.10484 1.10498 1.1054 1.10702 1.1068 1.10656 1.10783 1.09689 1.13925 1.12126 1.07371 1.03224 1.01086 0.991596 0.978716 0.972524 0.97393 0.964663 0.977302 0.977136 0.975434 0.977975 0.978674 0.981486 0.985192 0.993439 0.992852 0.995591 0.995274 1.00101 1.00794 1.00757 1.00749 1.00769 1.01181 1.01682 1.01302 1.02404 1.02536 1.03028 1.03517 1.03763 1.0458 1.0473 1.0521 1.05838 1.06884 1.07747 1.08997 1.10453 1.10675 1.10353 1.1039 1.10364 1.09887 1.09139 1.08599 1.04295 1.01786 0.0 0.0 0.0 0.0 0.0 0.0 0.0 0.0 0.0 0.0 0.0 0.998775 1.00581 1.02957 1.10784 1.10466 1.11346 1.11108 1.10955 1.10916 1.10698 1.11146 1.10514 1.10344 1.09823 1.10311 1.10938 1.10895 1.10705 1.1051 1.11 1.11196 1.10988 1.11316 1.11126 1.11357 1.12687
1.62996 1.46909 1.49653 1.48389 1.48795 1.48853 1.56685 1.48634 1.46692 1.46116 1.43746 1.42315 1.13359 1.03469 1.00907 0.995242 1.00024 1.009 0.996169 0.985897 0.978196 0.975421 0.969675 0.965939 0.963046 0.963944 0.96511 0.965661 0.96589 0.966094 0.968936 0.971462 0.972781 0.974376 0.974462 0.975418 0.976351 0.982628 0.983225 0.988578 0.992125 0.994159 0.998271 0.995477 0.992357 0.996413 1.00736 1.00809 1.0127 1.0179 1.02339 1.02978 1.03283 1.03013 1.03889 1.05156 1.05757 1.05783 1.06049 1.06283 1.06969 1.07836 1.09369 1.10688 1.11431 1.10473 1.10726 1.10037 1.10013 1.10292 1.10447 1.10357 1.10174 1.09868 1.09955 1.09827 1.09758 1.09505 1.10163 1.0951 1.09403 1.09478 1.09764 1.09774 1.09782 1.09758 1.09671 1.12995 1.10284 1.055 1.0111 0.979673 0.967128 0.967363 0.973371 0.972966 0.967672 0.961754 0.977135 0.977579 0.978007 0.974766 0.980943 0.979496 0.984723 0.988412 0.994513 0.998771 0.997846 1.00753 1.00445 1.01075 1.00794 1.01662 1.01377 1.01787 1.01771 1.02238 1.02853 1.02891 1.03532 1.04382 1.04474 1.05741 1.05798 1.06787 1.08165 1.08936 1.09735 1.09659 1.10301 1.0986 1.08967 1.08103 1.08646 1.07929 1.08376 1.04221 0.0 0.0 0.0 0.0 0.0 0.0 0.0 0.0 0.0 0.996772 0.0 1.00513 1.00395 1.01158 1.03533 1.10774 1.10426 1.10896 1.10074 1.10624 1.09389 1.10572 1.1006 1.09459 1.09639 1.09438 1.09753 1.11045 1.10196 1.10237 1.10532 1.10276 1.10074 1.10781 1.1017 1.10608 1.1104 1.11606
1.63195 1.49939 1.4579 1.49212 1.47995 1.48166 1.45927 1.50208 1.4686 1.46371 1.42157 1.42339 1.24247 1.12374 1.06027 1.00702 1.00185 0.997217 0.994867 1.00445 1.00614 1.00193 0.995631 0.989284 0.975246 0.969975 0.97321 0.971409 0.976666 0.973036 0.974405 0.973972 0.97381 0.974514 0.975194 0.972579 0.980657 0.983063 0.977393 0.988117 0.988972 0.990705 0.996311 0.995312 0.99429 0.997146 1.00719 1.01002 1.01614 1.01683 1.02383 1.02449 1.03688 1.04053 1.04898 1.05834 1.06013 1.05766 1.06244 1.07204 1.07256 1.08577 1.09504 1.0958 1.10201 1.10669 1.10346 1.09717 1.10331 1.0985 1.09397 1.09337 1.09914 1.09273 1.09299 1.09901 1.0895 1.09975 1.09537 1.0925 1.096 1.09217 1.09198 1.09178 1.08485 1.10777 1.09746 1.05482 1.01186 0.98016 0.979833 0.960902 0.965115 0.961999 0.967704 0.972783 0.970534 0.972838 0.969036 0.97557 0.978129 0.982801 0.979544 0.984486 0.985456 0.996137 0.999502 1.00254 1.00617 1.00827 1.00488 1.0124 1.01656 1.02039 1.01633 1.01952 1.02117 1.03038 1.03078 1.036 1.0418 1.04818 1.05363 1.05996 1.06385 1.06982 1.08631 1.09432 1.09749 1.09673 1.09174 1.08314 1.07662 1.08118 1.07403 1.08392 1.07464 1.04086 1.03129 0.0 0.0 1.01801 0.0 0.0 0.0 0.0 0.0 0.0 0.0 0.0 0.0 1.01585 1.04548 1.10673 1.10502 1.09771 1.09711 1.09648 1.09756 1.09104 1.0839 1.08663 1.0928 1.09427 1.09569 1.09361 1.09753 1.09162 1.10005 1.09607 1.09406 1.10287 1.10646 1.1077 1.11088 1.12221
1.63816 1.50275 1.50782 1.50203 1.51467 1.4973 1.46035 1.44125 1.44585 1.42998 1.4091 1.22415 1.12411 1.11666 1.09783 1.0789 1.02846 1.00959 1.00317 1.00284 1.00305 1.00851 1.00867 1.00469 0.998015 0.998365 0.993085 0.985994 0.979154 0.978779 0.979265 0.977947 0.973338 0.974931 0.980071 0.979245 0.982266 0.986461 0.983778 0.984352 0.988492 0.995011 0.990739 0.995429 1.0004 0.997563 1.00281 1.00864 1.01415 1.01725 1.02395 1.03093 1.04153 1.04427 1.05001 1.06389 1.06055 1.06534 1.07043 1.0758 1.08055 1.07862 1.0794 1.08137 1.0812 1.08709 1.09417 1.09486 1.09432 1.09497 1.09318 1.09349 1.09196 1.09254 1.09311 1.09396 1.08749 1.09195 1.08788 1.08774 1.09216 1.08163 1.0918 1.08428 1.08497 1.01768 0.978104 0.970205 0.959852 0.959846 0.968053 0.953692 0.964001 0.963628 0.981825 0.990558 0.980692 0.977512 0.972186 0.974763 0.980975 0.979256 0.981477 0.989461 0.992559 0.999287 1.00356 1.00691 1.01054 1.00504 1.01227 1.01676 1.01697 1.02051 1.01705 1.02599 1.03098 1.0314 1.03271 1.03854 1.04494 1.0483 1.05798 1.06431 1.0697 1.0823 1.09517 1.08692 1.07897 1.07401 1.07955 1.06885 1.07825 1.07022 1.07745 1.07896 1.07029 1.0368 0.0 0.0 0.0 0.0 0.0 0.0 0.0 0.0 0.0 0.0 0.0 1.00364 1.00688 1.01952 1.05532 1.101 1.09049 1.09229 1.09111 1.09283 1.09013 1.08448 1.08144 1.0865 1.08512 1.09355 1.09267 1.09376 1.09193 1.0984 1.09533 1.09968 1.09652 1.09532 1.09836 1.10475 1.10907 1.12267
1.57588 1.5021 1.47253 1.48032 1.47581 1.4618 1.50088 1.40416 1.413 1.34817 1.15365 1.11778 1.09331 1.09421 1.09767 1.09937 1.08619 1.0403 1.01729 1.00529 0.998779 1.00013 0.999689 1.00304 0.99842 0.998475 0.993194 0.990823 0.987533 0.987167 0.983219 0.980423 0.974331 0.975924 0.916541 0.904938 0.982069 0.990141 0.986564 0.987738 0.990386 0.996009 0.992635 0.997027 1.0023 1.00757 1.01282 1.01054 1.01335 1.01585 1.02465 1.02892 1.04313 1.04618 1.05011 1.06369 1.06549 1.06484 1.07295 1.07439 1.07217 1.07569 1.07283 1.07632 1.07675 1.07778 1.08273 1.07947 1.08591 1.0893 1.09328 1.08994 1.08994 1.08474 1.08499 1.08523 1.08241 1.07805 1.08798 1.07352 1.08586 1.07746 1.06874 1.01459 0.969868 0.958952 0.955639 0.955359 0.955369 0.955058 0.959608 0.95317 0.955251 0.966459 0.981001 0.966579 0.967377 0.973034 0.967708 0.968762 0.972846 0.979955 0.985524 0.987119 0.99691 1.00364 1.00974 1.01399 1.00972 1.01121 1.01662 1.02292 1.01798 1.02636 1.02381 1.02609 1.0335 1.03846 1.04189 1.04589 1.0523 1.05807 1.06472 1.06833 1.07614 1.08663 1.08533 1.07438 1.06644 0.0 1.06944 1.07076 1.06875 0.0 1.07606 1.07159 1.06561 0.0 0.0 0.0 0.0 0.0 0.0 0.0 0.0 0.0 0.0 0.0 0.0 0.0 1.01466 1.02316 1.06103 1.08996 1.08798 1.08274 1.09533 1.08945 1.07829 1.07674 1.08127 1.08198 1.08351 1.09021 1.09222 1.09072 1.08515 1.08876 1.08197 1.08949 1.08836 1.09032 1.09907 1.10375 1.10808 1.1268
1.61707 1.48498 1.51614 1.52744 1.47597 1.47966 1.50648 1.45276 1.16987 1.10834 1.0993 1.08354 1.09082 1.0949 1.09749 1.09802 1.09269 1.08964 1.07166 1.02935 1.01087 1.00403 1.00154 0.997547 0.997041 0.998271 1.00006 0.991503 0.992645 0.985775 0.98064 0.980508 0.965512 0.914811 0.794994 0.804704 0.826925 0.99261 0.990826 0.987522 0.992562 0.995194 0.997809 1.0016 1.00359 1.00375 1.00839 1.01393 1.01343 1.02165 1.02503 1.03353 1.0393 1.05682 1.06076 1.06559 1.0692 1.06583 1.06668 1.06751 1.06862 1.07365 1.06594 1.07367 1.06986 1.07392 1.07037 1.07713 1.07415 1.07996 1.08029 1.08547 1.08698 1.09243 1.08203 1.08197 1.08249 1.08239 1.07344 1.05472 1.018 0.991007 0.969782 0.958898 0.949216 0.953538 0.950225 0.949335 0.955441 0.952692 0.95328 0.959644 0.949838 0.973847 0.98199 0.967567 0.967451 0.964578 0.974482 0.977668 0.980228 0.984597 0.988643 0.994497 1.00368 1.01588 1.01346 1.01316 1.01679 1.02009 1.01882 1.02148 1.0223 1.0225 1.02328 1.03072 1.03873 1.0443 1.0453 1.05112 1.05873 1.06238 1.06481 1.07113 1.06778 1.06772 1.06825 1.06152 1.06051 1.06428 1.06502 1.06304 1.07034 1.07041 0.0 1.07168 1.06779 1.037 0.0 0.0 0.0 0.0 1.01585 0.0 0.0 0.0 0.0 1.00641 1.00883 1.0121 1.02389 1.03091 1.06319 1.07801 1.07575 1.08255 1.0811 1.07874 1.06817 1.0748 1.07963 1.08208 1.08013 1.08337 1.08134 1.07726 1.07574 1.08426 1.08466 1.0853 1.08847 1.08987 1.09777 1.10473 1.11758 1.13316
1.56319 1.49078 1.47083 1.48659 1.46184 1.44779 1.26132 1.12858 1.10562 1.08139 1.08555 1.08709 1.08801 1.08426 1.09061 1.08677 1.08725 1.09002 1.09159 1.07852 1.05103 1.02227 1.01364 1.00702 0.998877 0.999226 0.992764 0.991868 0.991237 0.985252 0.984262 0.951223 0.812134 0.800787 0.0 0.0 0.826981 0.96494 0.995369 0.993861 0.998308 0.996755 0.999671 0.999571 1.00215 1.00411 1.00876 1.01399 1.0147 1.02111 1.02751 1.03389 1.04328 1.05719 1.07049 1.06445 1.0611 1.06106 1.05797 1.05909 1.06505 1.06584 1.06601 1.07192 1.06537 1.07034 1.06618 1.07081 1.06358 1.06909 1.06576 1.07033 1.06636 1.06115 1.04253 1.01201 0.975681 0.957896 0.958061 0.956991 0.95621 0.956633 0.948811 0.942192 0.948968 0.958472 0.953635 0.955794 0.955194 0.950615 0.953032 0.953909 0.959648 0.962933 0.966811 0.968539 0.969642 0.985657 0.985507 0.981381 0.981504 0.988918 0.995399 0.998209 0.9937 1.00743 1.01352 1.01626 1.01715 1.01651 1.02071 1.02519 1.02874 1.03136 1.03123 1.03199 1.04091 1.04527 1.05111 1.05875 1.0594 1.06457 1.07303 1.06214 1.06 1.06538 1.05536 1.05888 1.06058 1.05743 1.06359 1.06851 1.06171 1.06329 1.06274 1.06217 1.05739 0.0 0.0 0.0 0.0 0.0 0.0 0.0 0.0 0.0 0.0 0.0 1.01363 1.00273 1.02013 1.03128 1.06826 1.07192 1.07378 1.08057 1.07649 1.06888 1.0668 1.07255 1.07389 1.08216 1.07702 1.07881 1.07738 1.0759 1.07295 1.07226 1.07872 1.08511 1.08799 1.08824 1.09615 1.10767 1.12791 1.14914
1.55763 1.48039 1.45729 1.45651 1.27886 1.14675 1.10111 1.08449 1.07467 1.08059 1.08331 1.0834 1.08027 1.08375 1.08429 1.08655 1.08731 1.08833 1.08435 1.085 1.07801 1.06481 1.0448 1.01912 1.01393 1.00959 1.00019 0.991919 0.992469 0.990627 0.985497 0.840082 0.80416 0.0 0.0 0.0 0.0 0.903846 0.988551 0.998092 0.99716 0.999796 1.00241 1.00292 1.0022 1.00956 1.01722 1.01825 1.02408 1.02838 1.0375 1.03816 1.04936 1.0512 1.0642 1.05906 1.06054 1.05294 1.05711 1.05733 1.05783 1.05468 1.05999 1.05589 1.06481 1.06614 1.06623 1.06296 1.06089 1.04755 1.0202 0.97122 0.947753 0.937647 0.938175 0.936251 0.932788 0.935705 0.934952 0.942714 0.937665 0.938695 0.944586 0.945586 0.940474 0.940529 0.947885 0.952482 0.951272 0.956144 0.957036 0.960353 0.9603 0.960232 0.966853 0.972543 0.981873 0.985091 0.98159 0.985384 0.989465 0.989266 0.995138 1.0019 1.00774 1.01538 1.01722 1.02147 1.02084 1.02172 1.02865 1.02857 1.03212 1.03323 1.03855 1.04568 1.04581 1.05107 1.05752 1.06303 1.05915 1.05766 1.0616 1.06068 1.05009 1.05608 0.0 1.05893 0.0 1.05688 1.06364 1.06286 1.06266 0.0 0.0 1.06581 0.0 0.0 0.0 0.0 0.0 0.0 0.0 0.0 0.0 0.0 0.0 1.00505 1.01723 1.01902 1.02402 1.03958 1.07303 1.06992 1.0753 1.06539 1.06513 1.06572 1.06831 1.0697 1.07337 1.07234 1.07012 1.06352 1.06905 1.06874 1.06465 1.06772 1.07476 1.07685 1.0829 1.09003 1.09536 1.11514 1.1348 1.18438
1.56166 1.46089 1.40281 1.15488 1.09669 1.0788 1.06537 1.07306 1.07011 1.08034 1.07701 1.07911 1.08089 1.07828 1.07969 1.08252 1.08007 1.08196 1.07739 1.07627 1.07893 1.06983 1.05686 1.05 1.02985 1.01757 1.01083 1.00524 0.999003 0.991547 0.974865 0.809271 0.0 0.0 0.0 0.0 0.0 0.830503 0.930071 0.938066 0.923626 0.959421 0.98537 1.00744 1.01573 1.0165 1.01755 1.02369 1.02681 1.02781 1.03662 1.04874 1.05754 1.07025 1.05909 1.05667 1.05241 1.0569 1.05351 1.05221 1.05634 1.05592 1.05547 1.06077 1.05604 1.04188 1.01646 0.968212 0.940278 0.935108 0.923533 0.930794 0.924049 0.926109 0.930591 0.932623 0.93251 0.935122 0.937415 0.937256 0.942567 0.937807 0.944612 0.94043 0.948121 0.947261 0.95035 0.953728 0.952518 0.95556 0.954319 0.960684 0.963984 0.959953 0.971756 0.97196 0.982814 0.981461 0.993193 0.990284 0.985533 0.992033 0.998514 1.00498 1.00777 1.01358 1.02181 1.0218 1.02148 1.0257 1.02959 1.03498 1.03094 1.03871 1.04161 1.04601 1.0522 1.05625 1.06299 1.05519 1.04738 1.04591 0.0 0.0 1.05224 0.0 1.0461 0.0 0.0 1.04519 1.05496 1.06289 1.05309 1.05647 1.05593 0.0 1.05449 0.0 0.0 0.0 0.0 0.0 0.0 0.0 0.0 0.0 0.0 0.0 1.01372 1.02053 1.02346 1.03991 1.06836 1.07025 1.05949 1.05781 1.06341 1.06049 1.06923 1.06799 1.06467 1.06424 1.06145 1.06211 1.06533 1.06012 1.06296 1.0669 1.06618 1.07259 1.08323 1.09035 1.10938 1.1169 1.15331 1.25135
1.56904 1.34157 1.12389 1.07492 1.0622 1.06396 1.06567 1.06706 1.06869 1.06942 1.07299 1.06584 1.07165 1.07337 1.07535 1.07556 1.07136 1.06798 1.06106 1.0646 1.07016 1.06457 1.06099 1.05237 1.0484 1.03673 1.02087 1.01145 1.00966 0.999253 0.986133 0.815805 0.0 0.0 0.0 0.0 0.0 0.820969 0.883213 0.894454 0.902704 0.852286 0.852987 0.864162 0.887637 0.928542 0.966184 0.996042 1.00907 1.01668 1.0038 1.00474 1.01622 1.03193 1.03676 1.02496 1.02582 1.01063 0.999647 0.984093 0.983955 0.97501 0.962705 0.956742 0.944689 0.925932 0.925972 0.91901 0.918712 0.924175 0.932058 0.925026 0.925581 0.930989 0.923296 0.928676 0.928866 0.92965 0.933161 0.938485 0.937702 0.943607 0.945537 0.940136 0.945998 0.95215 0.956763 0.952214 0.958016 0.959229 0.957988 0.96039 0.956679 0.971242 0.979996 0.972581 0.983434 0.988176 0.995641 0.994255 0.996203 0.992958 0.998525 1.00499 1.01417 1.02211 1.02577 1.02546 1.02514 1.03087 1.03598 1.04076 1.044 1.04601 1.04648 1.05693 1.05161 1.04778 1.0512 1.05097 1.04498 0.0 1.04533 1.04141 0.0 0.0 0.0 1.04 0.0 1.04881 1.04836 1.0542 1.0471 1.05199 0.0 1.05029 0.0 0.0 0.0 0.0 0.0 0.0 0.0 0.0 0.0 0.0 0.0 0.0 0.0 1.01907 1.02761 1.04376 1.05748 1.05939 1.05657 1.05694 1.06314 1.06022 1.06165 1.05984 1.05538 1.05699 1.05508 1.06154 1.05869 1.05724 1.06326 1.06202 1.07079 1.07318 1.08296 1.09552 1.11853 1.1377 1.21755 1.35262
1.55828 1.21286 1.07332 1.05726 1.05563 1.06366 1.06423 1.06648 1.06351 1.06222 1.06635 1.06555 1.06788 1.07163 1.06838 1.06364 1.06408 1.06331 1.06134 1.06664 1.06372 1.06369 1.05599 1.05265 1.0528 1.0538 1.04298 1.02738 1.01793 1.01108 0.992644 0.849603 0.810128 0.0 0.0 0.0 0.0 0.0 0.800815 0.81049 0.833022 0.87832 0.84759 0.847071 0.854632 0.861887 0.867031 0.872165 0.870067 0.877884 0.886297 0.887167 0.889227 0.891273 0.891492 0.892903 0.898532 0.895076 0.904916 0.906877 0.902158 0.903784 0.912975 0.912452 0.913733 0.913785 0.912606 0.913233 0.914454 0.913531 0.913809 0.920763 0.921012 0.921551 0.922074 0.922887 0.923685 0.928123 0.931633 0.937567 0.941049 0.944212 0.948885 0.948971 0.949041 0.950316 0.953709 0.95099 0.956792 0.961054 0.959203 0.965568 0.969173 0.980077 0.971762 0.97349 0.980382 0.994264 1.00386 1.00126 1.00077 0.999956 1.00248 1.01289 1.0166 1.02454 1.02577 1.02576 1.03759 1.0412 1.04508 1.04075 1.04582 1.05177 1.04314 1.04238 1.04524 1.04141 1.04 0.0 1.04104 0.0 1.04231 0.0 1.04742 1.04798 1.03737 1.03639 0.0 0.0 0.0 0.0 1.04259 1.04509 0.0 0.0 0.0 0.0 0.0 0.0 0.0 0.0 0.0 0.0 0.0 0.0 0.0 0.0 1.02259 1.02526 1.02966 1.04434 1.05424 1.05292 1.05157 1.05635 1.05405 1.05349 1.04851 1.05021 1.0545 1.05146 1.05246 1.04937 1.04855 1.05868 1.05893 1.06143 1.06619 1.07145 1.08353 1.10608 1.13136 1.19179 1.28177 1.61039
1.62923 1.46766 1.09545 1.06065 1.0519 1.05735 1.05247 1.06157 1.05601 1.06075 1.05508 1.06148 1.06467 1.06407 1.05994 1.06622 1.05677 1.05979 1.06102 1.05667 1.05725 1.05956 1.05949 1.05527 1.05719 1.05407 1.05269 1.03917 1.02352 1.01461 1.00328 0.945948 0.813967 0.0 0.0 0.800641 0.0 0.0 0.812438 0.0 0.82134 0.831312 0.857156 0.880925 0.848313 0.846856 0.855294 0.855008 0.855004 0.862511 0.868202 0.875391 0.878349 0.879784 0.879695 0.885934 0.880978 0.888704 0.892791 0.896865 0.902745 0.903159 0.900828 0.905456 0.907037 0.90648 0.914105 0.912303 0.912611 0.913816 0.918046 0.916486 0.920384 0.91788 0.922968 0.925303 0.927319 0.931149 0.9307 0.937547 0.938592 0.946021 0.948865 0.948951 0.945973 0.956088 0.957348 0.961031 0.965918 0.965302 0.959488 0.965852 0.977078 0.980056 0.979971 0.990536 0.989808 0.996071 1.00963 1.00215 1.00379 0.99689 1.00854 1.02048 1.02662 1.02756 1.03335 1.0376 1.04031 1.03935 1.03686 1.03648 1.03821 1.03991 1.03705 1.03478 1.04158 1.02898 1.03604 0.0 1.0392 1.04076 0.0 1.04108 0.0 0.0 1.04036 1.04449 1.03687 1.03434 0.0 1.03555 1.04707 1.04626 0.0 1.04428 0.0 0.0 0.0 0.0 0.0 0.0 0.0 0.0 0.0 0.0 0.0 0.0 0.0 0.0 1.02728 1.03665 1.04303 1.04143 1.04421 1.04606 1.04934 1.04937 1.04936 1.04902 1.05127 1.04678 1.04808 1.04702 1.04737 1.04623 1.05486 1.06169 1.06788 1.07372 1.09724 1.12491 1.16755 1.27119 1.45336 1.79553
1.57426 1.47212 1.31579 1.09332 1.05811 1.05729 1.05298 1.0555 1.05682 1.06098 1.05416 1.05594 1.05768 1.05909 1.05728 1.056 1.05498 1.05333 1.04843 1.05049 1.05106 1.0513 1.05064 1.05375 1.05302 1.05579 1.05706 1.05801 1.05805 1.03291 1.02042 1.00402 0.870325 0.813877 0.0 0.797333 0.0 0.0 0.0 0.0 0.825493 0.0 0.836754 0.854211 0.896876 0.881947 0.868178 0.847458 0.855873 0.861272 0.867264 0.869931 0.867758 0.875525 0.878453 0.876533 0.8752 0.884738 0.888822 0.893803 0.893926 0.89676 0.898368 0.905118 0.899721 0.906445 0.911641 0.911661 0.910449 0.917429 0.914363 0.914322 0.920046 0.917541 0.921716 0.921615 0.926067 0.929287 0.928533 0.934466 0.947088 0.943243 0.949134 0.955621 0.958131 0.955443 0.96158 0.960995 0.960699 0.961913 0.965854 0.9774 0.977042 0.97941 0.980544 0.989585 0.994646 1.00304 1.0038 0.999674 1.00223 1.01086 1.02373 1.02623 1.02719 1.03299 1.03787 1.02692 1.03389 1.03931 1.02923 1.02946 1.03331 1.03623 0.0 0.0 1.03185 0.0 0.0 1.04183 1.04128 0.0 1.03741 1.04345 1.04132 0.0 1.04032 1.03783 1.03863 1.03641 1.03627 0.0 1.03353 1.03423 1.03251 0.0 1.03947 0.0 0.0 0.0 0.0 0.0 0.0 0.0 0.0 0.0 0.0 0.0 1.02666 1.02844 1.02428 1.03307 1.03946 1.03815 1.03682 1.03576 1.03817 1.04552 1.04201 1.04401 1.03695 1.04005 1.04107 1.04059 1.04385 1.04589 1.05279 1.05444 1.0661 1.08657 1.1052 1.14315 1.23139 1.35027 1.7343 1.79401
1.62109 1.58084 1.57584 1.38691 1.15697 1.08435 1.06722 1.06975 1.06163 1.06033 1.05265 1.05009 1.05124 1.04106 1.04067 1.04024 1.02843 1.01042 1.0148 1.01857 1.0188 1.02252 1.02211 1.02313 1.02443 1.0251 1.03105 1.02991 1.03198 1.03284 1.03279 1.02115 1.00145 0.829276 0.810779 0.807406 0.0 0.0 0.0 0.0 0.0 0.0 0.838503 0.839175 0.853929 0.868087 0.86873 0.869956 0.85793 0.854601 0.858781 0.863853 0.873138 0.86944 0.872969 0.881621 0.875454 0.882572 0.885445 0.890121 0.894483 0.892165 0.896197 0.899913 0.905133 0.907307 0.90977 0.904018 0.912527 0.917379 0.91553 0.917618 0.920909 0.922969 0.925623 0.929481 0.93028 0.931064 0.936098 0.935025 0.943077 0.947459 0.949389 0.951913 0.955946 0.956001 0.956346 0.961858 0.961868 0.965824 0.971594 0.979482 0.977904 0.988806 0.990853 0.994408 0.997335 1.00482 1.00923 1.00906 1.02166 1.0245 1.02976 1.03134 1.0247 1.02625 1.02656 1.02717 1.03383 1.0347 0.0 0.0 0.0 1.02829 0.0 0.0 1.03118 0.0 0.0 0.0 1.03276 1.03643 1.03524 1.03917 1.03523 1.04092 1.04568 1.03777 1.03767 1.03695 1.03381 1.02944 0.0 1.03327 0.0 1.02831 1.03014 1.03254 0.0 0.0 0.0 0.0 0.0 0.0 0.0 0.0 0.0 0.0 0.0 1.02572 1.02304 1.03124 1.02733 1.03368 1.02766 1.02719 1.02932 1.03639 1.0361 1.03491 1.03455 1.03271 1.03983 1.03734 1.04753 1.04582 1.05271 1.05523 1.06804 1.08879 1.12917 1.20965 1.29205 1.64767 1.78417 1.79217
1.62488 1.62914 1.65747 1.69295 1.70254 1.55184 1.44057 1.44293 1.39526 1.30651 1.1514 1.05288 1.01731 0.996944 0.999098 1.00064 1.0071 1.00654 1.01208 1.00884 1.01111 1.01159 1.01469 1.01629 1.0211 1.02207 1.02478 1.0251 1.02628 1.0301 1.03478 1.02611 1.02036 0.984575 0.846993 0.840084 0.807818 0.0 0.0 0.0 0.817907 0.826677 0.828257 0.835515 0.845766 0.838606 0.84944 0.864481 0.865387 0.860558 0.857814 0.862584 0.871566 0.876016 0.869886 0.872796 0.876297 0.881904 0.883566 0.887938 0.895933 0.892102 0.897952 0.899243 0.902642 0.90876 0.906973 0.912762 0.91307 0.915795 0.914554 0.919378 0.92419 0.928989 0.932862 0.929111 0.934477 0.936481 0.935728 0.93496 0.942402 0.94983 0.955417 0.954894 0.96167 0.959897 0.961462 0.965449 0.967287 0.970329 0.980366 0.978194 0.988199 0.989042 0.999317 1.00135 1.00427 1.00718 1.01739 1.02422 1.0359 1.02626 0.0 1.02732 1.02888 0.0 1.02649 0.0 1.02829 0.0 0.0 0.0 0.0 0.0 1.03294 0.0 0.0 0.0 1.03012 1.03292 1.03661 1.0294 1.03607 1.03064 1.02852 1.03934 1.03536 1.03438 1.03729 1.03687 1.03042 1.02967 1.02469 0.0 0.0 0.0 1.03006 1.02529 0.0 0.0 0.0 1.03256 0.0 0.0 0.0 0.0 0.0 0.0 1.02208 1.02534 1.02414 0.0 1.0243 1.02302 1.02405 1.02505 1.02748 1.03016 1.02871 1.03423 1.02777 1.03233 1.03597 1.03724 1.03847 1.0463 1.05435 1.0583 1.07799 1.10618 1.1803 1.26325 1.51353 1.78755 1.77462 1.78206
1.68378 1.67909 1.69616 1.7081 1.72257 1.72302 1.73655 1.77872 1.78134 1.6461 1.29333 1.13185 1.05131 1.00031 1.00189 1.00343 1.00844 1.00294 1.00497 1.00931 1.00807 1.0109 1.00989 1.01296 1.02041 1.01519 1.0176 1.02765 1.02618 1.02704 1.03379 1.0272 1.02056 1.02131 0.888239 0.834646 0.821443 0.0 0.81341 0.823692 0.805273 0.808049 0.0 0.819254 0.829792 0.857137 0.854168 0.855384 0.856886 0.861383 0.85864 0.858287 0.868472 0.868997 0.873431 0.873322 0.872592 0.876987 0.884092 0.890886 0.894037 0.893538 0.895751 0.897344 0.9059 0.907467 0.912055 0.912379 0.915725 0.916931 0.92025 0.923556 0.0 0.931951 0.928826 0.931466 0.0 0.934573 0.942043 0.936402 0.943235 0.951577 0.96082 0.958774 0.965245 0.961644 0.965342 0.971462 0.972081 0.978476 0.978453 0.983597 0.991771 0.992614 1.00502 1.00492 1.01424 1.03177 1.00907 0.0 0.0 1.02404 0.0 0.0 0.0 1.02487 1.02975 0.0 0.0 1.03029 0.0 1.03015 1.02611 1.02509 1.02557 1.02846 1.03041 1.03689 1.02912 1.03586 1.02987 1.03233 1.03266 1.03236 1.02993 1.03713 1.03376 1.03098 1.02968 1.03347 1.01711 1.03017 1.0243 1.0238 1.01999 1.01796 1.02159 1.0255 0.0 1.02068 1.01288 1.02323 1.02016 1.02211 1.01424 0.0 0.0 1.01573 1.01488 1.02081 1.01902 1.02192 1.02067 1.01968 1.01837 1.02201 1.02122 1.02362 1.02452 1.02276 1.02475 1.02611 1.03092 1.02959 1.03662 1.04069 1.045 1.06508 1.09108 1.13587 1.23197 1.38567 1.7489 1.77993 1.76474 1.76483
1.67843 1.68564 1.70443 1.71724 1.71719 1.76075 1.77951 1.7736 1.69495 1.35191 1.13065 1.11784 1.08037 1.01118 0.995374 1.00011 0.999292 1.00339 1.00397 1.00305 1.00473 1.00785 1.01035 1.01342 1.01352 1.01801 1.01836 1.02163 1.02221 1.02425 1.03071 1.02767 1.02786 1.01436 0.975839 0.839906 0.821349 0.821521 0.802575 0.0 0.0 0.0 0.0 0.0 0.834199 0.836035 0.84116 0.87693 0.850177 0.860688 0.856439 0.861811 0.865967 0.868603 0.869715 0.873531 0.871291 0.877499 0.877646 0.889885 0.890915 0.894657 0.89687 0.897857 0.907626 0.907676 0.914692 0.916232 0.91958 0.91866 0.919244 0.931366 0.0 0.931856 0.0 0.933501 0.933997 0.935695 0.940728 0.944834 0.943443 0.953612 0.96194 0.962637 0.96667 0.966117 0.96951 0.969535 0.975944 0.97929 0.984144 0.99142 0.998983 1.00135 1.00126 1.01913 1.02419 0.0 0.0 1.02677 0.0 0.0 0.0 0.0 1.02504 0.0 0.0 1.02508 1.02475 1.02988 1.03103 1.02519 1.03177 0.0 1.03304 1.02138 1.0297 1.03103 0.0 1.03303 1.02825 1.02981 1.03436 1.02893 1.02862 1.0322 1.02763 1.02665 1.02536 1.02104 1.02031 1.02496 1.02149 1.02339 1.01569 1.01127 0.0 1.02209 0.0 1.02325 1.0229 0.0 1.02123 1.01427 0.0 1.0098 0.0 1.01531 1.01476 1.01389 1.0071 1.01237 1.01113 1.01338 1.01912 1.0169 1.01758 1.01911 1.01855 1.01942 1.01792 1.01639 1.03078 1.02974 1.03937 1.04026 1.05408 1.0727 1.10759 1.20567 1.30449 1.68571 1.77488 1.768 1.76306 1.74076
1.68407 1.69951 1.71265 1.75449 1.78301 1.78473 1.77063 1.69164 1.40788 1.12996 1.10281 1.09717 1.06893 1.02839 0.995801 0.995889 0.99507 0.997707 1.00207 1.00641 1.004 1.00975 1.01167 1.01151 1.01544 1.01758 1.01645 1.01883 1.02207 1.02175 1.02702 1.02486 1.02831 1.02907 1.00722 0.891567 0.83643 0.830057 0.820074 0.0 0.0 0.0 0.0 0.0 0.0 0.83983 0.849161 0.855484 0.844958 0.849446 0.857235 0.858389 0.867668 0.872417 0.875041 0.873424 0.869371 0.87467 0.878749 0.884329 0.888687 0.892125 0.894034 0.897142 0.90691 0.912421 0.911244 0.919462 0.917951 0.920069 0.923085 0.927911 0.93242 0.0 0.9344 0.928521 0.934799 0.941064 0.945184 0.945332 0.94394 0.957155 0.963654 0.966788 0.967775 0.966612 0.97488 0.975515 0.979181 0.984964 0.991036 0.99953 1.01075 1.01433 0.0 0.0 1.02163 0.0 0.0 0.0 1.02889 0.0 0.0 0.0 0.0 0.0 1.02587 1.02404 1.02524 1.02884 1.02119 1.02871 1.02983 1.02608 1.02777 1.02308 1.02897 1.02909 1.02374 1.03048 1.02601 1.02152 1.02608 1.02488 1.02306 1.02273 1.01816 1.01418 1.02162 1.01279 1.01537 1.01372 1.00966 1.01996 0.0 1.01772 1.00401 1.00195 1.01688 1.01954 1.01234 1.01614 1.02288 1.01176 1.01755 1.01648 1.01451 1.01251 1.01019 1.00903 1.01374 1.01135 1.01069 1.01089 1.01692 1.01646 1.0151 1.01399 1.01752 1.0146 1.01748 1.0203 1.02279 1.02814 1.03082 1.04702 1.06429 1.08461 1.16398 1.26309 1.56153 1.78083 1.77059 1.76429 1.74572 1.66337
1.69589 1.71163 1.75659 1.77576 1.76871 1.76469 1.7171 1.42171 1.1114 1.08432 1.08533 1.06726 1.04475 1.03197 1.00374 0.993394 0.992863 0.993751 0.995482 1.00244 1.00354 1.00548 1.00916 1.01076 1.01498 1.01417 1.01511 1.01867 1.01955 1.01863 1.02301 1.01878 1.02311 1.02535 1.02163 1.00091 0.874717 0.870469 0.828304 0.803663 0.0 0.0 0.0 0.0 0.0 0.835808 0.840932 0.848751 0.846039 0.841201 0.851092 0.860678 0.864531 0.868976 0.867675 0.869678 0.874386 0.870316 0.883466 0.890258 0.892197 0.894425 0.893911 0.901869 0.903449 0.907442 0.915975 0.917515 0.915396 0.923893 0.927822 0.0 0.0 0.0 0.0 0.937828 0.0 0.937893 0.947492 0.947031 0.955385 0.957635 0.965962 0.969095 0.967645 0.971357 0.979624 0.979954 0.990323 0.990316 1.00248 1.01067 1.00665 1.01359 1.01441 0.0 1.01997 1.0244 1.01207 0.0 0.0 1.01911 0.0 0.0 1.01687 0.0 0.0 1.01661 1.02145 1.01959 1.01225 1.02038 1.01998 1.02018 1.02247 1.02536 1.02398 1.0235 1.01967 1.01613 1.02285 1.01504 1.01809 1.0172 1.00875 1.01566 1.0132 1.01344 1.01035 1.01235 1.01192 1.00037 1.01461 1.00873 1.01301 1.01099 1.01014 1.00568 0.0 0.0 1.01695 1.00944 0.0 0.0 1.01087 1.00388 1.00873 1.00732 1.00678 1.00504 1.00945 1.00736 1.0117 1.00926 1.01148 1.01483 1.00966 1.01207 1.0086 1.01501 1.01236 1.01461 1.0232 1.0294 1.04105 1.05492 1.07447 1.12785 1.22005 1.43225 1.76294 1.75936 1.76113 1.74802 1.73374 1.49814
1.74524 1.75288 1.7684 1.76884 1.77887 1.74434 1.48513 1.10916 1.07099 1.06168 1.05286 1.04455 1.02605 1.02222 1.01543 0.991168 0.988601 0.990358 0.995585 0.997289 0.99721 1.00178 1.0034 1.005 0.999806 1.0134 1.01198 1.01259 1.01405 1.01372 1.01573 1.01564 1.01612 1.01865 1.02116 1.01234 0.991876 0.905189 0.838009 0.828904 0.808112 0.0 0.0 0.0 0.0 0.0 0.825786 0.840503 0.854922 0.846481 0.850053 0.851504 0.861983 0.86522 0.869349 0.873164 0.867301 0.870483 0.876675 0.890422 0.892664 0.8958 0.898923 0.902033 0.908162 0.911853 0.913407 0.917678 0.919204 0.918892 0.927376 0.0 0.933976 0.938471 0.0 0.936165 0.0 0.0 0.945523 0.95115 0.957677 0.961754 0.965511 0.972909 0.974809 0.975475 0.979172 0.990469 0.996876 1.01058 1.01025 1.01143 0.0 1.00308 0.0 1.00806 0.0 0.995931 1.01922 1.01905 1.01308 1.01865 1.01448 1.01697 0.0 1.02009 1.02254 1.01615 1.0216 1.02126 1.0206 1.01628 1.01588 1.00729 1.0108 1.01642 1.0099 1.01245 1.01225 1.01023 1.01 1.01096 1.00948 1.00889 1.00829 1.00766 1.001 1.01328 1.00267 1.00948 1.00095 1.00771 1.00695 1.00467 1.00566 1.00574 1.00997 0.0 0.997766 0.0 0.995636 0.999746 0.997878 1.0046 1.00357 1.00222 1.00263 1.00005 1.00336 1.00515 1.00721 1.00305 1.00623 1.00291 1.00015 1.00586 1.00509 1.00779 1.00929 1.00783 1.01216 1.01964 1.02358 1.03296 1.04604 1.06538 1.11429 1.20354 1.32774 1.7297 1.76572 1.74928 1.74992 1.73939 1.7325 1.28252
1.77419 1.76094 1.76542 1.76074 1.74626 1.58499 1.15031 1.05564 1.0564 1.04074 1.03851 1.02874 1.0238 1.01591 1.01637 0.995888 0.995656 0.993641 0.990711 0.995621 0.998465 0.996893 1.00349 1.00421 1.00196 1.0132 1.00913 1.01062 1.01238 1.00909 1.01464 1.0107 1.01503 1.01549 1.0174 1.00799 1.01044 0.992916 0.918373 0.820394 0.810951 0.814928 0.0 0.0 0.0 0.0 0.0 0.0 0.84936 0.845429 0.87368 0.863401 0.860626 0.864767 0.869197 0.869692 0.870473 0.874563 0.883176 0.891176 0.892813 0.896252 0.896346 0.905212 0.904975 0.916853 0.919926 0.917522 0.920262 0.9239 0.926916 0.933868 0.933514 0.934361 0.933367 0.938137 0.0 0.947027 0.950538 0.950991 0.957517 0.961593 0.965655 0.974573 0.975865 0.979576 0.990582 1.0034 1.01224 0.0 1.01496 0.0 1.02339 0.0 1.01866 0.0 0.0 0.0 1.01631 0.0 1.01899 1.0124 1.01278 1.0168 1.01199 0.0 1.01629 1.01173 1.00776 1.00955 1.0092 1.00276 1.00267 1.00984 1.00488 1.00443 1.00065 0.99382 0.998774 1.00371 1.00046 1.00021 1.00508 1.00088 1.0051 1.00026 1.00774 0.99595 1.0064 1.0066 1.00768 1.00753 1.00167 1.00509 0.995604 1.00226 1.00202 0.997569 1.00146 0.0 1.0026 0.0 0.995312 0.997582 1.00279 1.00292 0.997996 0.998673 1.00021 1.00141 0.99994 1.00609 0.998385 1.00212 1.00141 1.00565 1.00459 1.00758 1.00441 1.00762 1.01543 1.01245 1.02335 1.03795 1.05592 1.0914 1.17078 1.2668 1.65147 1.75308 1.74786 1.73888 1.73954 1.73528 1.71506 1.12106
1.75676 1.76075 1.75644 1.74208 1.71022 1.31187 1.06427 1.0442 1.03806 1.03473 1.02732 1.01955 1.01316 1.01017 1.01641 1.00174 0.984088 0.989917 0.987276 0.988388 0.992977 0.994326 0.998871 0.999876 1.00261 1.00474 1.00272 1.00716 1.00478 1.00858 1.00999 1.01049 1.01571 1.0132 1.01392 1.01313 1.00339 1.00612 0.987359 0.876629 0.815267 0.816558 0.0 0.0 0.0 0.0 0.0 0.847395 0.842582 0.845565 0.861774 0.866245 0.86046 0.860681 0.869332 0.865904 0.870005 0.875303 0.885124 0.891915 0.89446 0.89911 0.899812 0.90474 0.911171 0.916076 0.922788 0.92342 0.92252 0.925854 0.932819 0.937038 0.93395 0.0 0.93806 0.940093 0.944849 0.940768 0.950668 0.95599 0.957645 0.960808 0.966086 0.976831 0.981471 0.995231 1.00959 1.00657 0.0 0.0 1.01051 0.0 0.0 0.0 1.01269 1.01319 0.0 1.00989 0.0 0.0 1.00998 1.00978 1.01016 0.0 0.0 1.01183 0.0 0.9997 1.00454 1.00542 0.995964 0.990743 0.99521 0.994808 0.996509 0.0 0.995617 0.987583 0.0 1.00049 0.995435 0.997607 0.993122 0.991638 0.990439 0.999762 1.00033 0.999065 0.999288 0.994986 1.00388 0.996237 0.998178 1.00189 0.995106 0.996083 0.99375 0.993487 0.990221 1.00094 0.999413 0.986266 0.996591 0.996484 0.996054 0.997082 0.99956 1.00437 0.99704 0.99707 1.00031 0.99881 0.998459 0.997491 0.996495 0.997227 1.00348 1.00268 1.00184 1.00738 1.01432 1.01308 1.02775 1.04956 1.07531 1.15343 1.22519 1.53984 1.75521 1.7406 1.73455 1.741 1.72598 1.73055 1.64424 1.04544
1.75482 1.75599 1.7443 1.73732 1.56314 1.11186 1.05112 1.02874 1.02831 1.0244 1.01783 1.01121 1.00682 1.00875 1.00167 1.00178 0.986451 0.988792 0.984113 0.982889 0.989516 0.990571 0.983979 0.99406 0.996206 0.998033 0.99954 1.00368 1.00455 1.00657 1.0068 1.01055 1.00896 1.01059 1.0125 1.0129 1.0115 1.01542 1.00532 0.98295 0.851519 0.824747 0.0 0.0 0.0 0.0 0.0 0.0 0.844506 0.849895 0.850762 0.866363 0.854255 0.856281 0.866135 0.866327 0.868918 0.878444 0.88343 0.895662 0.895486 0.898926 0.905684 0.910007 0.912198 0.917405 0.922904 0.922019 0.922636 0.930827 0.936882 0.937456 0.0 0.937647 0.0 0.0 0.945876 0.945142 0.950477 0.957624 0.957454 0.963964 0.96985 0.981202 0.991017 1.00904 0.0 1.00149 0.0 0.0 1.0103 0.0 0.0 1.01288 1.00914 0.0 0.0 0.0 0.99949 1.00692 1.00126 0.0 0.0 0.0 0.0 0.0 0.0 0.999498 0.990681 0.0 0.989392 0.990845 0.0 0.985214 0.989643 1.00071 0.992992 0.991916 0.999286 0.990619 0.995832 0.993175 0.993217 0.988718 0.986917 0.995035 0.991088 0.995546 0.992165 0.997777 0.994059 0.984629 0.996165 0.99449 0.995189 0.993175 0.996817 0.996253 0.992089 0.996548 0.990261 0.992586 0.985376 0.992399 0.994048 0.994483 0.993412 0.99675 0.992083 0.991233 0.995657 0.992983 0.993224 0.992848 0.989805 0.990251 0.997971 0.999508 1.0048 1.00393 1.00912 1.01949 1.03907 1.07127 1.12845 1.20387 1.40592 1.74058 1.74154 1.7301 1.73407 1.73081 1.72663 1.71272 1.49004 1.01343
1.75369 1.72573 1.7378 1.71548 1.44286 1.06192 1.03252 1.02814 1.02084 1.01548 1.00919 1.00486 1.00682 0.998056 0.998779 1.0015 0.988791 0.973104 0.97831 0.97708 0.986621 0.985626 0.992505 0.992332 0.99389 0.99454 0.996045 0.994873 1.00193 1.00455 1.00389 1.00497 1.00189 1.00708 1.00869 1.00374 0.996081 0.996719 0.993758 0.98182 0.964166 0.824552 0.832712 0.821415 0.0 0.0 0.0 0.0 0.0 0.0 0.845453 0.858641 0.85918 0.854279 0.86624 0.869148 0.872043 0.875227 0.890485 0.893346 0.891355 0.897819 0.906391 0.910412 0.914723 0.921143 0.922094 0.924244 0.925772 0.93123 0.0 0.934518 0.940241 0.0 0.0 0.0 0.944454 0.947674 0.949663 0.955896 0.962723 0.969536 0.976944 0.98525 1.00663 1.00852 1.00886 1.01193 1.00707 0.0 1.01039 1.00213 1.00816 1.0084 0.0 0.0 0.0 0.0 0.997144 0.0 0.0 1.00024 0.0 0.0 0.0 0.0 0.997457 0.0 0.0 0.0 0.979168 0.0 0.982971 0.0 0.0 0.995344 0.994889 0.994718 0.0 0.0 0.991986 0.992952 0.991485 0.992714 0.983681 0.992099 0.99026 0.987501 0.985327 0.994545 0.983929 0.993393 0.984849 0.988869 0.987477 0.987561 0.992698 0.984678 0.991851 0.984693 0.990319 0.993236 0.989886 0.990078 0.989949 0.993051 0.989319 0.991476 0.991832 0.988032 0.989807 0.988609 0.991497 0.987014 0.99013 0.994084 0.996827 0.997487 0.998113 1.00278 1.01436 1.02675 1.05123 1.11897 1.18472 1.31161 1.7048 1.72341 1.73184 1.73016 1.71697 1.71573 1.70844 1.69343 1.29222 0.998397
1.73559 1.72683 1.73211 1.67601 1.3431 1.04874 1.03475 1.02638 1.01335 1.00712 1.00887 1.00397 1.00449 0.997461 0.993554 0.995685 0.994012 0.986482 0.97744 0.97767 0.980495 0.98125 0.982267 0.991465 0.980695 0.986621 0.987824 0.99018 0.991923 0.994233 0.995634 0.998195 0.989774 0.988724 0.990912 0.982977 0.983627 0.988125 0.981285 0.98276 0.984215 0.924413 0.820542 0.809538 0.825747 0.0 0.0 0.0 0.0 0.0 0.849154 0.850306 0.859271 0.861903 0.858795 0.866525 0.877264 0.883168 0.896312 0.894341 0.897189 0.902747 0.913136 0.914434 0.918443 0.919712 0.919754 0.922812 0.93071 0.0 0.93676 0.937031 0.0 0.941476 0.933194 0.941303 0.944841 0.950189 0.950353 0.957193 0.963107 0.972961 0.981585 0.998714 0.0 0.0 1.00619 1.00683 0.0 0.0 0.997678 0.0 0.0 1.00177 0.0 0.0 0.0 0.0 0.0 0.0 0.0 0.0 0.0 0.0 0.0 0.0 0.994794 0.0 0.0 0.0 0.0 0.0 0.0 0.0 0.0 0.98361 0.994651 0.0 0.99278 0.99348 0.986012 0.98698 0.981295 0.989158 0.979827 0.985236 0.97528 0.981547 0.99079 0.987094 0.987882 0.985951 0.992388 0.987123 0.981845 0.987907 0.98528 0.986215 0.980569 0.993667 0.986789 0.988815 0.991109 0.986257 0.984648 0.987161 0.98373 0.985005 0.9833 0.982751 0.982469 0.9851 0.986521 0.987028 0.989262 0.988241 0.993325 0.995447 1.00277 1.00917 1.01929 1.04036 1.08913 1.17153 1.24497 1.63511 1.72383 1.71683 1.72011 1.71987 1.71755 1.71346 1.69621 1.66219 1.12342 0.993527
1.73325 1.72224 1.71817 1.66802 1.29912 1.03669 1.02411 1.01115 1.013 1.00706 1.00192 0.999314 0.994928 0.992799 0.991494 0.993045 0.989339 0.990529 0.978296 0.976781 0.97844 0.973055 0.974064 0.978855 0.9804 0.984269 0.983118 0.979874 0.980722 0.977117 0.982048 0.980749 0.979126 0.97451 0.975498 0.980027 0.980379 0.981898 0.974758 0.983384 0.981857 0.982395 0.898925 0.824873 0.825524 0.0 0.0 0.0 0.0 0.0 0.0 0.0 0.858444 0.868003 0.868215 0.871124 0.876434 0.883846 0.892759 0.894413 0.897261 0.905843 0.909272 0.917531 0.919118 0.0 0.925582 0.931674 0.0 0.930473 0.939862 0.931028 0.939784 0.0 0.94025 0.94046 0.941869 0.950559 0.949508 0.960907 0.964387 0.987317 0.999895 0.997856 1.00128 0.998598 0.993468 0.998666 0.0 0.0 0.0 0.0 0.0 0.0 0.0 0.0 0.0 0.0 0.0 0.0 0.0 0.0 0.0 0.0 0.0 0.0 0.987563 0.0 0.0 0.0 0.0 0.0 0.0 0.0 0.0 0.982753 0.0 0.996642 0.993129 0.986884 0.0 0.0 0.986465 0.983779 0.981678 0.984375 0.0 0.986095 0.977315 0.984431 0.983421 0.982391 0.981642 0.986258 0.982774 0.981664 0.986204 0.979085 0.98417 0.987438 0.986216 0.984675 0.984003 0.985087 0.984367 0.980664 0.981968 0.983242 0.980063 0.979221 0.978647 0.979516 0.977712 0.98497 0.988667 0.98823 0.991266 0.997177 1.00333 1.00914 1.02651 1.06467 1.14899 1.20641 1.53513 1.73078 1.72095 1.71539 1.70777 1.7104 1.71153 1.69718 1.6939 1.60794 1.05558 0.993443
1.73369 1.72128 1.71552 1.67532 1.30658 1.04171 1.01887 1.01764 1.00518 1.00124 0.995812 0.992048 0.989385 0.984653 0.988256 0.987777 0.984068 0.980022 0.989607 0.97966 0.979866 0.967475 0.972576 0.969748 0.970697 0.970444 0.971337 0.967788 0.966562 0.963534 0.966973 0.964774 0.969354 0.970658 0.969567 0.972606 0.977114 0.972086 0.974173 0.979518 0.983657 0.980915 0.962309 0.88803 0.836659 0.825922 0.0 0.0 0.0 0.0 0.0 0.0 0.865125 0.867159 0.870986 0.876007 0.879811 0.888129 0.896137 0.905647 0.907594 0.913154 0.915376 0.917886 0.918263 0.924379 0.927453 0.930816 0.932346 0.932042 0.936576 0.93624 0.0 0.939166 0.939695 0.944765 0.944656 0.952129 0.9605 0.967643 0.980548 0.990095 1.00054 0.9982 0.0 0.0 0.0 0.0 0.0 0.0 0.0 0.0 0.0 0.0 0.0 0.0 0.0 0.0 0.0 0.0 0.0 0.0 0.0 0.0 0.0 0.0 0.987298 0.0 0.0 0.0 0.0 0.0 0.0 0.0 0.0 0.0 0.0 0.0 0.0 0.0 0.985183 0.981325 0.986493 0.981698 0.976288 0.982295 0.981662 0.978308 0.97944 0.967953 0.976545 0.979414 0.979265 0.983581 0.980397 0.968837 0.979352 0.980884 0.97971 0.978813 0.982354 0.979331 0.976585 0.982121 0.974887 0.975039 0.974573 0.981166 0.977693 0.973023 0.974808 0.974797 0.977985 0.982307 0.982491 0.987321 0.988603 0.999177 1.00736 1.02653 1.05257 1.12342 1.19055 1.40129 1.71457 1.71864 1.70567 1.703 1.71001 1.70062 1.69605 1.68856 1.68359 1.44101 1.02203 0.997008
1.71239 1.70474 1.70377 1.68031 1.39356 1.03787 1.01847 1.01066 1.00507 0.995406 0.996866 0.989369 0.988148 0.986595 0.985866 0.980753 0.979359 0.982574 0.978781 0.979313 0.977479 0.970934 0.964633 0.961213 0.958635 0.959837 0.955429 0.957163 0.955042 0.960561 0.959863 0.959433 0.965783 0.962346 0.961248 0.968437 0.970861 0.968508 0.974164 0.975339 0.976194 0.974045 0.969181 0.967278 0.893845 0.837347 0.837976 0.0 0.0 0.0 0.0 0.0 0.0 0.0 0.0 0.870023 0.87925 0.891187 0.897987 0.905685 0.906725 0.908657 0.915111 0.921252 0.924354 0.925021 0.931427 0.0 0.931776 0.939355 0.937218 0.93658 0.942906 0.942238 0.945196 0.944497 0.951678 0.958543 0.966913 0.982564 0.989389 0.993159 0.997218 0.0 0.0 0.0 0.0 0.0 0.0 0.0 0.0 0.0 0.0 0.0 0.0 0.0 0.0 0.0 0.0 0.0 0.0 0.0 0.0 0.0 0.0 0.0 0.98186 0.967917 0.0 0.0 0.0 0.0 0.0 0.0 0.0 0.0 0.0 0.0 0.979284 0.0 0.980974 0.979831 0.976864 0.976289 0.977803 0.977191 0.973857 0.976813 0.970743 0.974558 0.979846 0.975223 0.974477 0.977598 0.975614 0.97988 0.978749 0.97432 0.976723 0.978505 0.974018 0.976643 0.97123 0.974396 0.969835 0.970581 0.968936 0.972875 0.971179 0.972698 0.973303 0.976522 0.977651 0.983435 0.983029 0.986684 0.987963 1.00436 1.01136 1.03953 1.08411 1.16589 1.31015 1.68986 1.70874 1.69353 1.69783 1.69833 1.69846 1.68995 1.69024 1.68532 1.66813 1.24581 1.01198 0.999416
1.70965 1.70032 1.70048 1.68638 1.50543 1.0767 1.02716 1.0051 1.00523 1.00102 0.98842 0.988107 0.982279 0.984184 0.983456 0.977766 0.974342 0.9761 0.97521 0.976906 0.977989 0.972619 0.971296 0.963205 0.952424 0.948925 0.949798 0.950056 0.950287 0.955211 0.952443 0.95319 0.95983 0.95402 0.959143 0.966032 0.967861 0.967886 0.965805 0.97859 0.977959 0.973725 0.975434 0.972342 0.962944 0.900531 0.834111 0.846412 0.842214 0.0 0.857479 0.0 0.0 0.865125 0.871058 0.0 0.880484 0.890307 0.901029 0.91265 0.907352 0.913817 0.920272 0.924902 0.926795 0.931701 0.933868 0.932083 0.936038 0.936949 0.939663 0.0 0.943228 0.949236 0.0 0.947856 0.954732 0.964329 0.979988 0.991991 0.0 0.993166 0.0 0.0 0.0 0.0 0.0 0.0 0.0 0.0 0.99233 0.0 0.0 0.0 0.0 0.0 0.988207 0.0 0.0 0.0 0.0 0.974309 0.986236 0.986002 0.0 0.0 0.0 0.0 0.0 0.970318 0.969973 0.0 0.0 0.0 0.0 0.0 0.0 0.0 0.0 0.978477 0.984287 0.970185 0.977161 0.969663 0.976293 0.973276 0.971446 0.972 0.971934 0.96915 0.970544 0.970419 0.973863 0.964129 0.968725 0.972099 0.973358 0.969826 0.967767 0.974907 0.973097 0.968596 0.968231 0.968731 0.96891 0.966402 0.96476 0.963981 0.971132 0.969704 0.971486 0.979401 0.977884 0.977219 0.9853 0.987488 0.997513 1.01301 1.02698 1.0705 1.15185 1.23436 1.63609 1.70421 1.69221 1.68652 1.6848 1.68789 1.68717 1.69239 1.68924 1.68489 1.64127 1.11682 1.007 1.00236
1.70293 1.69698 1.69206 1.68561 1.61802 1.25797 1.03411 1.01065 1.00736 1.00402 0.993736 0.983661 0.981864 0.977137 0.976402 0.978811 0.972496 0.970771 0.971622 0.967493 0.974688 0.970487 0.971211 0.972491 0.966125 0.959127 0.948851 0.945876 0.947577 0.948077 0.949436 0.951955 0.952679 0.953083 0.956427 0.961237 0.962469 0.959817 0.965168 0.969613 0.964208 0.96772 0.971515 0.975294 0.964707 0.961263 0.900901 0.838933 0.830235 0.841913 0.849685 0.0 0.0 0.0 0.0 0.878199 0.888331 0.895743 0.904656 0.916578 0.9137 0.917448 0.925414 0.926417 0.926798 0.931098 0.932055 0.935115 0.939374 0.939376 0.0 0.948429 0.944444 0.948327 0.953714 0.957873 0.962322 0.975864 0.986359 0.980744 0.987261 0.0 0.0 0.0 0.0 0.0 0.0 0.0 0.0 0.0 0.0 0.0 0.0 0.984559 0.0 0.979508 0.0 0.980773 0.0 0.0 0.0 0.977946 0.0 0.977498 0.973003 0.976985 0.0 0.0 0.0 0.0 0.0 0.0 0.0 0.0 0.0 0.0 0.0 0.0 0.0 0.975745 0.0 0.977396 0.972021 0.96874 0.966647 0.96604 0.967818 0.968973 0.970407 0.97092 0.968418 0.966497 0.958578 0.969176 0.964808 0.967287 0.96676 0.966211 0.968022 0.96713 0.968297 0.96736 0.965809 0.964236 0.962938 0.966049 0.964701 0.96274 0.960756 0.969341 0.970532 0.972572 0.972233 0.97655 0.982287 0.994401 1.0047 1.02513 1.05361 1.13946 1.19052 1.57342 1.70565 1.68532 1.67652 1.68437 1.68465 1.67827 1.67614 1.68022 1.67852 1.67076 1.54482 1.06047 1.01163 1.00387
1.69391 1.68853 1.68219 1.6695 1.65924 1.52461 1.15896 1.02816 1.00633 0.998693 0.993285 0.987817 0.980563 0.977283 0.976264 0.972023 0.969181 0.967746 0.966562 0.967669 0.96321 0.966293 0.969352 0.970633 0.968372 0.965195 0.962863 0.958144 0.950737 0.946528 0.950838 0.949816 0.946992 0.947985 0.956065 0.957613 0.953798 0.959459 0.965107 0.968362 0.960577 0.97005 0.970863 0.969267 0.964658 0.961815 0.952662 0.923406 0.851523 0.841914 0.0 0.0 0.0 0.0 0.0 0.0 0.893144 0.899352 0.909169 0.912643 0.91731 0.919852 0.926307 0.931542 0.931624 0.931992 0.932041 0.935404 0.938754 0.939363 0.947228 0.94417 0.949584 0.953468 0.960978 0.963621 0.973228 0.98434 0.0 0.980417 0.991183 0.0 0.0 0.987253 0.0 0.0 0.0 0.0 0.0 0.0 0.0 0.0 0.0 0.0 0.973818 0.976145 0.981188 0.975588 0.972098 0.971932 0.971749 0.0 0.969819 0.0 0.0 0.0 0.0 0.0 0.0 0.0 0.0 0.0 0.0 0.0 0.0 0.0 0.0 0.0 0.0 0.0 0.963739 0.0 0.0 0.968102 0.968413 0.966602 0.968077 0.96623 0.965266 0.962186 0.969269 0.957475 0.964211 0.963748 0.963861 0.967232 0.961638 0.960794 0.959335 0.96053 0.9617 0.960175 0.959814 0.962981 0.958134 0.961247 0.961672 0.956764 0.961851 0.964841 0.967796 0.970716 0.975358 0.981128 0.980132 1.00129 1.01361 1.04188 1.12002 1.17061 1.44996 1.68935 1.68093 1.68112 1.67808 1.68591 1.67987 1.67722 1.67136 1.66888 1.66975 1.66315 1.36752 1.03219 1.0117 1.00506
1.67952 1.67525 1.66861 1.66837 1.67088 1.64803 1.47412 1.11807 1.01812 1.00279 0.992238 0.989074 0.986435 0.9751 0.976104 0.971869 0.964979 0.964702 0.96439 0.960553 0.962497 0.962665 0.962801 0.96086 0.962983 0.964495 0.964514 0.962447 0.961231 0.960868 0.958707 0.951202 0.950748 0.952043 0.948873 0.947748 0.949268 0.961459 0.957597 0.955788 0.956335 0.961034 0.962438 0.963524 0.964292 0.965937 0.96158 0.956596 0.933307 0.884779 0.85237 0.857132 0.0 0.0 0.0 0.0 0.897336 0.899026 0.909141 0.919551 0.0 0.925257 0.0 0.932417 0.938848 0.931357 0.931407 0.942032 0.945686 0.9466 0.943561 0.948988 0.954704 0.960408 0.969433 0.97238 0.98138 0.988243 0.0 0.0 0.983248 0.0 0.0 0.0 0.976354 0.0 0.0 0.98316 0.960999 0.975571 0.0 0.976117 0.0 0.968098 0.970137 0.975803 0.0 0.0 0.974185 0.0 0.0 0.0 0.969478 0.972582 0.0 0.0 0.0 0.0 0.0 0.0 0.0 0.0 0.0 0.0 0.0 0.0 0.0 0.0 0.0 0.0 0.0 0.0 0.0 0.960531 0.0 0.968648 0.957816 0.963472 0.956514 0.963922 0.954839 0.95801 0.958766 0.953826 0.956631 0.960005 0.961565 0.958637 0.959259 0.957778 0.956573 0.955644 0.954693 0.957566 0.955679 0.956428 0.956561 0.956077 0.961749 0.965322 0.971502 0.97236 0.976409 0.984804 0.995193 1.01194 1.03939 1.1031 1.14276 1.33458 1.67814 1.6828 1.67207 1.66939 1.66521 1.66932 1.67248 1.67184 1.66827 1.65779 1.65697 1.63986 1.18752 1.02515 1.01118 1.00595
1.67494 1.65771 1.66489 1.66465 1.67 1.65768 1.64125 1.42569 1.09844 1.01545 0.998621 0.987435 0.986813 0.977506 0.974479 0.971115 0.966836 0.962219 0.959005 0.96098 0.961182 0.957562 0.959155 0.961306 0.958749 0.959673 0.955875 0.961734 0.963461 0.960748 0.961245 0.956699 0.953005 0.95253 0.950549 0.942317 0.947096 0.953642 0.949776 0.955399 0.959818 0.953497 0.955492 0.960454 0.962714 0.961669 0.962397 0.962805 0.953011 0.952174 0.916525 0.875408 0.864553 0.868692 0.0 0.888669 0.898197 0.0 0.919342 0.923122 0.0 0.928529 0.931362 0.929046 0.941819 0.936148 0.947388 0.945614 0.948965 0.951394 0.951992 0.95954 0.963137 0.978841 0.0 0.980511 0.0 0.0 0.0 0.0 0.0 0.0 0.97128 0.971369 0.974782 0.0 0.977006 0.976728 0.974309 0.971571 0.97428 0.97151 0.962349 0.962582 0.960069 0.0 0.0 0.963662 0.968366 0.0 0.0 0.0 0.0 0.0 0.0 0.0 0.0 0.0 0.0 0.0 0.0 0.0 0.0 0.0 0.0 0.0 0.0 0.0 0.0 0.958719 0.963925 0.960381 0.961633 0.957156 0.966482 0.961369 0.953844 0.962797 0.950748 0.953365 0.956856 0.950756 0.949424 0.956132 0.955054 0.950381 0.952542 0.952 0.95114 0.950555 0.952322 0.950209 0.953998 0.953319 0.952321 0.951004 0.959985 0.957139 0.959862 0.961376 0.974304 0.971051 0.977731 0.984948 1.00788 1.03306 1.0922 1.13167 1.23225 1.63377 1.67648 1.66552 1.66232 1.66657 1.66728 1.6662 1.66133 1.66184 1.65142 1.65752 1.64273 1.58218 1.08849 1.0246 1.0191 1.01273
1.65824 1.65705 1.66028 1.66372 1.65236 1.6562 1.65117 1.62808 1.41814 1.09899 1.01672 0.999836 0.988605 0.978735 0.96966 0.966006 0.96057 0.959427 0.953603 0.957609 0.955191 0.950403 0.952865 0.952965 0.952743 0.953077 0.949863 0.955422 0.955968 0.96002 0.956983 0.962467 0.957602 0.954475 0.952796 0.951681 0.947872 0.938097 0.930955 0.932695 0.931441 0.933142 0.933631 0.937382 0.939326 0.93976 0.940473 0.940269 0.940344 0.946992 0.938038 0.943455 0.908032 0.884863 0.879983 0.888613 0.908069 0.918496 0.925302 0.926674 0.92803 0.927861 0.940653 0.937739 0.94145 0.946357 0.0 0.951292 0.950411 0.958287 0.962519 0.972792 0.0 0.982704 0.0 0.983163 0.0 0.0 0.0 0.0 0.966433 0.966251 0.0 0.965232 0.96045 0.9599 0.0 0.963608 0.960279 0.959666 0.960251 0.0 0.961373 0.963427 0.0 0.0 0.0 0.0 0.0 0.0 0.0 0.969265 0.0 0.0 0.0 0.0 0.0 0.0 0.0 0.0 0.0 0.0 0.0 0.0 0.0 0.959924 0.0 0.959015 0.952208 0.964661 0.968656 0.975335 0.96756 0.967886 0.967292 0.96398 0.957054 0.950717 0.945268 0.947287 0.947789 0.945581 0.948133 0.94887 0.946604 0.948789 0.945889 0.944459 0.950733 0.945694 0.94598 0.945352 0.944999 0.947874 0.946879 0.954122 0.951008 0.954941 0.957662 0.965049 0.966523 0.970895 0.979616 1.00377 1.02492 1.07396 1.13214 1.17908 1.59475 1.65935 1.6554 1.65227 1.65197 1.66025 1.65492 1.65213 1.64814 1.65353 1.64969 1.6438 1.6407 1.45892 1.06181 1.02431 1.01852 1.01609
1.65696 1.64002 1.64012 1.64099 1.64857 1.65043 1.65051 1.63856 1.62506 1.42394 1.10034 1.01736 0.984337 0.978213 0.974912 0.965789 0.964118 0.959511 0.957176 0.952186 0.951802 0.949928 0.947143 0.943736 0.950231 0.950858 0.949406 0.949976 0.950813 0.952802 0.95359 0.955533 0.956864 0.954331 0.952655 0.946807 0.952777 0.950726 0.944491 0.93852 0.923593 0.914274 0.91624 0.916697 0.917731 0.917851 0.919744 0.921621 0.926473 0.92742 0.933743 0.92956 0.931354 0.939437 0.933692 0.93213 0.930247 0.928345 0.932746 0.929905 0.930358 0.942253 0.943282 0.945804 0.951934 0.9505 0.952373 0.959066 0.959397 0.965459 0.9706 0.973306 0.0 0.0 0.0 0.0 0.0 0.0 0.0 0.0 0.966045 0.0 0.0 0.0 0.0 0.0 0.0 0.0 0.0 0.0 0.0 0.0 0.0 0.0 0.0 0.0 0.959097 0.0 0.0 0.0 0.0 0.0 0.0 0.0 0.955463 0.0 0.0 0.0 0.0 0.0 0.0 0.0 0.0 0.0 0.0 0.0 0.0 0.960727 0.959943 0.957337 0.953813 0.0 0.0 0.0 0.0 0.950675 0.0 0.943123 0.944564 0.943291 0.941103 0.944275 0.941155 0.943088 0.942315 0.946584 0.942793 0.944335 0.939321 0.946159 0.942884 0.94137 0.946046 0.944187 0.94526 0.951613 0.952036 0.953609 0.957208 0.961359 0.968404 0.977746 0.998442 1.0135 1.05913 1.12091 1.16037 1.49631 1.66095 1.65734 1.65252 1.65285 1.65744 1.64757 1.64657 1.64722 1.64323 1.64547 1.64192 1.64202 1.62385 1.27957 1.0459 1.02654 1.023 1.01604
1.6503 1.63956 1.63967 1.64337 1.64135 1.64576 1.63419 1.6376 1.62896 1.6108 1.43625 1.12199 1.01078 0.988598 0.974662 0.965548 0.958971 0.955521 0.949418 0.95052 0.95072 0.949142 0.947819 0.943251 0.942733 0.943061 0.943948 0.948328 0.950929 0.948216 0.947825 0.947701 0.949616 0.948852 0.949835 0.95198 0.949365 0.950575 0.949391 0.952637 0.943083 0.925754 0.89825 0.898099 0.902699 0.897138 0.901705 0.909548 0.914691 0.915332 0.92524 0.924652 0.934542 0.939324 0.945895 0.940436 0.946979 0.0 0.0 0.949376 0.951648 0.945163 0.946194 0.944795 0.954243 0.951001 0.948947 0.951105 0.0 0.969585 0.974121 0.970172 0.0 0.0 0.0 0.0 0.0 0.0 0.0 0.0 0.0 0.0 0.0 0.0 0.0 0.0 0.0 0.0 0.0 0.0 0.0 0.0 0.0 0.952027 0.0 0.951538 0.0 0.0 0.0 0.0 0.0 0.0 0.0 0.0 0.952034 0.0 0.0 0.0 0.0 0.0 0.0 0.0 0.0 0.0 0.0 0.0 0.964694 0.0 0.0 0.959027 0.0 0.0 0.0 0.0 0.0 0.940061 0.936749 0.93911 0.935465 0.938383 0.937991 0.939072 0.938042 0.937292 0.935629 0.939007 0.938194 0.937658 0.938585 0.936522 0.939773 0.939147 0.940272 0.939894 0.945689 0.948499 0.948921 0.956081 0.957322 0.964401 0.967918 0.986619 1.00407 1.04598 1.12273 1.13168 1.39646 1.66219 1.65572 1.64429 1.64151 1.64243 1.64529 1.64953 1.64708 1.63597 1.64201 1.6431 1.63755 1.62483 1.59504 1.14606 1.03423 1.03212 1.02265 1.02272
1.63323 1.63174 1.63354 1.63753 1.63607 1.63056 1.63829 1.6383 1.64165 1.63153 1.60356 1.44965 1.12813 1.00412 0.98245 0.967593 0.963338 0.958746 0.94889 0.949995 0.947004 0.940771 0.943229 0.942746 0.943692 0.942271 0.941989 0.944023 0.93987 0.939207 0.938515 0.947515 0.947369 0.941589 0.946408 0.944114 0.945345 0.947147 0.948039 0.947128 0.947382 0.943748 0.935026 0.897671 0.895712 0.0 0.90367 0.0 0.909779 0.0 0.921519 0.927521 0.0 0.933194 0.93886 0.0 0.0 0.0 0.0 0.0 0.953931 0.960406 0.960238 0.956133 0.959549 0.957217 0.0 0.955516 0.969744 0.966739 0.0 0.0 0.0 0.0 0.0 0.0 0.0 0.0 0.0 0.0 0.0 0.0 0.0 0.0 0.0 0.0 0.0 0.0 0.0 0.0 0.0 0.0 0.0 0.0 0.0 0.0 0.0 0.953902 0.0 0.0 0.0 0.0 0.0 0.0 0.0 0.0 0.0 0.0 0.0 0.0 0.939539 0.0 0.957516 0.0 0.0 0.0 0.0 0.0 0.0 0.0 0.0 0.0 0.0 0.0 0.942027 0.93843 0.936016 0.933587 0.935029 0.931967 0.933668 0.933258 0.935809 0.932676 0.933992 0.934689 0.932987 0.934828 0.933678 0.9331 0.936054 0.934837 0.935372 0.940015 0.943149 0.943305 0.948143 0.956178 0.962113 0.968592 0.981764 0.998679 1.02984 1.11166 1.12037 1.292 1.64272 1.65258 1.63481 1.63498 1.6403 1.63082 1.63514 1.6365 1.63091 1.63501 1.62959 1.62897 1.62573 1.61729 1.50374 1.0895 1.04065 1.03146 1.02199 1.02458
1.63463 1.62137 1.62316 1.62657 1.62736 1.62157 1.61993 1.62447 1.6278 1.62195 1.62 1.60338 1.46244 1.12848 1.00344 0.974223 0.965657 0.956451 0.950366 0.948289 0.945302 0.945181 0.942117 0.940763 0.940251 0.936492 0.937378 0.934721 0.937018 0.937236 0.939193 0.93789 0.940683 0.948178 0.942078 0.938898 0.943677 0.938371 0.943407 0.941606 0.941857 0.939412 0.943188 0.932657 0.90719 0.89866 0.896662 0.901213 0.905154 0.917754 0.0 0.931868 0.937262 0.0 0.0 0.0 0.0 0.956236 0.957944 0.0 0.0 0.0 0.96642 0.0 0.963929 0.964617 0.966797 0.0 0.0 0.0 0.0 0.0 0.0 0.0 0.0 0.0 0.962014 0.0 0.0 0.0 0.0 0.0 0.0 0.0 0.0 0.0 0.0 0.0 0.0 0.0 0.0 0.0 0.0 0.0 0.0 0.950692 0.0 0.0 0.0 0.0 0.0 0.0 0.0 0.0 0.0 0.0 0.0 0.0 0.0 0.0 0.946348 0.0 0.937774 0.0 0.946921 0.938363 0.0 0.0 0.0 0.0 0.0 0.0 0.0 0.939461 0.934084 0.929893 0.929579 0.927752 0.932484 0.931514 0.930526 0.930116 0.9276 0.929534 0.930255 0.929763 0.929251 0.928718 0.929054 0.932329 0.931431 0.934355 0.93666 0.93864 0.942654 0.947224 0.949699 0.956843 0.962183 0.973344 0.992062 1.02035 1.09351 1.11133 1.22139 1.62111 1.63773 1.63481 1.62924 1.63027 1.62952 1.62899 1.62553 1.62373 1.62131 1.62943 1.62944 1.61854 1.61672 1.61314 1.33644 1.05933 1.03996 1.03783 1.03566 1.02951
1.62422 1.61966 1.61893 1.62432 1.62371 1.61736 1.6163 1.61742 1.62389 1.62346 1.6121 1.60693 1.60483 1.46743 1.12648 1.00588 0.974008 0.963381 0.956449 0.949751 0.948804 0.939394 0.941276 0.941966 0.934458 0.931867 0.933921 0.93478 0.9362 0.936422 0.937499 0.938552 0.938992 0.936459 0.937438 0.937509 0.936372 0.941426 0.939354 0.937553 0.941366 0.935953 0.936754 0.937534 0.930253 0.91221 0.898891 0.899563 0.908879 0.917293 0.0 0.929308 0.0 0.936783 0.943648 0.0 0.0 0.955768 0.0 0.0 0.0 0.0 0.0 0.0 0.0 0.0 0.0 0.0 0.0 0.0 0.0 0.0 0.0 0.0 0.0 0.0 0.0 0.0 0.939525 0.0 0.0 0.0 0.0 0.0 0.0 0.0 0.0 0.0 0.0 0.0 0.0 0.0 0.0 0.0 0.0 0.0 0.945284 0.0 0.0 0.0 0.0 0.0 0.0 0.0 0.0 0.0 0.0 0.0 0.0 0.0 0.945895 0.0 0.0 0.0 0.0 0.0 0.0 0.0 0.0 0.0 0.0 0.94551 0.929964 0.929704 0.928527 0.929729 0.926721 0.924894 0.924545 0.92328 0.92707 0.924574 0.929508 0.924889 0.925015 0.926012 0.922829 0.926155 0.92975 0.931243 0.935668 0.933855 0.93586 0.936067 0.938606 0.941408 0.949763 0.956018 0.963112 0.984807 1.00993 1.0674 1.10806 1.1719 1.57435 1.63789 1.62167 1.62427 1.62305 1.6238 1.61698 1.61589 1.61157 1.62186 1.62631 1.62152 1.61782 1.61464 1.61139 1.59132 1.18238 1.05352 1.04801 1.03711 1.03493 1.03299
1.61603 1.59604 1.60062 1.61189 1.61353 1.61227 1.61375 1.60779 1.61396 1.61894 1.61416 1.6113 1.61724 1.60362 1.46401 1.11491 0.992993 0.965372 0.956139 0.94945 0.948509 0.938529 0.93896 0.939069 0.930983 0.928686 0.930155 0.931306 0.934777 0.927079 0.928443 0.929489 0.930806 0.934753 0.934259 0.931672 0.932011 0.932327 0.935582 0.933485 0.932252 0.934854 0.937142 0.938223 0.937497 0.928111 0.903187 0.904759 0.912583 0.0 0.921331 0.0 0.0 0.0 0.0 0.0 0.0 0.0 0.0 0.0 0.0 0.0 0.0 0.0 0.0 0.0 0.0 0.0 0.0 0.0 0.0 0.0 0.0 0.0 0.0 0.0 0.0 0.0 0.0 0.0 0.0 0.0 0.0 0.0 0.0 0.0 0.0 0.0 0.0 0.0 0.0 0.0 0.0 0.0 0.0 0.0 0.0 0.0 0.0 0.0 0.0 0.0 0.0 0.0 0.0 0.0 0.0 0.0 0.0 0.0 0.0 0.0 0.0 0.0 0.0 0.0 0.0 0.0 0.0 0.0 0.0 0.93033 0.92529 0.923234 0.922959 0.922665 0.91996 0.924412 0.925256 0.922796 0.923003 0.920807 0.918593 0.918743 0.925708 0.918088 0.921439 0.924169 0.925094 0.926292 0.925395 0.935699 0.936517 0.934951 0.939841 0.945284 0.949513 0.96251 0.983071 1.00209 1.05291 1.10707 1.14094 1.50415 1.6278 1.61918 1.61806 1.61892 1.60671 1.60689 1.61769 1.61486 1.61255 1.61392 1.60719 1.61186 1.61074 1.60329 1.59835 1.52236 1.11041 1.05277 1.05065 1.04031 1.03896 1.03336
1.60611 1.61052 1.59857 1.60084 1.61431 1.60035 1.60778 1.60721 1.60827 1.61154 1.60049 1.60819 1.60297 1.60455 1.58021 1.40414 1.10009 0.996482 0.965343 0.956074 0.946743 0.942287 0.93895 0.930333 0.9374 0.929865 0.926665 0.924598 0.924255 0.922419 0.927597 0.925707 0.929083 0.923899 0.924577 0.926116 0.930885 0.928246 0.927356 0.930292 0.926983 0.930473 0.935432 0.93146 0.931922 0.933258 0.921464 0.0 0.912088 0.0 0.0 0.0 0.931025 0.0 0.0 0.937224 0.0 0.95478 0.0 0.0 0.0 0.0 0.0 0.0 0.0 0.0 0.0 0.0 0.0 0.0 0.0 0.0 0.0 0.0 0.0 0.0 0.0 0.0 0.0 0.0 0.0 0.0 0.0 0.0 0.0 0.0 0.0 0.0 0.0 0.0 0.0 0.0 0.0 0.0 0.0 0.0 0.0 0.0 0.0 0.0 0.0 0.0 0.0 0.0 0.0 0.0 0.0 0.0 0.0 0.0 0.0 0.0 0.0 0.0 0.0 0.0 0.0 0.0 0.0 0.0 0.922866 0.922942 0.919406 0.918251 0.920071 0.916488 0.92066 0.917641 0.919381 0.920503 0.918624 0.917919 0.916302 0.914964 0.916578 0.921433 0.921811 0.923054 0.923385 0.924876 0.929 0.920105 0.937153 0.938235 0.940467 0.948253 0.956289 0.973959 0.995662 1.03981 1.10808 1.12186 1.42503 1.62345 1.61457 1.62164 1.61703 1.61094 1.61174 1.61133 1.60769 1.60113 1.60314 1.60766 1.60237 1.59561 1.59422 1.5996 1.58897 1.3771 1.08298 1.06162 1.0558 1.04038 1.04239 1.03874
1.60092 1.59077 1.59423 1.60016 1.59279 1.59095 1.60318 1.60573 1.60425 1.60354 1.59877 1.60248 1.60756 1.5997 1.59347 1.51298 1.28563 1.10106 0.989819 0.95746 0.949302 0.940217 0.937175 0.939038 0.929225 0.92723 0.927537 0.921969 0.924556 0.921846 0.922917 0.921027 0.9244 0.923046 0.924904 0.924972 0.921179 0.922082 0.924147 0.925602 0.926443 0.925485 0.926877 0.926765 0.927524 0.916062 0.920644 0.0 0.0 0.916103 0.0 0.0 0.0 0.0 0.0 0.0 0.0 0.0 0.0 0.0 0.0 0.0 0.0 0.0 0.0 0.0 0.0 0.0 0.0 0.0 0.0 0.0 0.0 0.0 0.0 0.0 0.0 0.0 0.0 0.0 0.0 0.0 0.0 0.0 0.0 0.0 0.0 0.0 0.0 0.0 0.0 0.0 0.947546 0.0 0.0 0.0 0.0 0.0 0.0 0.0 0.0 0.0 0.0 0.0 0.0 0.0 0.0 0.0 0.0 0.0 0.0 0.0 0.0 0.0 0.0 0.0 0.0 0.0 0.928158 0.922567 0.916365 0.91914 0.914708 0.917145 0.916272 0.915679 0.912082 0.916829 0.915583 0.910446 0.916912 0.914123 0.915183 0.912358 0.915752 0.91645 0.917717 0.920738 0.92225 0.92492 0.9252 0.92811 0.928043 0.935313 0.944894 0.947379 0.966851 0.988011 1.02783 1.10291 1.10651 1.34838 1.62426 1.60989 1.59987 1.59795 1.60554 1.60235 1.60171 1.60563 1.60602 1.59773 1.58825 1.58963 1.59724 1.5979 1.59307 1.59018 1.56252 1.22181 1.07142 1.06194 1.05415 1.0528 1.04242 1.0452
