0.618215 0.610415 0.605758 0.562582 0.554662 0.532706 0.395093 0.360213 0.349104 0.334353 0.319604 0.310459 0.306399 0.302443 0.298023 0.293807 0.288601 0.283798 0.277611 0.276026 0.273173 0.273159 0.269538 0.266562 0.262753 0.262969 0.258776 0.261229 0.274934 0.270109 0.301267 0.315435 0.288581 0.282724 0.266087 0.263073 0.257729 0.252217 0.245183 0.241824 0.234184 0.229225 0.223137 0.217163 0.209559 0.197468 0.185003 0.175455 0.170507 0.166221 0.162081 0.157664 0.153613 0.149295 0.144104 0.140311 0.136966 0.0 0.0 0.0 0.0 0.116139 0.11179 0.107969 0.10423 0.0999935 0.0958046 0.0912172 0.0872444 0.0829343 0.078246 0.0744322 0.0705792 0.0661116 0.0621377 0.0577552 0.0534138 0.0495223 0.0449947 0.0409803 0.0364443 0.032168 0.0276505 0.0231537 0.018728 0.0141937 0.00967636 0.00509398 0.000465763 -0.00422159 -0.00883357 -0.0135538 -0.0182519 -0.022885 -0.0282837 -0.0321032 -0.036874 -0.0409368 -0.0461323 -0.0517282 -0.055202 -0.0587143 -0.0597445 -0.0629056 -0.067021 -0.0701743 -0.0733555 -0.0769829 -0.0808043 -0.0851378 -0.0892844 -0.0929628 -0.0976013 -0.101711 -0.105856 -0.110896 -0.11536 -0.119567 -0.123635 -0.128684 -0.133795 -0.138162 -0.14358 -0.147361 -0.152661 -0.157707 -0.162612 -0.167077 -0.17229 -0.177754 -0.183434 -0.189394 -0.194784 -0.200223 -0.207468 -0.214205 -0.220511 -0.225325 -0.214776 -0.216903 -0.221261 -0.227138 -0.231745 -0.237051 -0.243166 -0.244681 -0.249559 -0.25483 -0.258722 -0.262302 -0.268105 -0.279004 -0.312462 -0.324113 -0.329957 -0.336929 -0.34235 -0.350309 -0.356782 -0.361338 -0.368068 -0.375964 -0.381611 -0.387758 -0.394908 -0.400071 -0.405342 -0.411933 -0.413163 -0.420813 -0.432636 -0.441458 -0.444887 -0.453631 -0.457049 -0.464692
0.61892 0.610887 0.592122 0.562834 0.553074 0.542664 0.463772 0.364766 0.347252 0.338989 0.328656 0.313401 0.306303 0.302253 0.298494 0.294919 0.288331 0.283532 0.277439 0.274812 0.272921 0.27097 0.269293 0.265179 0.261554 0.258 0.25653 0.254214 0.252291 0.245434 0.241209 0.238698 0.2445 0.260407 0.261721 0.26024 0.254823 0.250952 0.243139 0.236361 0.225866 0.214455 0.200326 0.189521 0.18532 0.18075 0.176149 0.173898 0.168743 0.165464 0.161203 0.156126 0.153315 0.149479 0.144451 0.14012 0.136702 0.0 0.0 0.0 0.121298 0.116515 0.111737 0.108532 0.104181 0.0998622 0.0955441 0.0913298 0.0871307 0.0832696 0.0788954 0.0745655 0.0705867 0.0664136 0.0621444 0.0579533 0.0536116 0.0497849 0.0452953 0.0410512 0.0365273 0.032232 0.0277129 0.0233054 0.0188499 0.0142973 0.00977978 0.00509449 0.000465444 -0.00418249 -0.00881128 -0.0134597 -0.0181301 -0.0229351 -0.0272213 -0.032039 -0.0366174 -0.0412557 -0.0458831 -0.0502567 -0.0530437 -0.0555716 -0.0588692 -0.0618581 -0.0654953 -0.0692129 -0.0728399 -0.0769001 -0.0810331 -0.0847906 -0.0892415 -0.0935058 -0.0975834 -0.102058 -0.106311 -0.110579 -0.115304 -0.120217 -0.124416 -0.128924 -0.133769 -0.138053 -0.143052 -0.147459 -0.152849 -0.156948 -0.162531 -0.167854 -0.172743 -0.178319 -0.183341 -0.189562 -0.194577 -0.201007 -0.207646 -0.214791 -0.221524 -0.224061 -0.212192 -0.215967 -0.220562 -0.224653 -0.229478 -0.240876 0.0 -0.245041 -0.249563 0.0 -0.26022 -0.263977 -0.267024 -0.273339 -0.283568 -0.323531 -0.329861 -0.332376 -0.339004 -0.346388 -0.352622 -0.360692 -0.365139 -0.37225 -0.377467 -0.385261 -0.391602 -0.397303 -0.403029 -0.40687 -0.411091 -0.421401 -0.430711 -0.438016 -0.444633 -0.450859 -0.45878 -0.462069
0.62465 0.595062 0.589606 0.595189 0.547174 0.595275 0.52232 0.398786 0.359526 0.338685 0.330248 0.326448 0.308918 0.30245 0.297092 0.293631 0.290161 0.285604 0.0 0.277344 0.272587 0.270558 0.268804 0.264617 0.261724 0.257694 0.254988 0.25224 0.249752 0.24353 0.239918 0.236649 0.232099 0.229759 0.225745 0.223376 0.220166 0.215467 0.212217 0.205228 0.202163 0.19667 0.191579 0.188145 0.185008 0.179756 0.17663 0.172041 0.167771 0.163604 0.160281 0.156186 0.151999 0.149622 0.145553 0.139769 0.136716 0.131724 0.128515 0.12474 0.119934 0.116527 0.111877 0.107807 0.104222 0.0998734 0.095798 0.0915465 0.0875581 0.0833258 0.0789709 0.0751588 0.0708504 0.0665873 0.0624958 0.0583597 0.0538984 0.0497636 0.0456086 0.0412224 0.0367093 0.0324435 0.0279169 0.0235506 0.018977 0.0143291 0.00966051 0.00509238 0.000462203 -0.00416211 -0.00878214 -0.013348 -0.0179656 -0.0231108 -0.0272172 -0.0318489 -0.0365443 -0.0409236 -0.0452239 -0.0474432 -0.0503205 -0.054036 -0.0571296 -0.0613754 -0.0644755 -0.0681494 -0.0725001 -0.0768874 -0.0805578 -0.0847253 -0.0890926 -0.092874 -0.0974204 -0.101918 -0.106229 -0.110329 -0.11501 -0.119947 -0.124247 -0.128635 -0.133431 -0.138107 -0.14369 -0.148801 -0.152378 -0.157642 -0.162638 -0.167724 -0.173051 -0.178282 -0.183457 -0.190103 -0.195021 -0.201959 -0.208846 -0.216538 -0.222124 -0.223647 -0.211525 -0.214341 -0.219932 -0.223025 -0.227416 -0.23809 -0.24325 -0.24597 0.0 -0.254622 -0.260975 -0.263756 -0.266722 -0.271614 -0.277172 -0.304087 -0.326381 -0.331948 -0.339251 -0.346117 -0.350143 -0.356295 -0.363217 -0.371958 -0.373051 -0.380589 -0.388691 -0.394642 -0.399536 -0.402119 -0.411068 -0.417031 -0.426488 -0.435967 -0.438028 -0.447878 -0.456866 -0.461924
0.649299 0.594437 0.58333 0.570378 0.561817 0.531147 0.526585 0.413606 0.359219 0.345245 0.335524 0.325866 0.313373 0.303985 0.298043 0.293273 0.289718 0.285348 0.28241 0.0 0.272173 0.272089 0.267243 0.263244 0.260134 0.257393 0.25539 0.252102 0.247818 0.242219 0.237909 0.234605 0.231418 0.226902 0.22321 0.220364 0.216116 0.211814 0.207771 0.203606 0.199625 0.195582 0.192051 0.187105 0.183557 0.179667 0.175714 0.17135 0.167837 0.163573 0.160204 0.155793 0.152547 0.148691 0.144606 0.140556 0.135827 0.0 0.128419 0.124647 0.120327 0.116276 0.112593 0.108557 0.104588 0.0998857 0.0958638 0.0919445 0.0876673 0.083243 0.0794229 0.0751056 0.0712328 0.0668169 0.0628134 0.0585109 0.0542743 0.0501084 0.0457498 0.0414051 0.037109 0.0327332 0.0278683 0.0234353 0.0188294 0.0142364 0.00962586 0.00504338 0.000458602 -0.0041297 -0.00871373 -0.0133355 -0.0178299 -0.0223488 -0.0272277 -0.0320379 -0.0375023 -0.0393657 -0.0421988 -0.0452293 -0.0490937 -0.0525487 -0.0562901 -0.0601662 -0.0639807 -0.0681597 -0.0720739 -0.0759986 -0.0802779 -0.084278 -0.0889447 -0.0928032 -0.0971126 -0.101232 -0.106149 -0.11031 -0.114991 -0.119502 -0.124006 -0.12865 -0.133642 -0.138002 -0.143747 -0.148003 -0.153276 -0.158111 -0.162608 -0.168361 -0.173655 -0.178599 -0.18502 -0.190224 -0.195793 -0.202416 -0.209029 -0.216898 -0.223142 -0.222753 -0.211356 -0.213349 -0.218662 -0.222713 -0.227298 -0.228904 -0.239999 -0.245912 -0.25081 -0.254708 -0.26009 -0.261108 -0.265342 -0.269895 -0.275343 -0.287342 -0.326462 -0.330014 -0.336943 -0.342297 -0.348641 -0.35441 -0.361302 -0.368999 -0.374071 -0.380673 -0.385885 -0.391697 -0.394961 -0.400597 -0.410848 -0.417945 -0.422904 -0.429569 -0.438008 -0.443925 -0.448653 -0.461788
0.651169 0.580897 0.582948 0.570769 0.566632 0.555512 0.531068 0.51355 0.393071 0.353724 0.340108 0.335189 0.319861 0.308762 0.298998 0.295417 0.290282 0.286352 0.281014 0.27755 0.275702 0.27177 0.267841 0.263263 0.261115 0.257569 0.253314 0.252121 0.245963 0.241503 0.238073 0.233702 0.229974 0.226784 0.222693 0.218277 0.214652 0.211455 0.207357 0.203384 0.20012 0.195195 0.191559 0.18707 0.183414 0.178466 0.175268 0.171218 0.166624 0.163592 0.160457 0.156085 0.152078 0.149053 0.144708 0.141303 0.136591 0.132518 0.128435 0.124449 0.120411 0.11649 0.112607 0.108663 0.10419 0.100831 0.0962817 0.09206 0.0876546 0.0833477 0.0795221 0.0755542 0.0716158 0.0672866 0.0631316 0.0588385 0.0546506 0.0505618 0.0462855 0.0416215 0.0368473 0.0326509 0.0278274 0.0232892 0.0187669 0.0141514 0.00956572 0.00504272 0.000455739 -0.0041138 -0.00871489 -0.0132631 -0.0178133 -0.0224295 -0.0269867 -0.0321934 -0.0343862 -0.037483 -0.0407444 -0.0443725 -0.0479839 -0.0518491 -0.0555701 -0.0600669 -0.0637583 -0.0680057 -0.0721729 -0.0762646 -0.080242 -0.0846486 -0.0887711 -0.0928174 -0.097098 -0.101612 -0.105879 -0.110293 -0.115109 -0.120049 -0.124133 -0.12844 -0.133659 -0.138544 -0.143224 -0.14785 -0.153073 -0.15831 -0.163231 -0.168857 -0.174507 -0.17907 -0.185604 -0.191139 -0.197271 -0.205311 -0.211762 -0.217434 -0.223275 -0.22011 -0.213349 -0.214376 -0.215596 -0.222076 -0.226581 -0.229536 -0.234254 0.0 -0.242687 -0.247316 -0.251893 -0.258085 -0.264276 -0.268888 -0.273359 -0.285485 -0.323492 -0.329514 -0.334301 -0.340566 -0.346529 -0.353606 -0.359759 -0.365218 -0.372385 -0.378202 -0.381642 -0.38573 -0.391783 -0.401395 -0.407272 -0.415455 -0.42279 -0.42637 -0.437027 -0.441729 -0.449415 -0.458409
0.651342 0.589063 0.583131 0.57916 0.571131 0.555265 0.5488 0.536641 0.476905 0.37279 0.347678 0.339223 0.327123 0.315731 0.304273 0.296548 0.291488 0.287003 0.282715 0.279659 0.275382 0.27213 0.269356 0.265325 0.260496 0.256409 0.253337 0.250619 0.246361 0.241379 0.23824 0.234009 0.228743 0.225645 0.221106 0.217182 0.214869 0.210466 0.207318 0.203042 0.199014 0.194869 0.191524 0.186981 0.182459 0.178488 0.17415 0.171088 0.167779 0.163661 0.161086 0.156242 0.15325 0.148427 0.144894 0.141241 0.136334 0.132422 0.128748 0.12468 0.120462 0.116639 0.112591 0.108924 0.104588 0.100647 0.0967005 0.0927691 0.0883301 0.0839196 0.0801744 0.0756904 0.072078 0.0678122 0.0636395 0.0594701 0.05547 0.0505149 0.045861 0.0414721 0.0368131 0.0324305 0.0277571 0.0232056 0.0187297 0.0141421 0.00958246 0.00501931 0.000455927 -0.00409465 -0.00868373 -0.0132367 -0.0176448 -0.0223372 -0.0270553 -0.029254 -0.0327447 -0.0362197 -0.0400996 -0.0440213 -0.0478183 -0.0515121 -0.05597 -0.0598592 -0.0640023 -0.0681619 -0.0718794 -0.0761853 -0.0802313 -0.084484 -0.0886788 -0.0930565 -0.0970261 -0.101628 -0.106054 -0.110705 -0.11482 -0.119607 -0.124554 -0.128686 -0.134108 -0.138402 -0.143202 -0.148383 -0.153401 -0.158964 -0.164507 -0.169546 -0.174674 -0.180146 -0.185212 -0.192004 -0.198588 -0.206713 -0.212347 -0.218552 -0.220987 -0.217049 -0.213309 -0.214587 -0.21639 -0.220788 -0.224532 -0.229218 -0.233651 -0.238312 -0.242781 -0.246752 -0.251691 -0.257423 -0.262596 -0.268044 -0.273299 -0.289892 -0.322345 -0.327929 -0.332433 -0.340487 -0.344952 -0.351914 -0.357314 -0.362828 -0.368275 -0.375738 -0.381357 -0.381142 -0.390696 -0.399688 -0.406355 -0.414421 -0.41933 -0.426581 -0.432932 -0.43736 -0.445871 -0.453136
0.64652 0.637232 0.579999 0.576178 0.56819 0.551727 0.547201 0.526775 0.528 0.422795 0.352567 0.341007 0.340182 0.32394 0.310207 0.301934 0.294245 0.287299 0.283008 0.2796 0.275666 0.273083 0.269383 0.264781 0.261085 0.256752 0.253829 0.249807 0.246463 0.241332 0.238123 0.233965 0.229884 0.225467 0.221469 0.218722 0.214185 0.210366 0.206353 0.201794 0.19898 0.195592 0.190754 0.186339 0.182592 0.17777 0.175003 0.171415 0.166718 0.163492 0.161202 0.156856 0.152297 0.149783 0.14479 0.140856 0.137338 0.132709 0.128841 0.124379 0.120928 0.117121 0.113278 0.10845 0.10534 0.10086 0.0968773 0.0924483 0.0886627 0.0845388 0.0806948 0.0765994 0.0728354 0.0683199 0.0637696 0.0593993 0.05508 0.050279 0.0458434 0.0413342 0.0367793 0.0320806 0.0277242 0.0230476 0.0185327 0.0140498 0.00948926 0.00499596 0.000453926 -0.00405909 -0.00856467 -0.0130691 -0.0179897 -0.0217196 -0.0246073 -0.0277284 -0.0320862 -0.0357707 -0.0395277 -0.0435112 -0.0474935 -0.0514904 -0.0555057 -0.0596522 -0.0636455 -0.0677825 -0.0721328 -0.0761067 -0.0802943 -0.0841928 -0.0887211 -0.0931846 -0.0971013 -0.101341 -0.106832 -0.110658 -0.115145 -0.119945 -0.124134 -0.128971 -0.133581 -0.138785 -0.14422 -0.148789 -0.153907 -0.159846 -0.164529 -0.169998 -0.175432 -0.181928 -0.185904 -0.194771 -0.20061 -0.20773 -0.212312 -0.215854 -0.221423 -0.216468 -0.213272 -0.216878 -0.219756 -0.220224 -0.224157 0.0 -0.232844 0.0 -0.240934 -0.246997 -0.249627 -0.256157 -0.258449 -0.267125 -0.275002 -0.296901 -0.32137 -0.324335 -0.329549 -0.337383 -0.344879 -0.348711 -0.354151 -0.362472 -0.367352 -0.372143 -0.375495 -0.382911 -0.390805 -0.396179 -0.403815 -0.409674 -0.416508 -0.425738 -0.430461 -0.439657 -0.442337 -0.452692
0.650702 0.593961 0.588408 0.580538 0.570765 0.55427 0.532588 0.531843 0.524107 0.4879 0.37743 0.3474 0.337698 0.332151 0.31755 0.306676 0.296825 0.290916 0.283922 0.279545 0.276896 0.272778 0.268503 0.265383 0.261036 0.256704 0.253318 0.249533 0.246418 0.242319 0.237936 0.234705 0.230681 0.225428 0.221834 0.218488 0.214279 0.210774 0.206629 0.202126 0.198712 0.194806 0.190327 0.186366 0.182185 0.177956 0.174977 0.170532 0.166793 0.163853 0.161039 0.156971 0.153118 0.149763 0.144896 0.140959 0.137556 0.133072 0.129562 0.124969 0.121566 0.117173 0.113297 0.108467 0.105298 0.101949 0.0975409 0.0934425 0.0893152 0.0854851 0.0816356 0.0767996 0.0723168 0.0680915 0.0637799 0.0593769 0.0547495 0.050206 0.0456047 0.041108 0.0365582 0.0318264 0.0275801 0.0230514 0.0184508 0.013954 0.0094192 0.00489626 0.00045327 -0.0040521 -0.00851748 -0.0133929 -0.0169519 -0.0198662 -0.0234687 -0.0277171 -0.0317458 -0.0351486 -0.039246 -0.0431744 -0.0471692 -0.0515163 -0.0554319 -0.0596457 -0.0635609 -0.06794 -0.0720374 -0.0761444 -0.0802609 -0.0845915 -0.0893261 -0.0931737 -0.0976155 -0.101725 -0.106154 -0.11094 -0.115609 -0.1194 -0.124594 -0.129711 -0.134345 -0.138848 -0.144077 -0.148256 -0.154723 -0.159054 -0.16553 -0.17093 -0.176534 -0.182807 -0.190103 -0.195165 -0.203283 -0.207533 -0.212336 -0.217036 -0.222157 -0.2142 0.0 -0.216843 0.0 0.0 0.0 0.0 0.0 0.0 0.0 0.0 -0.249582 0.0 -0.261569 -0.268412 -0.278547 -0.305213 -0.318006 -0.323182 -0.328462 -0.335065 -0.341907 -0.345514 -0.350089 -0.357886 -0.362884 -0.368557 -0.37224 -0.380878 -0.388346 -0.393784 -0.401182 -0.40659 -0.416838 -0.419805 -0.427677 -0.436179 -0.44213 -0.449904
0.650913 0.613606 0.594276 0.58075 0.561372 0.558526 0.543721 0.527285 0.520532 0.509265 0.416991 0.367702 0.342171 0.334086 0.329396 0.315301 0.30414 0.295971 0.288724 0.283318 0.277617 0.274751 0.269865 0.266152 0.261793 0.258001 0.253896 0.249873 0.246453 0.242133 0.237826 0.233604 0.228764 0.22676 0.222403 0.218323 0.213216 0.210743 0.206537 0.202522 0.197971 0.194779 0.190357 0.186341 0.183246 0.17825 0.174851 0.17061 0.167313 0.1634 0.160271 0.15768 0.153277 0.149228 0.144879 0.141632 0.138169 0.132905 0.129436 0.12531 0.12138 0.117955 0.113316 0.109713 0.105758 0.102728 0.0994737 0.0944632 0.0906554 0.0856162 0.0812961 0.0765833 0.07229 0.0676244 0.0632062 0.05886 0.0543754 0.0497817 0.0454526 0.0408712 0.0365548 0.0319358 0.027347 0.0228628 0.0183592 0.0139451 0.00931853 0.00489983 0.000445918 -0.00404733 -0.00871346 -0.0126955 -0.0159239 -0.0202047 -0.023826 -0.0274454 -0.0313384 -0.0348957 -0.0391577 -0.0430639 -0.0470631 -0.0509608 -0.0554603 -0.0597671 -0.0636904 -0.0679744 -0.0720083 -0.0762981 -0.0807628 -0.084251 -0.089076 -0.0932198 -0.0973131 -0.102018 -0.106554 -0.11027 -0.115255 -0.120093 -0.125092 -0.129356 -0.134642 -0.138993 -0.143935 -0.149436 -0.154308 -0.15994 -0.1663 -0.171959 -0.178766 -0.18399 -0.19116 -0.197673 -0.200553 -0.207505 -0.212193 -0.216022 -0.218993 -0.213625 0.0 0.0 0.0 0.0 0.0 0.0 0.0 0.0 0.0 0.0 0.0 0.0 -0.262529 -0.270174 -0.279458 -0.308003 -0.316134 -0.322705 -0.328063 -0.33258 -0.337975 -0.34429 -0.351022 -0.355242 -0.360199 -0.364314 -0.374673 -0.379048 -0.385894 -0.392403 -0.398761 -0.406304 -0.412043 -0.415794 -0.424579 -0.433257 -0.439168 -0.449254
0.643059 0.59059 0.587298 0.568617 0.572492 0.541501 0.544569 0.530299 0.525854 0.519047 0.480479 0.39515 0.356299 0.335551 0.327091 0.327529 0.314732 0.306136 0.294941 0.289005 0.281848 0.274623 0.271065 0.268311 0.262314 0.258513 0.254865 0.251587 0.24694 0.243274 0.237792 0.233712 0.230612 0.226865 0.222842 0.218096 0.214154 0.211157 0.206263 0.202677 0.198658 0.194696 0.191072 0.187262 0.181975 0.178812 0.173018 0.17054 0.167294 0.163909 0.16058 0.157526 0.152374 0.149255 0.145406 0.141738 0.138154 0.133652 0.129975 0.125867 0.121574 0.118043 0.114071 0.110469 0.10822 0.104637 0.0994643 0.0945832 0.0904016 0.0854918 0.081112 0.0765138 0.0715176 0.0675263 0.0626505 0.0584715 0.0538692 0.0494526 0.0450917 0.0404351 0.0361469 0.0316909 0.0272555 0.0228546 0.0183127 0.0138948 0.009351 0.00486323 0.000460743 -0.00410181 -0.00818496 -0.0121468 -0.0160508 -0.0196776 -0.0231841 -0.0271152 -0.0310662 -0.0349361 -0.0391182 -0.0429938 -0.0468269 -0.0509249 -0.0553707 -0.0596527 -0.0634132 -0.0676384 -0.0720017 -0.0767062 -0.0808282 -0.084983 -0.0896559 -0.093183 -0.0979752 -0.102434 -0.106607 -0.111542 -0.115789 -0.12047 -0.125079 -0.129872 -0.135253 -0.139502 -0.144875 -0.149976 -0.154907 -0.160873 -0.166793 -0.173229 -0.178844 -0.185426 -0.192013 -0.195854 -0.200528 -0.205986 -0.209904 -0.213045 -0.217664 -0.212752 -0.212378 0.0 0.0 -0.223071 0.0 0.0 0.0 0.0 0.0 0.0 0.0 0.0 -0.26442 -0.271311 -0.282051 -0.309742 -0.313526 -0.322319 -0.32622 -0.331227 -0.33748 -0.342804 -0.348969 -0.353434 -0.359578 -0.363115 -0.370856 -0.376933 -0.385134 -0.390627 -0.395126 -0.401998 -0.411656 -0.414552 -0.424502 -0.431979 -0.438867 -0.448389
0.616339 0.593862 0.587867 0.579677 0.567545 0.557272 0.540388 0.530837 0.526487 0.515844 0.488646 0.475262 0.378726 0.344154 0.32826 0.319355 0.316777 0.311734 0.305396 0.297128 0.288305 0.28241 0.27674 0.271206 0.265002 0.260606 0.256689 0.252848 0.246983 0.242727 0.238844 0.234675 0.230443 0.2267 0.22201 0.218004 0.213806 0.211195 0.205805 0.202108 0.199644 0.195371 0.191107 0.186741 0.181412 0.177838 0.174863 0.171481 0.166685 0.163316 0.160236 0.156691 0.15382 0.148896 0.145392 0.142617 0.138652 0.134401 0.130184 0.126425 0.122525 0.119125 0.115911 0.112852 0.109006 0.103979 0.0994559 0.0941631 0.0899281 0.0855314 0.0810171 0.0763407 0.071885 0.0670237 0.0629206 0.0579878 0.05357 0.0491647 0.044842 0.040299 0.0357987 0.0313857 0.0269487 0.0226044 0.0181265 0.0137503 0.00928123 0.00501161 0.000449501 -0.00382632 -0.0078117 -0.0115241 -0.0152656 -0.0192045 -0.0231608 -0.0271047 -0.0308039 -0.0347057 -0.0391272 -0.0430436 -0.0470408 -0.050858 -0.055146 -0.0594118 -0.0637183 -0.0677979 -0.0723453 -0.0764001 -0.0807972 -0.0854606 -0.0893007 -0.0937343 -0.0982587 -0.102851 -0.106946 -0.111137 -0.116188 -0.120565 -0.12569 -0.130351 -0.135279 -0.140536 -0.145608 -0.15056 -0.155772 -0.161671 -0.168683 -0.174453 -0.180638 -0.185255 -0.190859 -0.195516 -0.197967 -0.201484 -0.207166 -0.211344 -0.216221 -0.212607 0.0 0.0 0.0 0.0 0.0 0.0 0.0 0.0 0.0 -0.24941 0.0 -0.261157 -0.265929 -0.272609 -0.28329 -0.308075 -0.314802 -0.31984 -0.323446 -0.330227 -0.333649 -0.340968 -0.345562 -0.348962 -0.35644 -0.36268 -0.36849 -0.377656 -0.382401 -0.388959 -0.394351 -0.402347 -0.405622 -0.413212 -0.421207 -0.430056 -0.436365 -0.445964
0.608858 0.602307 0.58745 0.573473 0.567141 0.543891 0.551229 0.533661 0.526924 0.494223 0.511017 0.466878 0.403663 0.371967 0.345081 0.322636 0.315644 0.309633 0.306503 0.301953 0.296988 0.289863 0.282833 0.276223 0.270017 0.262308 0.25906 0.253504 0.249049 0.244758 0.239611 0.235216 0.230975 0.226333 0.221851 0.217191 0.214492 0.210478 0.204979 0.201966 0.198496 0.195235 0.191088 0.186168 0.182534 0.178086 0.175778 0.171667 0.16736 0.163589 0.160035 0.156085 0.153983 0.149701 0.146466 0.142929 0.139387 0.13439 0.1308 0.127305 0.122894 0.120077 0.115838 0.11177 0.10785 0.103322 0.0988279 0.0941562 0.0898234 0.0853155 0.0803268 0.0756887 0.0715461 0.0668533 0.0624005 0.0580157 0.0533451 0.0493642 0.0447282 0.0402851 0.0358654 0.0313663 0.0268503 0.0224972 0.0179654 0.013957 0.00928317 0.00469505 0.000411102 -0.00357721 -0.00751956 -0.0112973 -0.0151649 -0.019054 -0.0231737 -0.0268759 -0.0310425 -0.0349528 -0.038835 -0.0431203 -0.0471101 -0.0512476 -0.0551422 -0.0595711 -0.063423 -0.0681022 -0.0727986 -0.0768788 -0.0811798 -0.0855563 -0.0897218 -0.0937832 -0.098835 -0.103147 -0.107064 -0.111918 -0.116247 -0.121262 -0.125899 -0.130567 -0.135697 -0.140685 -0.146177 -0.151274 -0.156771 -0.162336 -0.16983 -0.175105 -0.180328 -0.184736 -0.188678 -0.192332 -0.195517 -0.201465 -0.204601 -0.211728 -0.214545 -0.212706 -0.214488 0.0 0.0 -0.22577 0.0 0.0 0.0 0.0 0.0 0.0 0.0 0.0 0.0 -0.273754 -0.286689 -0.307469 -0.313195 -0.317535 -0.322553 -0.327587 -0.333606 -0.338602 -0.341165 -0.349008 -0.356019 -0.361209 -0.368825 -0.3737 -0.379576 -0.387097 -0.391444 -0.397851 -0.405251 -0.412835 -0.419318 -0.427269 -0.436302 -0.4459
0.63664 0.60268 0.591918 0.580834 0.557041 0.558933 0.55641 0.526556 0.512872 0.507253 0.480281 0.425523 0.383646 0.371448 0.359 0.344844 0.322791 0.313539 0.306821 0.302093 0.293707 0.291009 0.287604 0.281976 0.276078 0.269607 0.264068 0.257589 0.250819 0.245909 0.241104 0.235334 0.230882 0.227336 0.222165 0.21888 0.214021 0.210332 0.206136 0.201463 0.198182 0.195044 0.189993 0.186263 0.182573 0.178177 0.173745 0.170341 0.167494 0.163673 0.16049 0.156301 0.154503 0.150421 0.146622 0.143689 0.139141 0.135103 0.131343 0.127474 0.123297 0.119141 0.114937 0.110628 0.105782 0.101821 0.0980392 0.0941759 0.0894007 0.0850305 0.0800568 0.0757049 0.0710902 0.0665731 0.0623796 0.0579963 0.0531207 0.048942 0.0443809 0.0399723 0.0357843 0.0311136 0.0267522 0.0223531 0.0180942 0.0127177 0.00835923 0.00431427 0.000390007 -0.00350794 -0.00740805 -0.0111695 -0.0151117 -0.0190827 -0.0233736 -0.0274964 -0.0313968 -0.0353086 -0.038881 -0.0430248 -0.0471943 -0.051103 -0.0553761 -0.0596402 -0.0638069 -0.0682423 -0.0728159 -0.0771737 -0.0815632 -0.0856529 -0.0897963 -0.0946718 -0.0985658 -0.103353 -0.106898 -0.112107 -0.11716 -0.121642 -0.126292 -0.13139 -0.136195 -0.14144 -0.146831 -0.152246 -0.157331 -0.163817 -0.170328 -0.174519 -0.177471 -0.181153 -0.187066 -0.190258 -0.196149 -0.199402 -0.205771 -0.210495 -0.213521 -0.211359 0.0 0.0 0.0 0.0 0.0 0.0 0.0 0.0 0.0 0.0 0.0 -0.261099 -0.266487 -0.275217 -0.288974 -0.307355 -0.309943 -0.314985 -0.321495 -0.326599 -0.331722 -0.334813 -0.339857 -0.346759 -0.352335 -0.361262 -0.368589 -0.373461 -0.378541 -0.386147 -0.391906 -0.399867 -0.404887 -0.411511 -0.419051 -0.427106 -0.435696 -0.447411
0.620427 0.600371 0.586207 0.568204 0.568197 0.560152 0.535886 0.507661 0.521905 0.47569 0.402311 0.382521 0.367886 0.36257 0.359246 0.350532 0.343125 0.323986 0.308996 0.301977 0.29368 0.289299 0.285508 0.280566 0.27437 0.269977 0.264587 0.259318 0.253416 0.248241 0.24195 0.236662 0.230933 0.226703 0.211492 0.204732 0.214648 0.211832 0.20612 0.201993 0.198404 0.195146 0.19066 0.186694 0.18256 0.178642 0.175286 0.170985 0.16763 0.164238 0.160386 0.156928 0.154006 0.151013 0.146738 0.143842 0.140508 0.135247 0.131666 0.127217 0.122809 0.118737 0.114006 0.109763 0.105217 0.100997 0.0969547 0.0925227 0.0883903 0.0842104 0.0798318 0.0753464 0.0708705 0.0662935 0.0617232 0.0574984 0.052941 0.048412 0.0441941 0.0395268 0.035447 0.0308439 0.0262084 0.0207492 0.0161457 0.0120488 0.00811839 0.00423635 0.000384141 -0.00347927 -0.00733594 -0.0111795 -0.0150255 -0.0191057 -0.023473 -0.0269991 -0.0309621 -0.0349382 -0.0388187 -0.0427437 -0.0466698 -0.0510375 -0.0554071 -0.0599096 -0.064075 -0.0687127 -0.0731396 -0.0776538 -0.0818016 -0.0857758 -0.0904596 -0.0948343 -0.0991148 -0.103743 -0.107652 -0.112167 -0.11729 -0.122377 -0.126541 -0.1321 -0.137124 -0.14268 -0.147818 -0.152322 -0.158333 -0.164485 -0.168969 -0.172024 -0.175108 0.0 -0.184684 -0.190245 -0.194676 0.0 -0.205247 -0.20915 -0.21256 0.0 0.0 0.0 0.0 0.0 0.0 0.0 0.0 0.0 0.0 0.0 0.0 0.0 -0.269011 -0.276056 -0.290226 -0.303917 -0.308512 -0.313362 -0.321124 -0.32501 -0.329405 -0.333442 -0.340368 -0.346449 -0.351646 -0.359804 -0.365282 -0.370593 -0.376424 -0.383899 -0.387488 -0.394664 -0.40181 -0.410725 -0.417286 -0.426298 -0.436091 -0.448035
0.649475 0.563626 0.608969 0.569029 0.578284 0.546805 0.547069 0.536394 0.43223 0.393204 0.38322 0.370845 0.367855 0.362541 0.358092 0.351981 0.345098 0.338734 0.327048 0.309333 0.297417 0.290875 0.285238 0.278916 0.27411 0.269642 0.264568 0.259147 0.253324 0.24837 0.241644 0.236433 0.229525 0.214462 0.181258 0.179745 0.182159 0.212071 0.207902 0.202223 0.198451 0.195134 0.191898 0.187293 0.183418 0.178896 0.175224 0.172238 0.167523 0.164612 0.161172 0.157556 0.154396 0.151307 0.148067 0.144037 0.140226 0.135621 0.13085 0.126464 0.122391 0.1184 0.113235 0.109298 0.104889 0.100429 0.0960332 0.0922354 0.0875526 0.0836475 0.0789232 0.0748635 0.0709067 0.0664932 0.0617206 0.0571607 0.0529536 0.0485317 0.0438723 0.0387048 0.0333042 0.028542 0.023733 0.0197296 0.0157306 0.011901 0.00803878 0.00422815 0.000384735 -0.00345721 -0.00732177 -0.0112285 -0.0149821 -0.0191586 -0.0233715 -0.0269896 -0.0307973 -0.034709 -0.0389619 -0.0430474 -0.0472625 -0.0512397 -0.0556589 -0.0597799 -0.0646151 -0.0690601 -0.0736385 -0.0776504 -0.0817737 -0.08618 -0.0904555 -0.0951095 -0.0991687 -0.103373 -0.107963 -0.112983 -0.118171 -0.122795 -0.127083 -0.132737 -0.137703 -0.143318 -0.147811 -0.153811 -0.157709 -0.161807 -0.166635 -0.170057 -0.174559 -0.179623 -0.18421 -0.189179 -0.194179 -0.199984 0.0 -0.209195 -0.212311 -0.21133 0.0 0.0 0.0 0.0 -0.230222 0.0 0.0 0.0 0.0 -0.251661 -0.257355 -0.262271 -0.270766 -0.277606 -0.290523 -0.30081 -0.30527 -0.312248 -0.317521 -0.322042 -0.32516 -0.333416 -0.34034 -0.345685 -0.351898 -0.3575 -0.362944 -0.368514 -0.375601 -0.380855 -0.386234 -0.393908 -0.40345 -0.409098 -0.419078 -0.42528 -0.438373 -0.451353
0.657615 0.59276 0.559318 0.570192 0.546868 0.553364 0.478194 0.407909 0.398413 0.383615 0.376546 0.373071 0.367542 0.360236 0.355634 0.349467 0.342895 0.33746 0.332847 0.322857 0.308851 0.2954 0.286876 0.282238 0.275615 0.269469 0.263623 0.258523 0.252786 0.248062 0.24192 0.230961 0.195552 0.186176 0.0 0.0 0.181054 0.206376 0.207953 0.203425 0.198798 0.195473 0.191264 0.187507 0.183518 0.178835 0.17594 0.17223 0.167564 0.165373 0.161492 0.157549 0.154168 0.152204 0.149273 0.144031 0.139159 0.134703 0.130256 0.125961 0.121631 0.117899 0.113295 0.109171 0.104237 0.100369 0.0956791 0.0916656 0.0868629 0.0826194 0.0782803 0.0739435 0.0696088 0.0646501 0.0597764 0.0536622 0.0479235 0.0433092 0.0390839 0.0352112 0.0312902 0.0275811 0.0233533 0.019437 0.0156951 0.0119875 0.00806666 0.00422801 0.000386306 -0.0034549 -0.00729377 -0.0111823 -0.0151432 -0.018973 -0.0229611 -0.0269719 -0.0309599 -0.0353585 -0.0395275 -0.0431124 -0.0472609 -0.0517255 -0.055979 -0.060232 -0.0640507 -0.0693257 -0.0735923 -0.0777399 -0.0820379 -0.086177 -0.09088 -0.095805 -0.100099 -0.104464 -0.10875 -0.112979 -0.1182 -0.123533 -0.128395 -0.133336 -0.138517 -0.143513 -0.149382 -0.152137 -0.156558 -0.161121 -0.164814 -0.169191 -0.174502 -0.178158 -0.183944 -0.18917 -0.193684 -0.197764 -0.202567 -0.207624 -0.211237 0.0 0.0 0.0 0.0 0.0 0.0 0.0 0.0 0.0 0.0 0.0 -0.257415 -0.259981 -0.269979 -0.277511 -0.293859 -0.299494 -0.305665 -0.311894 -0.315713 -0.318387 -0.32514 -0.330449 -0.337237 -0.343547 -0.350941 -0.355866 -0.36167 -0.367514 -0.373597 -0.37822 -0.383968 -0.393262 -0.400178 -0.408646 -0.416469 -0.426232 -0.441103 -0.45826
0.62996 0.593179 0.581768 0.577375 0.493904 0.43133 0.409441 0.392985 0.387165 0.381784 0.376428 0.369433 0.364438 0.359269 0.352808 0.34742 0.342606 0.336459 0.331422 0.324752 0.316785 0.309265 0.296547 0.284832 0.278006 0.271663 0.265239 0.258969 0.254571 0.249081 0.241838 0.203731 0.190395 0.0 0.0 0.0 0.0 0.195128 0.207389 0.203781 0.199918 0.195698 0.191939 0.187778 0.183403 0.180048 0.176556 0.172477 0.168839 0.166184 0.162842 0.1585 0.155226 0.151855 0.149101 0.143136 0.139234 0.133671 0.130031 0.125673 0.12125 0.116206 0.112335 0.108003 0.104117 0.100028 0.0953259 0.0912513 0.0863702 0.0816854 0.0751437 0.0674358 0.0617159 0.0575247 0.0538112 0.0495417 0.0457253 0.0419827 0.0382339 0.0345452 0.0306283 0.0269577 0.0231521 0.0195794 0.01552 0.0118249 0.00803323 0.00422658 0.000384105 -0.00346469 -0.00735145 -0.0112279 -0.0151333 -0.0190561 -0.0230899 -0.0269797 -0.0312767 -0.0355745 -0.0391286 -0.0432974 -0.0475208 -0.0519443 -0.0561471 -0.0602305 -0.0645338 -0.0694476 -0.0736342 -0.0781068 -0.08257 -0.0864043 -0.0911182 -0.0959144 -0.100009 -0.1051 -0.109665 -0.113929 -0.118538 -0.123741 -0.12894 -0.134164 -0.138591 -0.14214 -0.147551 -0.151363 -0.154573 -0.160075 0.0 -0.169233 0.0 -0.178303 -0.184195 -0.188531 -0.193245 0.0 0.0 -0.207386 0.0 0.0 0.0 0.0 0.0 0.0 0.0 0.0 0.0 0.0 0.0 -0.251051 -0.258448 -0.263915 -0.270894 -0.279227 -0.293528 -0.299318 -0.304992 -0.308443 -0.313484 -0.318373 -0.325037 -0.330523 -0.336678 -0.341875 -0.347003 -0.352816 -0.358864 -0.363789 -0.371303 -0.379206 -0.384968 -0.391179 -0.398066 -0.40852 -0.418384 -0.429807 -0.44583 -0.470211
0.608343 0.592374 0.537902 0.449189 0.41443 0.407384 0.393689 0.3908 0.384602 0.378451 0.374134 0.368248 0.36356 0.357452 0.351112 0.346672 0.339506 0.336091 0.327886 0.322747 0.316349 0.309508 0.30167 0.294595 0.282644 0.273704 0.267013 0.262007 0.255237 0.249589 0.241038 0.196567 0.0 0.0 0.0 0.0 0.0 0.178011 0.195196 0.192627 0.188998 0.189482 0.189096 0.188107 0.185244 0.180893 0.176759 0.173029 0.169574 0.16618 0.162792 0.15968 0.15624 0.153615 0.147637 0.143457 0.138013 0.133935 0.129329 0.124923 0.120561 0.116238 0.112301 0.108032 0.103615 0.0978827 0.0912784 0.0837315 0.0765353 0.0720153 0.0681007 0.0640776 0.0602624 0.0566587 0.0529511 0.0491419 0.0457394 0.0418468 0.0382579 0.0344782 0.0307068 0.0269487 0.0233301 0.01943 0.0157045 0.0118587 0.00806636 0.00422652 0.000384587 -0.00347998 -0.00734209 -0.0112631 -0.0152281 -0.0189962 -0.023183 -0.0270298 -0.0314591 -0.0355414 -0.0396708 -0.0437748 -0.0475491 -0.051802 -0.056214 -0.0605747 -0.0650174 -0.069632 -0.0739168 -0.0781748 -0.0825201 -0.0869385 -0.0914108 -0.0965837 -0.10027 -0.105159 -0.109853 -0.114092 -0.119968 -0.124552 -0.129815 -0.133254 -0.136793 -0.140969 0.0 0.0 -0.15501 0.0 -0.163318 0.0 0.0 -0.176139 -0.182698 -0.188843 -0.191729 -0.196758 -0.201199 0.0 -0.210162 0.0 0.0 0.0 0.0 0.0 0.0 0.0 0.0 0.0 0.0 0.0 -0.258367 -0.265046 -0.270887 -0.279926 -0.292322 -0.297768 -0.300776 -0.305836 -0.313219 -0.318364 -0.324676 -0.329978 -0.334947 -0.340209 -0.345032 -0.351574 -0.357026 -0.363193 -0.368916 -0.374376 -0.382106 -0.390754 -0.398577 -0.408932 -0.420521 -0.433063 -0.452221 -0.500632
0.629022 0.51776 0.437912 0.41553 0.405908 0.399082 0.393264 0.388622 0.383168 0.378145 0.372443 0.366776 0.361819 0.354216 0.349422 0.343531 0.337684 0.331074 0.322945 0.317969 0.314294 0.30757 0.302743 0.295081 0.288888 0.278584 0.270495 0.262537 0.257928 0.250763 0.24219 0.196352 0.0 0.0 0.0 0.0 0.0 0.176115 0.186223 0.184263 0.180869 0.16655 0.164222 0.162566 0.164841 0.167482 0.169875 0.169443 0.167702 0.163492 0.158258 0.154083 0.151991 0.148453 0.144169 0.138958 0.135498 0.129597 0.123033 0.117664 0.113278 0.107991 0.102862 0.098191 0.0927849 0.0873635 0.0835364 0.0788132 0.0748182 0.0716188 0.0682327 0.064098 0.0603994 0.0565847 0.0528648 0.0491415 0.0454442 0.0418601 0.0381838 0.0345112 0.0307363 0.0269399 0.0232483 0.019492 0.0156295 0.0119039 0.00807654 0.00423989 0.000386898 -0.00348106 -0.00733973 -0.0112595 -0.0150665 -0.019187 -0.0233338 -0.026996 -0.0312568 -0.0355521 -0.039755 -0.0439472 -0.0477954 -0.0518174 -0.0561798 -0.0605562 -0.0653078 -0.0698583 -0.0742875 -0.0786814 -0.0827866 -0.0871164 -0.0923189 -0.096639 -0.101436 -0.105827 -0.110358 -0.115274 -0.120138 -0.123314 -0.128095 -0.132422 -0.136245 0.0 -0.14489 -0.148751 0.0 0.0 0.0 -0.166651 0.0 -0.176389 -0.181718 -0.186415 -0.190863 -0.195374 0.0 -0.204432 0.0 0.0 0.0 0.0 0.0 0.0 0.0 0.0 0.0 0.0 0.0 0.0 0.0 -0.263905 -0.27235 -0.281022 -0.290084 -0.295006 -0.299783 -0.305748 -0.312364 -0.315851 -0.323354 -0.328189 -0.332949 -0.338089 -0.343067 -0.350148 -0.355195 -0.361823 -0.367724 -0.374472 -0.38261 -0.387859 -0.398258 -0.412427 -0.424064 -0.437525 -0.476952 -0.532069
0.620614 0.486349 0.425513 0.410287 0.403431 0.399297 0.392847 0.388313 0.38317 0.374926 0.370658 0.364039 0.359121 0.354503 0.347269 0.342887 0.334868 0.330538 0.32374 0.318751 0.312416 0.306815 0.301089 0.295489 0.28953 0.284886 0.276614 0.267334 0.260098 0.253189 0.24414 0.203938 0.192338 0.0 0.0 0.0 0.0 0.0 0.167354 0.16651 0.16776 0.174272 0.162974 0.159291 0.156377 0.153755 0.151352 0.147834 0.144266 0.142186 0.138487 0.135977 0.132257 0.128457 0.125543 0.121006 0.118016 0.114225 0.111216 0.10788 0.103558 0.100408 0.096613 0.0930717 0.0896952 0.0856435 0.0822419 0.0784014 0.0744996 0.0706171 0.0669746 0.0638063 0.0599677 0.0565664 0.0528822 0.0491576 0.0453264 0.0416303 0.0380609 0.0344892 0.0308843 0.027061 0.0234192 0.0195542 0.0156695 0.0118851 0.00811493 0.0042399 0.000385316 -0.00347778 -0.00737677 -0.0112772 -0.0152328 -0.01939 -0.0232045 -0.0271305 -0.0312858 -0.0357473 -0.0402737 -0.0439739 -0.0481 -0.0521792 -0.0565018 -0.0609741 -0.0655212 -0.0699821 -0.0745278 -0.0787508 -0.0835395 -0.0882898 -0.0928003 -0.0970027 -0.101583 -0.106436 -0.109979 -0.114058 -0.119013 -0.122643 -0.126706 0.0 -0.13566 0.0 -0.144891 0.0 -0.154174 -0.158533 -0.161737 -0.165983 0.0 0.0 0.0 0.0 -0.189676 -0.194546 0.0 0.0 0.0 0.0 0.0 0.0 0.0 0.0 0.0 0.0 0.0 0.0 0.0 0.0 -0.260304 -0.265423 -0.272274 -0.281258 -0.28817 -0.292978 -0.298877 -0.305666 -0.309043 -0.315593 -0.319488 -0.324888 -0.331591 -0.334963 -0.340454 -0.346739 -0.353178 -0.361434 -0.366836 -0.374273 -0.381289 -0.390854 -0.400143 -0.414869 -0.427077 -0.461501 -0.507102 -0.633562
0.629609 0.584419 0.436153 0.41139 0.402793 0.396754 0.390023 0.386045 0.379913 0.374934 0.369178 0.362775 0.35749 0.35071 0.345029 0.340034 0.332875 0.330009 0.324981 0.317456 0.312764 0.307242 0.301757 0.296065 0.290177 0.284892 0.280259 0.270384 0.261824 0.254517 0.247105 0.227405 0.192828 0.0 0.0 0.178807 0.0 0.0 0.170636 0.167119 0.165627 0.163128 0.164282 0.165234 0.154806 0.15238 0.149129 0.144453 0.141954 0.139741 0.136059 0.133113 0.130357 0.126867 0.123206 0.119589 0.116171 0.113161 0.10934 0.106458 0.102838 0.0994817 0.0960403 0.0923985 0.0891372 0.0849396 0.0818114 0.0782479 0.0746231 0.070851 0.0674169 0.0631815 0.0599488 0.0561989 0.0524875 0.0490624 0.0453416 0.0418471 0.0379136 0.0345006 0.030865 0.0271478 0.0234195 0.0195172 0.0157146 0.0119569 0.00810479 0.0042654 0.000388852 -0.00350303 -0.00735603 -0.0113303 -0.0153469 -0.0193842 -0.0233485 -0.0276015 -0.0316326 -0.0358778 -0.040238 -0.0441205 -0.0481006 -0.0520226 -0.0566889 -0.0613744 -0.0662004 -0.070292 -0.0748998 -0.0795817 -0.0838318 -0.0880614 -0.0922936 -0.0965007 -0.100767 -0.105251 -0.109031 -0.113271 -0.118264 -0.120949 -0.126233 0.0 -0.135662 -0.140044 0.0 -0.148625 0.0 0.0 -0.162297 -0.167513 -0.170527 -0.174533 0.0 -0.183834 -0.190597 -0.194107 0.0 -0.203627 0.0 0.0 0.0 0.0 0.0 0.0 0.0 0.0 0.0 0.0 0.0 0.0 0.0 0.0 -0.270968 -0.278831 -0.285222 -0.291442 -0.29616 -0.3019 -0.308624 -0.313869 -0.318616 -0.324092 -0.330149 -0.333682 -0.340182 -0.345325 -0.350782 -0.356955 -0.36536 -0.373379 -0.38028 -0.390967 -0.403188 -0.42135 -0.443538 -0.486577 -0.568958 -0.716608
0.656577 0.595215 0.501061 0.421679 0.403242 0.395281 0.389095 0.382128 0.378295 0.374447 0.367308 0.361224 0.35654 0.351294 0.344669 0.339955 0.331888 0.327604 0.321819 0.316166 0.308588 0.303721 0.299037 0.295506 0.289947 0.285532 0.280269 0.275342 0.270586 0.258201 0.251011 0.242583 0.204109 0.189383 0.0 0.178812 0.0 0.0 0.0 0.0 0.166107 0.0 0.161221 0.160131 0.164143 0.157737 0.150841 0.144104 0.14112 0.138305 0.135549 0.131888 0.128546 0.126053 0.123042 0.119349 0.115624 0.112822 0.109159 0.105856 0.102291 0.0988879 0.0956918 0.0923086 0.0884035 0.0852235 0.0817592 0.0783526 0.0743795 0.070969 0.0671534 0.0635164 0.0599893 0.0562001 0.0528151 0.0489038 0.0454605 0.0416316 0.0379882 0.0344348 0.0310037 0.0270619 0.0233531 0.0196666 0.0158048 0.0119609 0.00814587 0.00427352 0.000387155 -0.00349104 -0.00742559 -0.0114188 -0.0153567 -0.0193846 -0.0234208 -0.0274424 -0.0318065 -0.036193 -0.0400699 -0.043962 -0.0481595 -0.0525267 -0.0574863 -0.0618298 -0.0661824 -0.0710766 -0.0753598 -0.0787996 -0.0832509 -0.0880123 -0.0916006 -0.0958878 -0.100711 -0.104919 0.0 0.0 -0.117483 0.0 0.0 -0.131558 -0.135978 0.0 -0.144149 -0.149527 -0.153608 0.0 -0.162488 -0.166276 -0.170973 -0.17494 -0.179513 0.0 -0.18801 -0.192399 -0.197363 -0.20109 -0.207276 0.0 0.0 0.0 0.0 0.0 0.0 0.0 0.0 0.0 0.0 0.0 -0.261063 -0.266197 -0.270823 -0.278684 -0.284594 -0.289911 -0.294604 -0.299396 -0.304206 -0.313189 -0.316783 -0.321873 -0.327171 -0.332224 -0.335339 -0.343917 -0.351181 -0.357165 -0.365276 -0.371487 -0.379685 -0.392325 -0.404984 -0.429642 -0.466891 -0.520927 -0.671469 -0.715407
0.650365 0.597383 0.616813 0.533715 0.43928 0.40722 0.394365 0.388983 0.38332 0.375073 0.366932 0.35743 0.353185 0.346181 0.339724 0.332961 0.32618 0.313206 0.309934 0.305939 0.301085 0.296419 0.293176 0.285912 0.281952 0.277119 0.272229 0.267591 0.262893 0.25961 0.254128 0.246706 0.235575 0.192124 0.18514 0.180726 0.0 0.0 0.0 0.0 0.0 0.0 0.160489 0.157639 0.15677 0.155995 0.152244 0.14719 0.141914 0.13759 0.13504 0.131757 0.128904 0.125413 0.121877 0.118786 0.115078 0.111988 0.109273 0.105859 0.102432 0.0987587 0.0951209 0.092097 0.0886713 0.0853673 0.0816539 0.0780203 0.0746025 0.0709013 0.0675308 0.0633933 0.0601481 0.0565331 0.0529885 0.0492245 0.0455061 0.0419168 0.0381985 0.0345023 0.0308467 0.0271751 0.023376 0.0195926 0.0158502 0.0119877 0.00812563 0.00427632 0.000388871 -0.00350429 -0.00748596 -0.0114756 -0.0153667 -0.0195881 -0.0235939 -0.0277541 -0.0317977 -0.0362049 -0.0402641 -0.0445078 -0.0490166 -0.0533458 -0.0578946 -0.062431 -0.0659906 -0.0702132 -0.0745544 -0.0785945 -0.0835206 -0.08776 -0.0915768 0.0 0.0 -0.10401 0.0 0.0 -0.117487 0.0 0.0 0.0 -0.134499 -0.139327 -0.143283 -0.148848 -0.152337 -0.158184 -0.163005 -0.166235 -0.170783 -0.174897 -0.178644 -0.182739 0.0 -0.192242 0.0 -0.200751 -0.205926 -0.210179 0.0 0.0 0.0 0.0 0.0 0.0 0.0 0.0 0.0 0.0 0.0 -0.26621 -0.270451 -0.2765 -0.281575 -0.28814 -0.291485 -0.296394 -0.303456 -0.310782 -0.315482 -0.321891 -0.325105 -0.329942 -0.338067 -0.343463 -0.34947 -0.355625 -0.365297 -0.37171 -0.381845 -0.394206 -0.415892 -0.450674 -0.490684 -0.631253 -0.699012 -0.709184
0.674861 0.64602 0.656067 0.650367 0.645385 0.573642 0.534397 0.527104 0.495445 0.45423 0.398723 0.360686 0.343856 0.330808 0.325792 0.322187 0.317748 0.311617 0.308016 0.303704 0.298456 0.293159 0.289554 0.28471 0.281331 0.276034 0.272247 0.267609 0.262761 0.258965 0.25465 0.247998 0.241784 0.227926 0.191785 0.186389 0.175851 0.0 0.0 0.0 0.164462 0.16164 0.159021 0.157314 0.154174 0.150437 0.148785 0.14644 0.142857 0.138221 0.135514 0.1319 0.128867 0.126451 0.122008 0.118792 0.115555 0.112374 0.10902 0.105579 0.102711 0.0987299 0.0952526 0.0923769 0.0883807 0.0852862 0.0815494 0.0783068 0.0744829 0.070974 0.0670919 0.063792 0.0604646 0.056701 0.053214 0.0492743 0.0458175 0.0420402 0.0382369 0.0343927 0.030986 0.0272712 0.0234958 0.019699 0.0158658 0.0120297 0.00817197 0.00428585 0.000389007 -0.00353182 -0.00751864 -0.0114266 -0.0155763 -0.019559 -0.0239182 -0.0278896 -0.0320491 -0.0361412 -0.0407481 -0.0450408 -0.0497 -0.0535208 0.0 -0.0620701 -0.0662258 0.0 -0.0744482 0.0 -0.0831355 0.0 0.0 0.0 0.0 0.0 -0.109042 0.0 0.0 0.0 -0.125953 -0.130321 -0.13552 -0.138327 -0.143912 -0.147273 -0.151553 -0.157513 -0.161246 -0.166148 -0.170841 -0.175157 -0.178602 -0.182643 -0.186515 0.0 0.0 0.0 -0.204993 -0.209406 0.0 0.0 0.0 -0.228998 0.0 0.0 0.0 0.0 0.0 0.0 -0.259453 -0.266303 -0.269697 0.0 -0.280955 -0.285238 -0.29068 -0.296666 -0.302114 -0.30691 -0.313219 -0.320308 -0.324041 -0.32969 -0.335383 -0.342541 -0.348727 -0.35614 -0.365325 -0.373847 -0.384725 -0.401979 -0.433403 -0.474476 -0.571166 -0.690924 -0.693324 -0.697937
0.682091 0.670662 0.666986 0.660486 0.649331 0.652433 0.645285 0.64476 0.634042 0.574184 0.447899 0.388415 0.354788 0.331124 0.325166 0.321294 0.317504 0.311287 0.306897 0.301907 0.297628 0.293185 0.287841 0.28392 0.280553 0.273773 0.270178 0.267554 0.262932 0.258398 0.253875 0.248088 0.242429 0.236687 0.202589 0.186535 0.180117 0.0 0.170114 0.169638 0.161685 0.159038 0.0 0.153049 0.152502 0.153204 0.148691 0.144985 0.142767 0.139094 0.134961 0.131635 0.12883 0.125813 0.122224 0.118434 0.114619 0.111848 0.108768 0.105478 0.102407 0.0987352 0.0951939 0.0921058 0.0883853 0.0850932 0.0819582 0.0783622 0.0747074 0.0711406 0.0674705 0.0641079 0.0 0.0569247 0.0530962 0.0494523 0.0 0.0420692 0.0383617 0.0345939 0.0308295 0.0272725 0.0236083 0.0197371 0.0159764 0.0120189 0.0081928 0.00430346 0.000391217 -0.00355281 -0.00748658 -0.0114801 -0.0156435 -0.0196792 -0.0239552 -0.0280086 -0.0323105 -0.0370103 -0.0404363 0.0 0.0 -0.0533504 0.0 0.0 0.0 -0.0701575 -0.0746701 0.0 0.0 -0.0874109 0.0 -0.0957879 -0.0997893 -0.103959 -0.108193 -0.112664 -0.117123 -0.122134 -0.125631 -0.130479 -0.134435 -0.138778 -0.143671 -0.147282 -0.15165 -0.157522 -0.161117 -0.165012 -0.16997 -0.174314 -0.176657 -0.182972 -0.186527 -0.190938 -0.194286 -0.19858 -0.20418 -0.208998 0.0 -0.218154 -0.220479 -0.227575 -0.230983 -0.236607 -0.239445 0.0 0.0 -0.254035 -0.258281 -0.265111 -0.26887 -0.275521 -0.279861 -0.284369 -0.290127 -0.294679 -0.300351 -0.304946 -0.311312 -0.31614 -0.32271 -0.327788 -0.335507 -0.340867 -0.347701 -0.355002 -0.36437 -0.375288 -0.38914 -0.411516 -0.455217 -0.517496 -0.660815 -0.690229 -0.689415 -0.698007
0.678306 0.679159 0.668947 0.669746 0.661379 0.657084 0.655227 0.645041 0.600418 0.476376 0.39404 0.383271 0.364764 0.335534 0.325483 0.321328 0.316175 0.310604 0.307194 0.30246 0.296205 0.292458 0.28936 0.283867 0.28002 0.276006 0.270437 0.265829 0.261835 0.257246 0.253971 0.24804 0.243495 0.235888 0.220569 0.188063 0.17923 0.176107 0.168458 0.0 0.0 0.0 0.0 0.0 0.152459 0.149822 0.147357 0.148885 0.141399 0.13896 0.134457 0.131735 0.128751 0.125177 0.122399 0.118644 0.114626 0.111551 0.10826 0.105556 0.102242 0.0987084 0.0949766 0.0917129 0.0888323 0.0852958 0.0820441 0.0786245 0.0749571 0.0711448 0.0674745 0.0644662 0.0 0.0569095 0.0 0.0493752 0.0458075 0.0419768 0.0384377 0.0347621 0.0309497 0.0273691 0.0236913 0.01985 0.0159922 0.0120875 0.0082265 0.00430102 0.000393917 -0.00355958 -0.00751707 -0.0115832 -0.0156776 -0.0198534 -0.0238487 -0.0283212 -0.0327358 0.0 0.0 -0.0452181 0.0 0.0 0.0 0.0 -0.0660001 0.0 0.0 -0.0785831 -0.082756 -0.0873141 -0.0916443 -0.0953744 -0.0999415 0.0 -0.109055 -0.112112 -0.117165 -0.1214 0.0 -0.129996 -0.134131 -0.138989 -0.143058 -0.147249 -0.151573 -0.156402 -0.160385 -0.164069 -0.168464 -0.172066 -0.176258 -0.182089 -0.185408 -0.190069 -0.194188 -0.197729 0.0 -0.208171 0.0 -0.217795 -0.222167 0.0 -0.231537 -0.234927 0.0 -0.243174 0.0 -0.253839 -0.258529 -0.264302 -0.266966 -0.272642 -0.277333 -0.282855 -0.289331 -0.29429 -0.29953 -0.306103 -0.309763 -0.314477 -0.321022 -0.327363 -0.33489 -0.34062 -0.348221 -0.357677 -0.365203 -0.379346 -0.396414 -0.439544 -0.47966 -0.627499 -0.675521 -0.68366 -0.688723 -0.688014
0.68056 0.675323 0.671033 0.677708 0.670097 0.663451 0.656679 0.617789 0.50164 0.400808 0.384163 0.373924 0.359504 0.341377 0.326367 0.320446 0.315396 0.310374 0.306614 0.301802 0.297096 0.292408 0.288567 0.283901 0.280053 0.275249 0.27008 0.265706 0.261789 0.256833 0.252699 0.247216 0.243521 0.239261 0.229976 0.198732 0.182084 0.178462 0.172064 0.0 0.0 0.0 0.0 0.0 0.0 0.150419 0.147836 0.145968 0.140475 0.13686 0.134982 0.130882 0.128584 0.124972 0.1222 0.118573 0.1144 0.111445 0.108268 0.105564 0.102113 0.0984176 0.0951431 0.0923022 0.0893391 0.0856122 0.081861 0.07863 0.0750359 0.0712196 0.0678765 0.0643454 0.0608874 0.0 0.0535325 0.0493785 0.0457662 0.0422501 0.0385879 0.0348198 0.0309516 0.0274055 0.0236631 0.0198948 0.0160781 0.0121109 0.00823725 0.00434417 0.000395282 -0.00358283 -0.00761706 -0.0116439 -0.0159161 -0.019986 0.0 0.0 -0.0325742 0.0 0.0 0.0 -0.0494473 0.0 0.0 0.0 0.0 0.0 -0.074352 -0.0785424 -0.0827132 -0.0874222 -0.0909021 -0.0956888 -0.0999195 -0.10376 -0.108271 -0.112383 -0.11673 -0.12095 -0.125137 -0.129893 -0.133712 -0.137791 -0.142655 -0.146791 -0.151013 -0.155239 -0.158677 -0.162699 -0.168184 -0.170875 -0.17581 -0.180522 -0.183209 -0.189755 0.0 -0.197805 -0.200907 -0.204811 -0.211912 -0.216999 -0.220777 -0.22585 -0.232162 -0.234203 -0.240324 -0.244613 -0.248835 -0.253794 -0.258036 -0.262206 -0.26746 -0.272281 -0.276727 -0.283132 -0.28854 -0.294157 -0.299225 -0.304842 -0.309625 -0.314338 -0.31943 -0.325932 -0.332784 -0.339905 -0.347785 -0.357528 -0.369706 -0.384216 -0.416936 -0.455919 -0.575313 -0.666747 -0.671094 -0.680808 -0.686828 -0.667955
0.689879 0.680592 0.690749 0.684919 0.677321 0.66781 0.633574 0.515662 0.401209 0.384854 0.375481 0.364874 0.352802 0.341712 0.32782 0.318829 0.314894 0.309611 0.304451 0.301322 0.296111 0.291522 0.287777 0.28345 0.279288 0.274497 0.269185 0.265588 0.260025 0.256497 0.251936 0.245686 0.241879 0.237513 0.231545 0.223082 0.190743 0.185622 0.172517 0.164292 0.0 0.0 0.0 0.0 0.0 0.149268 0.147022 0.144821 0.140489 0.136249 0.13392 0.131349 0.128419 0.1255 0.122253 0.118178 0.114606 0.111112 0.108536 0.105574 0.102362 0.0991217 0.0955339 0.0924019 0.0889343 0.0856474 0.0825692 0.0786878 0.0748946 0.0715748 0.0681247 0.0 0.0 0.0 0.0 0.0495578 0.0 0.0420097 0.0386276 0.0348334 0.03125 0.0275199 0.0238432 0.0199335 0.0160293 0.0121156 0.00830947 0.00435252 0.000398599 -0.0036094 -0.00769862 -0.0118426 -0.0158507 -0.0199934 -0.0242186 0.0 -0.0326536 -0.0367897 -0.0403235 0.0 0.0 -0.0531564 0.0 0.0 -0.0656023 0.0 0.0 -0.077995 -0.082574 -0.0867914 -0.0901073 -0.0950813 -0.0991978 -0.103434 -0.108122 -0.11213 -0.116536 -0.120465 -0.124014 -0.128316 -0.133568 -0.136756 -0.141339 -0.145564 -0.148474 -0.154303 -0.157949 -0.162189 -0.166338 -0.170942 -0.175158 -0.177638 -0.18485 -0.188503 -0.192926 -0.19719 -0.20158 -0.205317 0.0 0.0 -0.220674 -0.224632 0.0 0.0 -0.238688 -0.241958 -0.247787 -0.251554 -0.256801 -0.261253 -0.266413 -0.271845 -0.276523 -0.280165 -0.288744 -0.2921 -0.296624 -0.301074 -0.307469 -0.312953 -0.319566 -0.325518 -0.33171 -0.339954 -0.348509 -0.360216 -0.371444 -0.398235 -0.433602 -0.520642 -0.651318 -0.657401 -0.667861 -0.676769 -0.67953 -0.60132
0.706724 0.702158 0.695301 0.686131 0.670855 0.652701 0.547462 0.407296 0.38299 0.37696 0.368789 0.357982 0.347841 0.338724 0.33106 0.318881 0.312943 0.307957 0.30344 0.300153 0.294873 0.290557 0.286744 0.282351 0.275082 0.273355 0.268759 0.26456 0.259538 0.255357 0.250309 0.24501 0.241146 0.23693 0.232581 0.225939 0.215911 0.194745 0.176191 0.170436 0.161574 0.0 0.0 0.0 0.0 0.0 0.144554 0.143372 0.141145 0.136312 0.132765 0.130908 0.128522 0.124739 0.12189 0.11819 0.115011 0.111352 0.108436 0.105548 0.102269 0.0987336 0.0956067 0.0925639 0.0892664 0.085627 0.081902 0.0786948 0.0750485 0.0715112 0.0681307 0.0 0.0609169 0.0575302 0.0 0.0498814 0.0 0.0 0.0386185 0.0348585 0.0314204 0.0275568 0.02386 0.0200718 0.0161505 0.0121657 0.00833317 0.00441317 0.000404114 -0.00367657 -0.00773628 -0.0118507 0.0 -0.0198816 0.0 -0.0281087 0.0 -0.0358599 0.0 -0.044989 -0.0487297 -0.0532552 -0.0571193 -0.0612367 0.0 -0.0700541 -0.0742332 -0.0777482 -0.0826299 -0.086442 -0.0905165 -0.094251 -0.0988858 -0.102349 -0.106645 -0.111187 -0.115046 -0.119629 -0.12355 -0.1278 -0.131629 -0.136085 -0.140107 -0.14421 -0.148622 -0.152554 -0.156663 -0.162016 -0.165475 -0.170911 -0.173375 -0.179084 -0.183088 -0.187585 -0.192441 -0.196231 -0.201191 0.0 -0.208633 0.0 -0.216785 -0.222238 -0.226543 -0.233309 -0.23657 -0.241567 -0.246381 -0.25093 -0.256762 -0.261139 -0.266374 -0.270549 -0.275366 -0.281262 -0.285567 -0.290802 -0.296669 -0.300947 -0.307165 -0.313002 -0.319345 -0.326767 -0.334848 -0.34238 -0.352031 -0.364864 -0.386758 -0.422209 -0.474424 -0.624855 -0.647972 -0.656983 -0.662595 -0.674486 -0.670032 -0.512163
0.719491 0.703866 0.694216 0.683419 0.669472 0.591918 0.426771 0.386651 0.378259 0.37169 0.363095 0.353543 0.344333 0.338404 0.330932 0.319953 0.31409 0.30828 0.303316 0.29864 0.294924 0.289427 0.286875 0.281338 0.276009 0.273636 0.267872 0.263154 0.258681 0.254661 0.250348 0.244835 0.241391 0.23512 0.231476 0.225117 0.221488 0.212404 0.19219 0.167974 0.164742 0.161448 0.0 0.0 0.0 0.0 0.0 0.142178 0.140522 0.137001 0.136851 0.131197 0.128448 0.12428 0.121361 0.118244 0.114592 0.111326 0.108558 0.106023 0.102658 0.0991748 0.0953615 0.09196 0.0890989 0.0857486 0.082612 0.0790376 0.0752277 0.0716581 0.0681373 0.0647168 0.0609227 0.0572041 0.0531507 0.0498382 0.0 0.042599 0.0389299 0.0350724 0.0313838 0.0275766 0.0237729 0.0200985 0.0162319 0.0122914 0.00842347 0.00446986 0.00040878 0.0 -0.00779485 0.0 -0.0161291 0.0 -0.0242803 0.0 0.0 0.0 -0.0407408 0.0 -0.0492711 -0.0528198 -0.0571247 -0.0613152 -0.0653621 0.0 -0.073607 -0.0775251 -0.0814721 -0.0857617 -0.0898036 -0.0935333 -0.0976404 -0.102085 -0.106213 -0.109949 -0.114 -0.117273 -0.121808 -0.127208 -0.130667 -0.135174 -0.139832 -0.143457 -0.148419 -0.151803 -0.157101 -0.159265 -0.165544 -0.170178 -0.175201 -0.178949 -0.182571 -0.187001 -0.190147 -0.195448 -0.199622 -0.203861 -0.209094 0.0 -0.218358 0.0 -0.226042 -0.23062 -0.237161 -0.241462 -0.245339 -0.249942 -0.255609 -0.259586 -0.264795 -0.270279 -0.274692 -0.280009 -0.284789 -0.290935 -0.296208 -0.302298 -0.305811 -0.312968 -0.320399 -0.326917 -0.331823 -0.342632 -0.355367 -0.374599 -0.407335 -0.4462 -0.58802 -0.63892 -0.645895 -0.656364 -0.658523 -0.667416 -0.667839 -0.451995
0.719758 0.696376 0.689706 0.677983 0.645539 0.497894 0.396812 0.381446 0.373431 0.36713 0.358598 0.349304 0.343436 0.336569 0.33081 0.320663 0.31042 0.30825 0.302227 0.297567 0.294123 0.289397 0.285022 0.281145 0.276058 0.271241 0.266679 0.263276 0.257752 0.253601 0.2488 0.243953 0.240317 0.235226 0.231312 0.226205 0.219975 0.21604 0.208073 0.179098 0.163995 0.161066 0.0 0.0 0.0 0.0 0.0 0.144017 0.140542 0.136539 0.136448 0.133036 0.127358 0.124296 0.121836 0.118056 0.114763 0.111264 0.109272 0.106 0.102635 0.0992858 0.0961384 0.0926455 0.0897274 0.0861251 0.0828371 0.0791236 0.0755794 0.0717591 0.068498 0.0650992 0.0613023 0.0 0.0537065 0.0499232 0.0464021 0.0423056 0.0389215 0.0352424 0.0314659 0.0276745 0.0237828 0.0201254 0.0163684 0.0125079 0.00856505 0.00448773 0.0 0.0 -0.00776553 0.0 0.0 0.0 -0.0241676 -0.0283159 0.0 -0.0364743 0.0 0.0 -0.0484636 -0.0528252 -0.0569272 0.0 0.0 -0.0693053 0.0 -0.0768414 -0.0813352 -0.0853883 -0.0889577 -0.0924808 -0.0970966 -0.100728 -0.10537 0.0 -0.113604 -0.116792 0.0 -0.126013 -0.130058 -0.134868 -0.138354 -0.142363 -0.145973 -0.151868 -0.156005 -0.159908 -0.164341 -0.168191 -0.17404 -0.177126 -0.181678 -0.186973 -0.190288 -0.195072 -0.198529 -0.203409 -0.207091 -0.213717 -0.21897 -0.219816 -0.226279 -0.231271 -0.236228 -0.241008 -0.244517 -0.250425 -0.254982 -0.261302 -0.265074 -0.268834 -0.274102 -0.27876 -0.283273 -0.287799 -0.295752 -0.300796 -0.305517 -0.311955 -0.319735 -0.325599 -0.334693 -0.346969 -0.364873 -0.393623 -0.425152 -0.536634 -0.623505 -0.631611 -0.638694 -0.650234 -0.658876 -0.663955 -0.642437 -0.418142
0.713435 0.696425 0.687757 0.668727 0.600229 0.423013 0.389126 0.377489 0.36963 0.360458 0.35341 0.348303 0.340131 0.333976 0.328911 0.322764 0.313216 0.308046 0.302201 0.295108 0.292814 0.288613 0.28135 0.279733 0.275551 0.271057 0.265335 0.262336 0.256752 0.253722 0.24863 0.244708 0.239385 0.234995 0.230615 0.226508 0.221754 0.217784 0.211267 0.201451 0.170555 0.161499 0.0 0.0 0.0 0.0 0.0 0.0 0.140267 0.137088 0.134596 0.133237 0.127199 0.123797 0.121393 0.117829 0.113913 0.111888 0.108918 0.106334 0.102717 0.0992654 0.0963101 0.0928718 0.0898269 0.0864461 0.0829821 0.07903 0.0754412 0.0723272 0.0690363 0.0652112 0.0 0.0575667 0.0 0.0 0.0464368 0.0425539 0.0387904 0.0352574 0.0313706 0.0276776 0.0240159 0.0202767 0.0164501 0.0126415 0.0 0.00445872 0.0 0.0 -0.00776868 0.0 0.0 -0.0200547 -0.0240768 0.0 0.0 0.0 -0.0400735 -0.0444047 -0.04844 0.0 0.0 0.0 0.0 0.0 0.0 -0.0765967 -0.0801301 0.0 -0.0880055 -0.0921004 0.0 -0.100101 -0.104623 -0.109943 -0.113175 -0.117267 -0.122278 -0.125047 -0.130115 -0.134242 -0.138249 -0.14204 -0.145905 -0.150984 -0.154818 -0.160266 -0.163434 -0.168669 -0.172262 -0.175094 -0.181653 -0.185952 -0.190318 -0.193773 -0.198916 -0.203805 -0.207249 -0.21262 -0.215796 -0.221099 -0.224114 -0.230086 -0.235716 -0.240203 -0.244346 -0.249005 -0.253164 -0.258693 -0.263115 -0.268886 -0.272397 -0.278247 -0.281595 -0.287606 -0.294106 -0.299471 -0.304876 -0.312021 -0.318623 -0.326958 -0.337851 -0.352358 -0.381033 -0.409242 -0.486095 -0.610733 -0.61926 -0.627722 -0.640934 -0.647725 -0.65558 -0.658977 -0.592261 -0.406023
0.705415 0.695924 0.687596 0.661559 0.547565 0.398717 0.385121 0.376959 0.369004 0.359738 0.353594 0.34476 0.341273 0.332246 0.328049 0.321544 0.313925 0.303183 0.30121 0.294391 0.29228 0.286571 0.2834 0.278815 0.274247 0.269773 0.265545 0.259341 0.256505 0.251933 0.248173 0.243762 0.239432 0.234151 0.229921 0.225301 0.218183 0.213461 0.208146 0.201123 0.193453 0.160771 0.159876 0.154481 0.0 0.0 0.0 0.0 0.0 0.0 0.133541 0.131481 0.127085 0.123557 0.121453 0.118577 0.115031 0.111942 0.10967 0.106385 0.102904 0.0993124 0.0966425 0.0930379 0.0901041 0.0864294 0.0827501 0.0792466 0.075991 0.0726163 0.0 0.0649272 0.0615922 0.0 0.0 0.0 0.046413 0.0426538 0.0387951 0.0352616 0.0315916 0.0277934 0.0241154 0.0203289 0.016727 0.0126506 0.00857467 0.00449947 0.000407938 0.0 -0.00776497 -0.0117778 -0.0159252 -0.0199675 0.0 0.0 0.0 0.0 -0.0399094 0.0 0.0 -0.0523184 0.0 0.0 0.0 0.0 -0.0725404 0.0 0.0 0.0 -0.0874018 0.0 -0.0956612 0.0 0.0 -0.10907 -0.113157 -0.117779 0.0 0.0 -0.129587 -0.133858 -0.138353 -0.142447 -0.145531 -0.150871 -0.155215 -0.158571 -0.16243 -0.168093 -0.17095 -0.176655 -0.179358 -0.185596 -0.189276 -0.19346 -0.198715 -0.201969 -0.20741 -0.210518 -0.2159 -0.221796 -0.224825 -0.230199 -0.234859 -0.239402 -0.243891 -0.248762 -0.252394 -0.257987 -0.261315 -0.267135 -0.272296 -0.276274 -0.28306 -0.287668 -0.293659 -0.298411 -0.305385 -0.311912 -0.319694 -0.329982 -0.341951 -0.368103 -0.402987 -0.44569 -0.59059 -0.610578 -0.615229 -0.627047 -0.634382 -0.642252 -0.65111 -0.659905 -0.508885 -0.399062
0.708111 0.695774 0.677794 0.655495 0.512492 0.394772 0.383435 0.374673 0.366236 0.358721 0.350702 0.34622 0.337688 0.331377 0.326067 0.320422 0.315551 0.307204 0.298986 0.294201 0.290552 0.286554 0.28156 0.277248 0.271341 0.268335 0.26289 0.259017 0.254988 0.250295 0.245985 0.2414 0.235579 0.230917 0.226412 0.220345 0.216872 0.211101 0.206019 0.202073 0.197292 0.181266 0.158087 0.153231 0.151975 0.0 0.0 0.0 0.0 0.0 0.133611 0.130684 0.127993 0.125085 0.120636 0.118271 0.115954 0.112493 0.110166 0.10665 0.103195 0.0993604 0.0968484 0.0935426 0.0905296 0.0865265 0.083059 0.0794898 0.0762471 0.0 0.068701 0.0650614 0.0 0.0577659 0.0533996 0.0500535 0.0464634 0.0427948 0.0389603 0.0352884 0.0317044 0.0279874 0.0242672 0.0206175 0.0 0.0 0.00854249 0.00448262 0.0 0.0 -0.00767332 0.0 0.0 -0.0198327 0.0 0.0 0.0 0.0 0.0 0.0 0.0 0.0 0.0 0.0 0.0 0.0 -0.0723538 0.0 0.0 0.0 0.0 0.0 0.0 0.0 0.0 -0.108 -0.113584 0.0 -0.121692 -0.125463 -0.128904 -0.133638 -0.136754 -0.142128 -0.144939 -0.149946 -0.152495 -0.158311 -0.163489 -0.167368 -0.171857 -0.175208 -0.180906 -0.185132 -0.187783 -0.194133 -0.197452 -0.202069 -0.205045 -0.211693 -0.215879 -0.220268 -0.224871 -0.228611 -0.233312 -0.238038 -0.243006 -0.247349 -0.252002 -0.256145 -0.261374 -0.266409 -0.270918 -0.275607 -0.2823 -0.286728 -0.293473 -0.299696 -0.305195 -0.314224 -0.321316 -0.333106 -0.355228 -0.389748 -0.41937 -0.555471 -0.598673 -0.603394 -0.614268 -0.624315 -0.633081 -0.642634 -0.648697 -0.646758 -0.444176 -0.397936
0.705011 0.689339 0.677322 0.652287 0.496969 0.393711 0.381545 0.372392 0.364292 0.355795 0.351096 0.343471 0.336717 0.329943 0.325404 0.318751 0.31363 0.307464 0.299947 0.294973 0.29054 0.284014 0.279557 0.275849 0.271167 0.267296 0.262488 0.25763 0.252725 0.246819 0.242354 0.237834 0.232286 0.227959 0.223039 0.219537 0.215306 0.210956 0.205567 0.201994 0.19763 0.19299 0.172395 0.155542 0.151135 0.0 0.0 0.0 0.0 0.0 0.0 0.0 0.127794 0.125882 0.12233 0.118698 0.115974 0.113198 0.110148 0.106454 0.103211 0.100438 0.097247 0.0938951 0.0906617 0.0 0.0835309 0.0802237 0.0 0.0721941 0.0690428 0.0647996 0.0616292 0.0 0.053803 0.0499808 0.0462929 0.042828 0.0389781 0.0354265 0.0315804 0.028329 0.0246648 0.0206204 0.0165965 0.012533 0.00845662 0.00445105 0.0 0.0 0.0 0.0 0.0 0.0 0.0 0.0 0.0 0.0 0.0 0.0 0.0 0.0 0.0 0.0 0.0 0.0 -0.071687 0.0 0.0 0.0 0.0 0.0 0.0 0.0 0.0 -0.108116 0.0 -0.11771 -0.121749 -0.124992 0.0 0.0 -0.137859 -0.141254 -0.144965 -0.149474 0.0 -0.158723 -0.161606 -0.166896 -0.171065 -0.174766 -0.179427 -0.184062 -0.187707 -0.192783 -0.19767 -0.200298 -0.206075 -0.210416 -0.215476 -0.219071 -0.224319 -0.22839 -0.232948 -0.236394 -0.241549 -0.24616 -0.250344 -0.254914 -0.260122 -0.264901 -0.270745 -0.276163 -0.281379 -0.286633 -0.293633 -0.298299 -0.307036 -0.314753 -0.325215 -0.340017 -0.374507 -0.398115 -0.508623 -0.586909 -0.595069 -0.603259 -0.617907 -0.621801 -0.630952 -0.638776 -0.642739 -0.629685 -0.417295 -0.39805
0.700327 0.686963 0.677307 0.650842 0.50393 0.388818 0.377767 0.372503 0.363275 0.356909 0.347916 0.341414 0.336235 0.32918 0.323431 0.318101 0.313354 0.306114 0.301356 0.295402 0.289678 0.282742 0.278554 0.272657 0.268108 0.263576 0.258908 0.253195 0.24964 0.242977 0.240099 0.234625 0.230251 0.226234 0.221548 0.218733 0.214581 0.208727 0.204869 0.201674 0.198268 0.192741 0.185289 0.166032 0.153613 0.147656 0.0 0.0 0.0 0.0 0.0 0.0 0.129148 0.125561 0.12227 0.11872 0.115877 0.113333 0.110684 0.107578 0.104296 0.101052 0.0978385 0.0940339 0.0907359 0.0872322 0.0831935 0.0800563 0.0762464 0.0724856 0.069098 0.0651439 0.0 0.0576358 0.0537942 0.0501324 0.0464624 0.0428481 0.0391812 0.0356317 0.0321384 0.0284372 0.0246759 0.0205737 0.0 0.0 0.0 0.0 0.0 0.0 0.0 0.0 0.0 0.0 0.0 0.0 0.0 0.0 0.0 0.0 0.0 0.0 0.0 0.0 0.0 0.0 -0.0720481 0.0 0.0 0.0 0.0 0.0 0.0 0.0 0.0 0.0 0.0 0.0 0.0 0.0 -0.128363 -0.132838 -0.137053 -0.140981 -0.144375 -0.149322 -0.153763 -0.157224 -0.161933 -0.164213 -0.169914 -0.174803 -0.178977 -0.183991 -0.187634 -0.18993 -0.196057 -0.201612 -0.205258 -0.209771 -0.214626 -0.218728 -0.2225 -0.227149 -0.231198 -0.236311 -0.240888 -0.245781 -0.249734 -0.255131 -0.259339 -0.264026 -0.268736 -0.275667 -0.281371 -0.287551 -0.293457 -0.300203 -0.309059 -0.316541 -0.331575 -0.361601 -0.388374 -0.460928 -0.576247 -0.586982 -0.59078 -0.602934 -0.611764 -0.619296 -0.628833 -0.63631 -0.643472 -0.561371 -0.402918 -0.400304
0.700214 0.681222 0.672529 0.652696 0.5348 0.394169 0.377783 0.370338 0.362161 0.355507 0.348821 0.341422 0.335081 0.32728 0.322591 0.316162 0.310714 0.305936 0.301445 0.296533 0.289847 0.282908 0.275397 0.270939 0.264891 0.260649 0.254787 0.250669 0.244758 0.242084 0.236979 0.232625 0.23024 0.224991 0.220194 0.217207 0.212955 0.208398 0.203865 0.201419 0.196888 0.191739 0.186641 0.181035 0.16251 0.150079 0.145843 0.0 0.0 0.0 0.0 0.0 0.0 0.0 0.0 0.118297 0.116018 0.113812 0.111332 0.107705 0.10435 0.100673 0.0976009 0.0945422 0.0910764 0.0869935 0.0838296 0.0 0.0764807 0.0728481 0.0689992 0.0651549 0.0616493 0.0578114 0.0539752 0.0502845 0.0467358 0.0430582 0.0396558 0.0362036 0.0325487 0.0286409 0.0246278 0.0 0.0 0.0 0.0 0.0 0.0 0.0 0.0 0.0 0.0 0.0 0.0 0.0 0.0 0.0 0.0 0.0 0.0 0.0 0.0 0.0 0.0 0.0 -0.071492 -0.07453 0.0 0.0 0.0 0.0 0.0 0.0 0.0 0.0 0.0 0.0 -0.119999 0.0 -0.128779 -0.132865 -0.13654 -0.140153 -0.144713 -0.14899 -0.152864 -0.157401 -0.160691 -0.164751 -0.170209 -0.173784 -0.178152 -0.182482 -0.186148 -0.191943 -0.196103 -0.200813 -0.204443 -0.208876 -0.213971 -0.217471 -0.221686 -0.227616 -0.231188 -0.235735 -0.238861 -0.245112 -0.248606 -0.252843 -0.258713 -0.26402 -0.269291 -0.275175 -0.28079 -0.28612 -0.292773 -0.301071 -0.309767 -0.32111 -0.345395 -0.374809 -0.426039 -0.561132 -0.572664 -0.582175 -0.588979 -0.599903 -0.607975 -0.618043 -0.623471 -0.634279 -0.640444 -0.4845 -0.400058 -0.400097
0.695894 0.681344 0.669983 0.652809 0.572948 0.40999 0.382331 0.371604 0.362794 0.357039 0.346348 0.341239 0.333546 0.327862 0.32307 0.31543 0.310174 0.305404 0.298887 0.293926 0.288994 0.284006 0.278302 0.27102 0.263845 0.258119 0.255017 0.24891 0.244603 0.242079 0.236972 0.231979 0.228629 0.222793 0.220387 0.216408 0.212171 0.208009 0.203545 0.201531 0.196878 0.191496 0.187142 0.182804 0.175655 0.160897 0.146551 0.145524 0.140135 0.0 0.0 0.0 0.0 0.125528 0.122446 0.0 0.116751 0.113836 0.11176 0.108582 0.104474 0.101389 0.0983547 0.0944991 0.0914476 0.0880553 0.0843857 0.0803174 0.0767405 0.0730482 0.0691886 0.0 0.0618766 0.0580613 0.0 0.0506132 0.0469507 0.0435263 0.0402173 0.0365541 0.0 0.0286545 0.0 0.0 0.0 0.0 0.0 0.0 0.0 0.0 -0.00764789 0.0 0.0 0.0 0.0 0.0 -0.0316825 -0.0356741 0.0 0.0 0.0 -0.0511305 -0.0556952 -0.059674 0.0 0.0 0.0 0.0 0.0 -0.0828738 -0.0868848 0.0 0.0 0.0 0.0 0.0 0.0 0.0 0.0 -0.124117 -0.128845 -0.131319 -0.136527 -0.139797 -0.144524 -0.148025 -0.152618 -0.156958 -0.160188 -0.164487 -0.169165 -0.173244 -0.177869 -0.180476 -0.185684 -0.190195 -0.194494 -0.199775 -0.203445 -0.208174 -0.212419 -0.215888 -0.221813 -0.22604 -0.229374 -0.233746 -0.237846 -0.242978 -0.248153 -0.254513 -0.257782 -0.264255 -0.269691 -0.275013 -0.282446 -0.286796 -0.294316 -0.303855 -0.315064 -0.331864 -0.364321 -0.395138 -0.532393 -0.565211 -0.570536 -0.578648 -0.589174 -0.597282 -0.606034 -0.613798 -0.622632 -0.629173 -0.626962 -0.433936 -0.399309 -0.400796
0.696147 0.679565 0.668447 0.657651 0.624118 0.476856 0.385943 0.372256 0.363537 0.355346 0.34866 0.34018 0.333661 0.326926 0.321959 0.315536 0.308454 0.30308 0.298543 0.293586 0.288916 0.283254 0.279055 0.274618 0.268186 0.260175 0.254396 0.248375 0.243326 0.239424 0.235522 0.232047 0.226671 0.222925 0.21924 0.216007 0.211778 0.207623 0.20329 0.200066 0.195086 0.190382 0.186962 0.183575 0.176842 0.172786 0.157117 0.143029 0.138392 0.136606 0.134313 0.0 0.0 0.0 0.0 0.119972 0.116816 0.114318 0.112043 0.109533 0.105391 0.101775 0.0987585 0.0951943 0.0914367 0.088186 0.0842405 0.0805397 0.0767801 0.0731091 0.0 0.0659939 0.0619277 0.0582752 0.0547352 0.0510865 0.0473582 0.044144 0.0403356 0.0362276 0.0325009 0.0 0.0 0.0 0.0 0.0 0.0 0.0 0.0 0.0 0.0 0.0 0.0 -0.0196094 0.0 -0.0273131 0.0 -0.0354742 0.0 0.0 0.0 -0.0513605 0.0 -0.0590847 -0.0630403 -0.0671812 0.0 0.0 0.0 0.0 0.0 0.0 0.0 0.0 0.0 0.0 0.0 0.0 0.0 -0.124144 0.0 -0.132357 -0.135851 -0.139186 -0.142661 -0.147516 -0.151722 -0.156134 -0.160079 -0.16493 -0.169052 -0.173129 -0.175749 -0.181353 -0.185278 -0.18926 -0.193657 -0.198377 -0.202388 -0.206402 -0.211834 -0.21667 -0.220202 -0.224399 -0.229093 -0.23339 -0.237772 -0.241949 -0.247032 -0.252916 -0.257088 -0.263392 -0.268895 -0.275263 -0.281792 -0.289832 -0.297488 -0.307514 -0.32284 -0.352841 -0.3749 -0.497551 -0.554874 -0.561126 -0.568899 -0.577771 -0.586003 -0.593665 -0.601141 -0.613498 -0.622539 -0.630143 -0.592979 -0.414187 -0.399675 -0.403862
0.688653 0.672052 0.662921 0.653403 0.6394 0.579342 0.430122 0.380811 0.364492 0.357801 0.347892 0.340206 0.332137 0.327902 0.32104 0.314445 0.309384 0.301928 0.297231 0.292555 0.287643 0.282253 0.278236 0.272749 0.268516 0.263184 0.258442 0.251968 0.24513 0.240237 0.235016 0.231478 0.226601 0.221828 0.21823 0.214951 0.210095 0.205846 0.203162 0.199636 0.193475 0.191308 0.187071 0.182845 0.177705 0.172726 0.166238 0.157039 0.141932 0.13664 0.0 0.0 0.0 0.0 0.0 0.0 0.117946 0.11484 0.112437 0.109343 0.106034 0.10203 0.0991317 0.0953686 0.0918694 0.0881483 0.0843394 0.080505 0.0768453 0.0733343 0.0697914 0.0658402 0.0619992 0.0586189 0.0550045 0.0514166 0.0480029 0.044356 0.0 0.0363235 0.0325665 0.0 0.0 0.0204201 0.0 0.0 0.0 0.0 0.0 0.0 0.0 0.0 0.0 0.0 -0.0233146 -0.02731 -0.0314919 -0.0352421 -0.0391813 -0.0430502 -0.0471066 0.0 -0.0549018 0.0 0.0 0.0 0.0 0.0 0.0 0.0 0.0 0.0 0.0 0.0 0.0 0.0 0.0 0.0 0.0 0.0 -0.126242 0.0 0.0 -0.139434 -0.143578 -0.147416 -0.1519 -0.156221 -0.15958 -0.163311 -0.169199 -0.170953 -0.176391 -0.180294 -0.184648 -0.188964 -0.19306 -0.197465 -0.202199 -0.206651 -0.210287 -0.214239 -0.21913 -0.224058 -0.227842 -0.232257 -0.237701 -0.241878 -0.246288 -0.252008 -0.258178 -0.262848 -0.270185 -0.275436 -0.2823 -0.29136 -0.301266 -0.316739 -0.339449 -0.362371 -0.451348 -0.542884 -0.548324 -0.557238 -0.566306 -0.574555 -0.58433 -0.596806 -0.602284 -0.609375 -0.61794 -0.626334 -0.525733 -0.401981 -0.399938 -0.404466
0.688131 0.671421 0.662853 0.649274 0.63998 0.622091 0.550326 0.410169 0.369862 0.359153 0.348325 0.341417 0.334201 0.327168 0.320785 0.315211 0.306944 0.303658 0.29557 0.291616 0.286288 0.281763 0.277005 0.271618 0.268448 0.26288 0.257286 0.252817 0.24769 0.242751 0.237122 0.231483 0.225766 0.223269 0.218366 0.213171 0.208802 0.207493 0.201423 0.197143 0.193354 0.189792 0.185758 0.181338 0.178082 0.173731 0.168723 0.163158 0.155797 0.143559 0.134382 0.131889 0.0 0.0 0.0 0.0 0.118014 0.115135 0.112538 0.109477 0.0 0.102718 0.0997941 0.0960052 0.0923328 0.08814 0.0843583 0.0810907 0.0776488 0.0738174 0.069718 0.0662514 0.062583 0.0589081 0.0555328 0.0519714 0.0482198 0.0445414 0.0 0.0 0.0323458 0.0 0.0 0.0 0.0162586 0.0 0.0 0.0043859 0.000391266 -0.0035698 0.0 -0.0114677 0.0 -0.0192882 -0.0232257 -0.0272735 0.0 0.0 -0.039141 0.0 0.0 0.0 -0.0548625 -0.0589635 0.0 0.0 0.0 0.0 0.0 0.0 0.0 0.0 0.0 0.0 0.0 0.0 0.0 0.0 0.0 0.0 0.0 0.0 0.0 -0.138655 0.0 -0.147727 -0.150215 -0.155593 -0.158296 -0.163355 -0.166302 -0.170789 -0.175899 -0.179181 -0.183284 -0.188323 -0.192346 -0.197281 -0.201394 -0.205515 -0.210287 -0.214437 -0.218663 -0.222832 -0.227219 -0.231482 -0.23583 -0.241958 -0.247044 -0.251789 -0.258343 -0.263017 -0.269157 -0.275696 -0.284222 -0.295252 -0.308472 -0.333101 -0.351398 -0.414931 -0.52868 -0.540223 -0.545342 -0.556212 -0.56266 -0.574481 -0.582668 -0.591091 -0.598021 -0.606401 -0.613033 -0.619017 -0.458336 -0.399514 -0.402206 -0.405977
0.688193 0.671478 0.658347 0.647349 0.639705 0.625662 0.612862 0.528261 0.400677 0.363345 0.351059 0.341358 0.335594 0.32768 0.320818 0.313574 0.307794 0.303056 0.295329 0.289896 0.284508 0.279757 0.276111 0.271719 0.266214 0.260919 0.257379 0.252602 0.248453 0.243721 0.238436 0.232985 0.227868 0.22307 0.217363 0.211724 0.208676 0.205595 0.201549 0.197266 0.193295 0.18886 0.184674 0.181114 0.176992 0.172878 0.168772 0.164117 0.157966 0.154238 0.145203 0.134572 0.129022 0.12535 0.0 0.121241 0.118833 0.0 0.114081 0.110039 0.0 0.103574 0.100106 0.0958749 0.0930042 0.088359 0.0852977 0.0815743 0.0776668 0.0742081 0.0699331 0.0666637 0.0631875 0.0601761 0.0 0.052191 0.0 0.0 0.0 0.0 0.0319472 0.0 0.0240557 0.0201422 0.0162721 0.0 0.00831604 0.00438147 0.000395744 -0.00354859 -0.00749387 -0.0114631 -0.0152783 -0.0191906 -0.0230506 0.0 0.0 -0.0347571 -0.0389561 0.0 0.0 0.0 0.0 0.0 0.0 0.0 0.0 0.0 0.0 0.0 0.0 0.0 0.0 0.0 0.0 0.0 0.0 0.0 0.0 -0.121847 -0.126776 -0.130234 -0.134704 -0.138263 -0.143434 -0.147041 -0.150443 -0.155206 -0.157752 -0.162243 -0.166506 -0.17068 -0.174597 -0.179013 -0.18334 -0.187395 -0.191635 -0.196556 -0.200036 -0.204697 -0.208681 -0.212668 -0.217864 -0.221267 -0.226878 -0.232058 -0.236201 -0.241454 -0.246756 -0.252792 -0.260373 -0.26461 -0.271019 -0.277916 -0.287642 -0.301593 -0.323988 -0.34331 -0.379783 -0.508868 -0.528977 -0.536646 -0.542368 -0.555196 -0.562692 -0.571478 -0.579623 -0.588407 -0.597038 -0.602917 -0.612025 -0.596997 -0.419416 -0.399681 -0.405149 -0.408059
0.680269 0.667825 0.657523 0.64928 0.635757 0.628393 0.616081 0.59663 0.511962 0.390714 0.356694 0.343862 0.335541 0.327721 0.320857 0.31259 0.307463 0.30201 0.294651 0.291407 0.284278 0.279529 0.274722 0.270351 0.26519 0.259673 0.255842 0.251549 0.247418 0.242998 0.238087 0.234279 0.228788 0.22452 0.218313 0.21503 0.209006 0.202114 0.197207 0.192951 0.188653 0.184725 0.180459 0.176936 0.172527 0.169474 0.164981 0.161127 0.157025 0.153128 0.148622 0.145201 0.135674 0.127586 0.123858 0.121519 0.120206 0.117754 0.114555 0.111032 0.107285 0.103435 0.100836 0.0962069 0.0930278 0.089569 0.0 0.0821109 0.0781285 0.0745533 0.0709683 0.0678297 0.0 0.0605041 0.0 0.0 0.0 0.0 0.0 0.0 0.0319546 0.0278861 0.0 0.0199226 0.0159804 0.0121088 0.0 0.0043247 0.000389728 -0.00350653 -0.00741205 0.0 -0.0152912 -0.019189 0.0 0.0 0.0 0.0 0.0 0.0 0.0 -0.0509319 0.0 0.0 0.0 0.0 0.0 0.0 0.0 0.0 0.0 0.0 0.0 0.0 0.0 -0.105962 0.0 -0.113913 -0.11727 -0.122297 -0.127555 -0.132169 -0.135325 -0.139847 -0.143519 -0.147129 -0.150487 -0.153335 -0.156815 -0.161182 -0.165833 -0.169197 -0.173892 -0.178515 -0.182036 -0.186875 -0.191223 -0.194985 -0.199237 -0.203314 -0.207721 -0.212281 -0.216131 -0.220935 -0.225984 -0.230297 -0.236719 -0.240954 -0.247072 -0.253115 -0.258688 -0.264868 -0.271123 -0.282263 -0.295213 -0.313419 -0.3349 -0.356315 -0.485385 -0.521092 -0.52382 -0.53474 -0.541842 -0.551046 -0.558869 -0.567797 -0.576686 -0.585328 -0.595145 -0.604317 -0.606399 -0.552896 -0.407817 -0.40128 -0.405326 -0.408913
0.680125 0.664521 0.653815 0.646499 0.63713 0.624827 0.613299 0.601269 0.588661 0.505462 0.385492 0.351884 0.336367 0.328055 0.319583 0.314023 0.30732 0.301058 0.294509 0.288999 0.284052 0.279813 0.27342 0.268333 0.264008 0.259776 0.255398 0.250041 0.245409 0.241615 0.237453 0.231518 0.228943 0.223505 0.219066 0.213458 0.210051 0.20561 0.200507 0.193991 0.18699 0.181698 0.177953 0.173426 0.168607 0.165591 0.161813 0.158035 0.154158 0.151152 0.147542 0.143373 0.1398 0.136084 0.130977 0.127085 0.123158 0.119315 0.115511 0.111599 0.107246 0.104759 0.101119 0.0974015 0.0939678 0.0903 0.0862884 0.0824681 0.0787391 0.0753904 0.0718277 0.0680769 0.0 0.0 0.0 0.0 0.0 0.0 0.0 0.0 0.0318138 0.0 0.0 0.0 0.0 0.0 0.0 0.0 0.0 0.0 0.0 0.0 0.0 0.0 0.0 0.0 -0.0308348 0.0 0.0 0.0 0.0 0.0 0.0 0.0 -0.0619644 0.0 0.0 0.0 0.0 0.0 0.0 0.0 0.0 0.0 0.0 0.0 0.0 -0.114299 -0.118514 -0.122256 -0.125554 0.0 0.0 0.0 0.0 -0.145448 0.0 -0.152951 -0.156815 -0.161183 -0.164283 -0.169305 -0.173136 -0.177686 -0.18204 -0.18601 -0.190162 -0.194204 -0.198378 -0.202375 -0.207279 -0.211634 -0.216008 -0.220401 -0.224954 -0.231093 -0.236303 -0.241046 -0.247018 -0.253137 -0.25879 -0.26663 -0.275323 -0.285966 -0.303127 -0.326946 -0.342659 -0.449973 -0.510681 -0.515301 -0.523678 -0.530623 -0.540199 -0.548713 -0.55863 -0.566184 -0.576344 -0.582359 -0.589884 -0.60189 -0.605199 -0.48615 -0.402163 -0.401463 -0.406956 -0.411464
0.680794 0.660662 0.653904 0.643399 0.635046 0.625443 0.612954 0.603217 0.593865 0.573947 0.506672 0.386099 0.345348 0.330977 0.320481 0.3137 0.307823 0.301011 0.293131 0.289038 0.284519 0.278411 0.272787 0.267955 0.263878 0.258459 0.254413 0.250066 0.245884 0.241416 0.236168 0.231538 0.227703 0.22263 0.218476 0.214133 0.210324 0.205686 0.200891 0.196801 0.191229 0.184153 0.173738 0.170196 0.166648 0.162613 0.159373 0.156161 0.152627 0.149274 0.146417 0.142368 0.140067 0.135824 0.132569 0.129035 0.125088 0.0 0.0 0.113953 0.110173 0.105188 0.101692 0.0971522 0.0942599 0.0902685 0.0857439 0.0823615 0.0 0.0758314 0.0720906 0.0678858 0.0 0.0 0.0 0.0 0.0 0.0 0.0 0.0 0.0 0.0 0.0 0.0 0.0 0.0 0.0 0.0 0.0 0.0 0.0 0.0 0.0 -0.0190487 0.0 -0.0267679 0.0 0.0 0.0 0.0 0.0 0.0 0.0 0.0 -0.0618057 0.0 0.0 0.0 0.0 0.0 0.0 0.0 0.0 0.0 0.0 0.0 -0.110614 0.0 0.0 -0.122103 0.0 0.0 0.0 0.0 0.0 -0.144086 -0.147968 -0.151947 -0.156277 -0.160278 -0.163615 -0.168409 -0.172165 -0.176859 -0.181082 -0.185611 -0.18839 -0.193365 -0.19746 -0.20245 -0.206519 -0.211188 -0.215554 -0.219529 -0.226086 -0.231183 -0.236903 -0.242247 -0.247342 -0.253469 -0.260603 -0.268635 -0.27929 -0.29547 -0.321006 -0.331892 -0.415875 -0.502382 -0.507988 -0.514542 -0.521086 -0.527714 -0.540348 -0.547628 -0.557337 -0.567032 -0.573922 -0.582023 -0.589852 -0.597292 -0.595482 -0.434615 -0.399 -0.404286 -0.407483 -0.4129
0.673008 0.663927 0.652222 0.643057 0.630801 0.621789 0.613466 0.600803 0.596722 0.581012 0.557458 0.504345 0.385499 0.336681 0.325627 0.315704 0.307783 0.302141 0.293886 0.289169 0.282412 0.277012 0.272576 0.267582 0.262865 0.257224 0.252654 0.248336 0.243205 0.239817 0.234451 0.232061 0.227236 0.221621 0.217149 0.214151 0.209435 0.205195 0.20103 0.195597 0.191301 0.187255 0.181048 0.169924 0.165945 0.0 0.158806 0.0 0.152679 0.0 0.146231 0.142964 0.0 0.135609 0.132444 0.0 0.0 0.122559 0.0 0.0 0.11062 0.106649 0.103259 0.0985658 0.0948194 0.0908043 0.0 0.0826435 0.0797428 0.075432 0.0 0.0 0.0 0.0 0.0 0.0 0.0 0.0 0.0 0.0 0.0 0.0 0.0 0.0 0.0 0.0 0.0 0.0 0.0 0.0 0.0 0.0 0.0 0.0 0.0 0.0 0.0 -0.0346284 0.0 0.0 0.0 0.0 0.0 0.0 0.0 0.0 0.0 0.0 0.0 0.0 -0.0843982 0.0 -0.0936759 0.0 0.0 0.0 0.0 0.0 0.0 0.0 0.0 0.0 0.0 0.0 -0.139677 -0.144043 -0.147644 -0.150896 -0.155838 -0.15882 -0.163672 -0.167727 -0.171629 -0.175535 -0.180239 -0.184344 -0.188223 -0.192711 -0.19673 -0.20139 -0.206922 -0.210679 -0.215371 -0.219686 -0.225132 -0.230284 -0.23635 -0.242274 -0.247446 -0.253577 -0.262422 -0.272462 -0.284711 -0.312907 -0.321647 -0.378004 -0.488648 -0.496342 -0.502472 -0.512084 -0.518501 -0.527776 -0.537971 -0.543881 -0.550828 -0.562493 -0.571409 -0.581092 -0.589216 -0.597375 -0.56312 -0.414539 -0.402877 -0.404924 -0.407685 -0.416259
0.67267 0.659976 0.648989 0.639756 0.626781 0.6175 0.609128 0.599023 0.591884 0.582318 0.570428 0.555922 0.495803 0.375125 0.334367 0.316508 0.311043 0.302286 0.295091 0.28852 0.282115 0.27765 0.272868 0.267295 0.261453 0.256865 0.251987 0.247144 0.243237 0.238813 0.234698 0.229237 0.225303 0.221165 0.216902 0.21272 0.208548 0.20369 0.199617 0.195491 0.191316 0.186977 0.18283 0.17635 0.167316 0.162146 0.158344 0.154801 0.151745 0.150198 0.0 0.143563 0.140339 0.0 0.0 0.0 0.0 0.122599 0.119316 0.0 0.0 0.0 0.0 0.0 0.0953213 0.0916249 0.0877446 0.0 0.0 0.0 0.0 0.0 0.0 0.0 0.0 0.0 0.0476415 0.0 0.0 0.0 0.0 0.0 0.0 0.0 0.0 0.0 0.0 0.0 0.0 0.0 0.0 0.0 0.0 0.0 0.0 -0.0268499 0.0 0.0 0.0 0.0 0.0 0.0 0.0 0.0 0.0 0.0 0.0 0.0 0.0 0.0 -0.0852288 0.0 -0.0921811 0.0 -0.101 -0.103876 0.0 0.0 0.0 0.0 0.0 0.0 0.0 -0.135773 -0.138753 -0.142957 -0.146762 -0.150805 -0.15491 -0.158877 -0.162852 -0.166888 -0.171857 -0.175713 -0.179058 -0.184299 -0.187466 -0.192362 -0.196437 -0.201724 -0.205909 -0.210963 -0.215393 -0.219983 -0.225646 -0.230737 -0.235801 -0.242527 -0.24763 -0.25636 -0.264559 -0.279298 -0.302432 -0.315174 -0.351434 -0.473274 -0.488277 -0.496054 -0.501562 -0.510892 -0.518204 -0.525346 -0.534286 -0.542526 -0.551391 -0.563558 -0.567808 -0.575017 -0.584491 -0.592793 -0.500806 -0.404494 -0.403191 -0.407328 -0.411566 -0.41546
0.671885 0.65739 0.648667 0.638996 0.625593 0.617399 0.607864 0.597983 0.587977 0.580999 0.568725 0.558181 0.545606 0.491263 0.374444 0.327171 0.312756 0.30424 0.294971 0.289448 0.284146 0.2777 0.273583 0.266931 0.261174 0.255558 0.251091 0.247565 0.24267 0.238477 0.233568 0.229125 0.224982 0.221056 0.215648 0.211951 0.208118 0.203839 0.19914 0.19478 0.191394 0.18606 0.182161 0.178095 0.172619 0.16386 0.158457 0.154606 0.152148 0.149723 0.0 0.143524 0.0 0.136309 0.133417 0.0 0.0 0.122641 0.0 0.0 0.0 0.0 0.0 0.0 0.0 0.0 0.0 0.0 0.0 0.0 0.0 0.0 0.0 0.0 0.0 0.0 0.0 0.0 0.0388181 0.0 0.0 0.0 0.0 0.0 0.0 0.0 0.0 0.0 0.0 0.0 0.0 0.0 0.0 0.0 0.0 0.0 -0.0305303 0.0 0.0 0.0 0.0 0.0 0.0 0.0 0.0 0.0 0.0 0.0 0.0 0.0 -0.0851753 0.0 0.0 0.0 0.0 0.0 0.0 0.0 0.0 0.0 0.0 -0.129022 -0.130955 -0.13436 -0.138317 -0.142645 -0.146115 -0.150045 -0.15482 -0.15813 -0.162501 -0.166528 -0.17062 -0.174948 -0.178845 -0.183095 -0.187007 -0.192077 -0.196395 -0.200037 -0.2069 -0.210526 -0.215352 -0.219668 -0.225397 -0.230556 -0.236413 -0.242711 -0.250369 -0.259609 -0.271207 -0.292389 -0.306674 -0.330359 -0.453521 -0.476036 -0.48294 -0.491244 -0.498889 -0.510158 -0.516273 -0.524685 -0.534651 -0.540894 -0.550222 -0.558935 -0.566907 -0.576935 -0.583566 -0.583953 -0.443498 -0.401929 -0.405031 -0.408863 -0.412454 -0.418615
0.667674 0.653343 0.644225 0.631747 0.626264 0.617524 0.605235 0.599248 0.586754 0.578067 0.570332 0.55848 0.549105 0.538846 0.482815 0.363517 0.318323 0.304578 0.297522 0.290034 0.282654 0.277162 0.272552 0.267637 0.261545 0.254413 0.250043 0.24615 0.242334 0.236295 0.231352 0.227732 0.224805 0.2193 0.215745 0.211715 0.20646 0.20253 0.198542 0.193766 0.189565 0.186139 0.182065 0.177945 0.172908 0.167445 0.159613 0.155987 0.152901 0.0 0.146863 0.0 0.0 0.0 0.0 0.0 0.0 0.0 0.0 0.0 0.0 0.0 0.0 0.0 0.0 0.0 0.0 0.0 0.0 0.0 0.0 0.0 0.0 0.0 0.0 0.0 0.0 0.0 0.0 0.0 0.0 0.0 0.0 0.0 0.0 0.0 0.0 0.0 0.0 0.0 0.0 0.0 0.0 0.0 0.0 0.0 0.0 0.0 0.0 0.0 0.0 0.0 0.0 0.0 0.0 0.0 0.0 0.0 0.0 0.0 0.0 0.0 0.0 0.0 0.0 0.0 0.0 0.0 0.0 0.0 0.0 -0.127045 -0.129918 -0.133809 -0.137749 -0.141608 -0.146031 -0.150008 -0.153895 -0.158647 -0.161892 -0.165746 -0.169929 -0.174075 -0.178294 -0.182125 -0.187206 -0.191309 -0.195674 -0.200504 -0.20486 -0.211015 -0.214777 -0.220247 -0.225709 -0.230805 -0.236234 -0.244079 -0.253791 -0.264241 -0.283464 -0.301861 -0.316715 -0.427481 -0.468457 -0.473826 -0.482412 -0.487919 -0.497285 -0.505475 -0.515903 -0.522642 -0.530321 -0.542327 -0.549255 -0.55717 -0.564718 -0.57583 -0.579984 -0.561379 -0.417787 -0.402364 -0.406122 -0.409199 -0.416246 -0.419975
0.665076 0.651794 0.636998 0.63233 0.62499 0.613583 0.60579 0.596246 0.58626 0.574635 0.566947 0.558297 0.54863 0.538855 0.525012 0.459273 0.352682 0.315483 0.299903 0.290187 0.283061 0.278239 0.272527 0.26597 0.262889 0.254542 0.251027 0.245736 0.240042 0.235523 0.23161 0.227556 0.22302 0.218647 0.214497 0.210027 0.206814 0.201796 0.196887 0.193486 0.189649 0.184935 0.182087 0.176959 0.172872 0.168689 0.162439 0.0 0.152963 0.0 0.0 0.0 0.140097 0.0 0.0 0.128569 0.0 0.122769 0.0 0.0 0.0 0.0 0.0 0.0 0.0 0.0 0.0 0.0 0.0 0.0 0.0 0.0 0.0 0.0 0.0 0.0 0.0 0.0 0.0 0.0 0.0 0.0 0.0 0.0 0.0 0.0 0.0 0.0 0.0 0.0 0.0 0.0 0.0 0.0 0.0 0.0 0.0 0.0 0.0 0.0 0.0 0.0 0.0 0.0 0.0 0.0 0.0 0.0 0.0 0.0 0.0 0.0 0.0 0.0 0.0 0.0 0.0 0.0 0.0 0.0 -0.122002 -0.126081 -0.129968 -0.133818 -0.137715 -0.14089 -0.14506 -0.149012 -0.153712 -0.157853 -0.161286 -0.165073 -0.169186 -0.173927 -0.17712 -0.181856 -0.186396 -0.190909 -0.19632 -0.200785 -0.204889 -0.208213 -0.215415 -0.220009 -0.225468 -0.231342 -0.238087 -0.247665 -0.258122 -0.273315 -0.296748 -0.305811 -0.392415 -0.457473 -0.466953 -0.472468 -0.479832 -0.488003 -0.496664 -0.505386 -0.514811 -0.522554 -0.530517 -0.534884 -0.55014 -0.553543 -0.564035 -0.571799 -0.576819 -0.514532 -0.407151 -0.405268 -0.409391 -0.410972 -0.417153 -0.420217
0.662833 0.64765 0.641176 0.630828 0.6197 0.607932 0.604769 0.594924 0.584542 0.578727 0.567375 0.557829 0.54982 0.537915 0.529372 0.496119 0.41258 0.347541 0.307628 0.294112 0.285801 0.279492 0.273007 0.267015 0.260606 0.254517 0.250221 0.245173 0.24009 0.235791 0.23049 0.226313 0.22299 0.218135 0.214263 0.210393 0.204966 0.20081 0.197291 0.192356 0.188362 0.184317 0.180797 0.176368 0.172839 0.166362 0.162249 0.0 0.0 0.149663 0.0 0.0 0.0 0.0 0.0 0.0 0.0 0.0 0.0 0.0 0.0 0.0 0.0 0.0 0.0 0.0 0.0 0.0 0.0 0.0 0.0 0.0 0.0 0.0 0.0 0.0 0.0 0.0 0.0 0.0 0.0 0.0 0.0 0.0 0.0 0.0 0.0 0.0 0.0 0.0 0.0 0.0 -0.0150826 0.0 0.0 0.0 0.0 0.0 0.0 0.0 0.0 0.0 0.0 0.0 0.0 0.0 0.0 0.0 0.0 0.0 0.0 0.0 0.0 0.0 0.0 0.0 0.0 0.0 -0.115229 -0.118102 -0.121383 -0.125725 -0.129017 -0.132882 -0.136709 -0.140721 -0.144933 -0.148978 -0.15289 -0.156505 -0.161304 -0.164402 -0.169261 -0.17228 -0.176801 -0.181182 -0.185768 -0.190876 -0.195047 -0.200754 -0.205246 -0.209698 -0.215318 -0.219979 -0.226487 -0.232098 -0.240962 -0.249784 -0.266519 -0.291961 -0.297058 -0.368099 -0.446791 -0.454362 -0.46188 -0.470018 -0.478891 -0.487224 -0.493037 -0.502786 -0.510527 -0.519043 -0.527237 -0.535189 -0.54308 -0.554846 -0.561065 -0.570713 -0.57171 -0.452849 -0.403059 -0.405935 -0.409741 -0.414955 -0.417623 -0.425776
0.65945 0.646574 0.638214 0.627461 0.620077 0.611202 0.601956 0.590997 0.583347 0.573585 0.565709 0.557666 0.545861 0.537464 0.526562 0.504885 0.435942 0.39392 0.347403 0.302514 0.287946 0.280413 0.272742 0.266177 0.260183 0.25553 0.2502 0.244536 0.239689 0.235026 0.23061 0.225644 0.222263 0.216663 0.212683 0.209107 0.204418 0.2004 0.195891 0.192387 0.187675 0.183644 0.179795 0.175778 0.171443 0.167558 0.163573 0.156087 0.0 0.149197 0.0 0.0 0.0 0.0 0.0 0.129326 0.0 0.0 0.0 0.0 0.0 0.0 0.0 0.0 0.0 0.0 0.0 0.0 0.0 0.0 0.0 0.0 0.0 0.0 0.0547764 0.0 0.0 0.0 0.0 0.0 0.0 0.0 0.0 0.0 0.0 0.0117838 0.0 0.0 0.0 0.0 0.0 0.0 0.0 0.0 0.0 0.0 0.0 0.0 0.0 -0.0414716 0.0 0.0 0.0 0.0 0.0 0.0 0.0 0.0 0.0 0.0 0.0 0.0 0.0 0.0 0.0 0.0 0.0 -0.109886 -0.113767 -0.117237 -0.121393 -0.124359 -0.129029 -0.132766 -0.136722 -0.140735 -0.144575 -0.148611 -0.152266 -0.156068 -0.160028 -0.163892 -0.168251 -0.17236 -0.177225 -0.181092 -0.186333 -0.190481 -0.195079 -0.200091 -0.205347 -0.209803 -0.215494 -0.219885 -0.227303 -0.235565 -0.245512 -0.25959 -0.285155 -0.289746 -0.338633 -0.439647 -0.446794 -0.451174 -0.461471 -0.46842 -0.477957 -0.485579 -0.495093 -0.500553 -0.50881 -0.519066 -0.527263 -0.535312 -0.542333 -0.550447 -0.557802 -0.56548 -0.555402 -0.421226 -0.403303 -0.405432 -0.412597 -0.41664 -0.419552 -0.424567
0.658719 0.648004 0.634587 0.625317 0.61709 0.609973 0.597773 0.588961 0.581853 0.57333 0.562348 0.554055 0.546098 0.537599 0.530003 0.516933 0.462553 0.400213 0.373341 0.346873 0.297865 0.283463 0.274904 0.266329 0.261948 0.255515 0.250184 0.244979 0.240274 0.234857 0.230808 0.225122 0.221048 0.215537 0.211578 0.207095 0.204133 0.200311 0.195553 0.191323 0.18717 0.183032 0.179767 0.175583 0.171087 0.166837 0.163336 0.155396 0.0 0.0 0.0 0.0 0.0 0.0 0.0 0.0 0.0 0.121847 0.0 0.0 0.0 0.0 0.0 0.0 0.0 0.0 0.0 0.0 0.0 0.0 0.0 0.0 0.0 0.0 0.0 0.0 0.0 0.0 0.0 0.0 0.0 0.0 0.0 0.0 0.0 0.0 0.0 0.0 0.0 0.0 0.0 0.0 0.0 0.0 0.0 0.0 0.0 0.0 0.0 0.0 0.0 0.0 0.0 0.0 0.0 0.0 0.0 0.0 0.0 0.0 0.0 0.0 0.0 0.0 0.0 0.0 -0.105576 -0.109185 -0.112931 -0.117286 -0.120541 -0.124412 -0.128542 -0.13248 -0.136473 -0.139978 -0.143938 -0.147765 -0.15204 -0.155989 -0.159636 -0.163916 -0.167351 -0.172832 -0.177026 -0.181356 -0.186425 -0.191063 -0.194743 -0.199242 -0.205194 -0.210439 -0.215607 -0.222746 -0.229801 -0.238684 -0.25174 -0.277909 -0.282904 -0.321293 -0.426059 -0.437359 -0.443905 -0.449793 -0.458738 -0.468691 -0.476344 -0.48333 -0.492901 -0.501121 -0.508657 -0.51529 -0.52428 -0.532383 -0.541305 -0.548715 -0.558146 -0.56441 -0.515837 -0.410328 -0.406728 -0.409438 -0.413943 -0.420207 -0.424394 -0.42755
0.653285 0.645476 0.637353 0.625944 0.6152 0.60671 0.598583 0.589549 0.578924 0.569931 0.561904 0.553615 0.543225 0.535247 0.5274 0.517534 0.483418 0.413397 0.382122 0.367784 0.344841 0.294849 0.279081 0.270352 0.262182 0.255823 0.250407 0.244889 0.23958 0.235435 0.229844 0.225461 0.220959 0.215793 0.211963 0.207339 0.203007 0.199015 0.195406 0.191239 0.186309 0.182364 0.178427 0.175055 0.171117 0.166812 0.163259 0.158219 0.150163 0.0 0.0 0.142283 0.0 0.0 0.0 0.0 0.0 0.0 0.117304 0.0 0.0 0.0 0.0 0.0 0.0 0.0 0.0 0.0 0.0 0.0 0.0 0.0 0.0 0.0 0.0 0.0 0.0 0.0 0.0 0.0 0.0 0.0 0.0 0.0 0.0 0.0 0.0 0.0 0.0 0.0 0.0 0.0 0.0 0.0 0.0 0.0 0.0 0.0 0.0 0.0 0.0 0.0 0.0 0.0 0.0 0.0 0.0 0.0 0.0 0.0 0.0 0.0 0.0 0.0 -0.0987484 -0.100973 -0.105415 -0.108734 -0.112612 -0.116386 -0.120319 -0.12394 -0.128224 -0.13142 -0.135693 -0.139404 -0.143396 -0.147642 -0.151816 -0.155709 -0.158831 -0.163837 -0.167978 -0.172417 -0.177229 -0.18139 -0.185567 -0.191223 -0.195217 -0.198839 -0.205367 -0.210486 -0.215993 -0.224172 -0.233426 -0.245375 -0.269888 -0.279915 -0.30444 -0.409028 -0.430747 -0.436345 -0.441827 -0.449895 -0.457094 -0.464567 -0.473791 -0.483973 -0.490448 -0.49746 -0.505582 -0.515517 -0.522814 -0.531567 -0.540382 -0.54709 -0.557001 -0.55858 -0.458839 -0.405164 -0.407097 -0.412385 -0.416386 -0.419598 -0.425228 -0.430093
0.658901 0.641026 0.633297 0.623709 0.615284 0.6069 0.598557 0.589835 0.581062 0.571732 0.560967 0.554076 0.543481 0.534632 0.527171 0.515067 0.495953 0.441726 0.3911 0.371175 0.365272 0.339584 0.29038 0.274632 0.264527 0.258047 0.250791 0.245727 0.241233 0.235721 0.229759 0.225519 0.220101 0.215777 0.211541 0.206525 0.202859 0.198614 0.194325 0.190485 0.186049 0.182461 0.178463 0.174586 0.170165 0.166522 0.16235 0.1584 0.152719 0.146216 0.144944 0.141801 0.0 0.0 0.131872 0.127948 0.124029 0.0 0.116578 0.113487 0.0 0.0 0.0 0.0 0.0 0.0 0.0 0.0 0.0 0.0 0.0 0.0 0.0 0.0 0.0 0.0 0.0 0.0 0.0 0.0 0.0 0.0 0.0 0.0 0.0 0.0 0.0 0.0 0.0 0.0 0.0 0.0 0.0 0.0 0.0 0.0 0.0 0.0 0.0 0.0 0.0 0.0 0.0 0.0 0.0 0.0 0.0 0.0 0.0 0.0 0.0 0.0 0.0 -0.0938753 -0.0974851 -0.101216 -0.104637 -0.108819 -0.112368 -0.116287 -0.119981 -0.123714 -0.12774 -0.13187 -0.135092 -0.139107 -0.14295 -0.146703 -0.151101 -0.155027 -0.158807 -0.163069 -0.167628 -0.171558 -0.176295 -0.181485 -0.185666 -0.191142 -0.196007 -0.200344 -0.206517 -0.211462 -0.218068 -0.226703 -0.23937 -0.26292 -0.271716 -0.290879 -0.39047 -0.421686 -0.425624 -0.432245 -0.441288 -0.451563 -0.458959 -0.46655 -0.474172 -0.479289 -0.489069 -0.497324 -0.505538 -0.511846 -0.521262 -0.531049 -0.538691 -0.546559 -0.55236 -0.54666 -0.423712 -0.406164 -0.407367 -0.41309 -0.418514 -0.421644 -0.42719 -0.430608
0.656594 0.641242 0.635977 0.624028 0.613741 0.607101 0.594291 0.590238 0.578151 0.569674 0.562351 0.551775 0.543846 0.533642 0.525152 0.516901 0.50373 0.466385 0.401881 0.374664 0.367236 0.361411 0.339619 0.287405 0.268014 0.258207 0.252434 0.246493 0.240094 0.234378 0.229167 0.224221 0.219809 0.215144 0.21119 0.206246 0.201282 0.197706 0.194746 0.189123 0.185433 0.181154 0.177871 0.173839 0.169379 0.166342 0.0 0.158023 0.153841 0.147984 0.0 0.0 0.136818 0.0 0.0 0.0 0.0 0.120019 0.0 0.0 0.0 0.0 0.0 0.0 0.0 0.0 0.0 0.0 0.0 0.0 0.0 0.0 0.0 0.0 0.0 0.0 0.0 0.0 0.0 0.0 0.0 0.0 0.0 0.0 0.0 0.0 0.0 0.0 0.0 0.0 0.0 0.0 0.0 0.0 0.0 0.0 0.0 0.0 -0.0375273 0.0 0.0 0.0 0.0 0.0 0.0 0.0 -0.068183 -0.0714275 0.0 0.0 0.0 0.0 -0.0895599 -0.0931517 -0.0970193 -0.100766 -0.104308 -0.108086 -0.111758 -0.115351 -0.119487 -0.123733 -0.127341 -0.131288 -0.135115 -0.138172 -0.142975 -0.147404 -0.150882 -0.154397 -0.158942 -0.163101 -0.167772 -0.171929 -0.176447 -0.181351 -0.186483 -0.190456 -0.195806 -0.200457 -0.206505 -0.212113 -0.221498 -0.232472 -0.254012 -0.264646 -0.280383 -0.374032 -0.412936 -0.417573 -0.424248 -0.429418 -0.439223 -0.447908 -0.454745 -0.463625 -0.472322 -0.479336 -0.487075 -0.494578 -0.505687 -0.509577 -0.51726 -0.52747 -0.536619 -0.544162 -0.551531 -0.506483 -0.412767 -0.405814 -0.409977 -0.415414 -0.416733 -0.424583 -0.428715 -0.433059
0.65153 0.637603 0.6325 0.621259 0.616142 0.602678 0.594603 0.586143 0.577728 0.569154 0.557212 0.550274 0.541681 0.530544 0.523045 0.514824 0.507109 0.482836 0.417237 0.383878 0.367652 0.363181 0.357433 0.335222 0.283424 0.263713 0.254083 0.246726 0.240396 0.233335 0.229892 0.224717 0.21945 0.214998 0.210978 0.205837 0.201922 0.198013 0.193484 0.188374 0.184579 0.181256 0.177283 0.173206 0.169856 0.165256 0.161896 0.157547 0.154072 0.149079 0.144008 0.139696 0.0 0.0 0.0 0.127093 0.0 0.0 0.0 0.0 0.0 0.105009 0.0 0.0 0.0 0.0 0.0 0.0 0.0 0.0 0.0 0.0 0.0 0.0 0.0 0.0 0.0 0.0 0.0 0.0 0.0 0.0 0.0 0.0 0.0 0.0 0.0 0.0 0.0 0.0 0.0 0.0 0.0 0.0 -0.0224024 0.0 0.0 0.0 0.0 0.0 -0.045315 0.0 0.0 0.0 0.0 0.0 0.0 0.0 0.0 0.0 0.0 -0.0851794 -0.0888957 -0.0924291 -0.0965549 -0.100549 -0.104323 -0.107782 -0.111185 -0.115636 -0.119113 -0.123104 -0.126735 -0.130578 -0.135051 -0.138289 -0.142721 -0.146036 -0.150368 -0.154429 -0.158976 -0.163243 -0.16781 -0.172527 -0.176261 -0.181511 -0.186291 -0.190444 -0.196043 -0.201528 -0.207729 -0.214554 -0.225948 -0.247056 -0.263209 -0.268165 -0.353878 -0.404115 -0.408143 -0.415074 -0.422487 -0.43152 -0.437164 -0.446557 -0.454791 -0.461554 -0.46772 -0.477816 -0.485265 -0.490663 -0.502358 -0.510017 -0.517425 -0.524953 -0.532411 -0.540191 -0.547603 -0.456804 -0.410684 -0.407772 -0.411856 -0.414955 -0.421387 -0.426319 -0.432041 -0.435975
0.652927 0.641482 0.630041 0.621489 0.611013 0.601929 0.594182 0.585832 0.574211 0.565175 0.557008 0.549576 0.538254 0.534098 0.523414 0.514717 0.504423 0.491155 0.446557 0.392409 0.369375 0.364876 0.358847 0.35433 0.334463 0.279039 0.259503 0.24943 0.240855 0.235493 0.230697 0.224357 0.218955 0.214787 0.210973 0.206495 0.202175 0.197621 0.193475 0.18867 0.184628 0.181186 0.176697 0.17325 0.168802 0.16476 0.160836 0.156819 0.153062 0.14887 0.145124 0.140046 0.136425 0.0 0.0 0.126545 0.123143 0.0 0.0 0.111965 0.108458 0.0 0.0 0.0 0.0 0.0 0.0 0.0 0.0 0.0 0.0 0.0 0.0 0.0 0.0 0.0 0.0 0.0 0.0 0.0 0.0 0.0 0.0 0.0 0.0 0.0 0.0 0.0 0.0 0.0 0.0 0.0 0.0 0.0 0.0 0.0 0.0 0.0 0.0 -0.0413462 0.0 0.0 0.0 0.0 0.0 0.0 0.0 0.0 0.0 -0.0777863 -0.0813951 -0.0851922 -0.0884384 -0.0926581 -0.0958682 -0.1003 -0.103722 -0.107444 -0.111426 -0.114932 -0.118781 -0.122964 -0.126299 -0.130474 -0.134456 -0.137952 -0.142235 -0.145537 -0.150055 -0.154515 -0.159064 -0.163975 -0.167523 -0.172123 -0.176648 -0.180799 -0.185624 -0.191533 -0.196223 -0.202476 -0.209023 -0.219187 -0.237295 -0.25829 -0.262041 -0.330577 -0.396101 -0.399705 -0.406823 -0.413655 -0.420577 -0.42958 -0.436404 -0.44439 -0.452174 -0.460593 -0.467176 -0.475513 -0.481682 -0.492994 -0.497933 -0.508696 -0.518168 -0.525228 -0.532496 -0.540674 -0.533447 -0.424363 -0.405716 -0.409846 -0.416187 -0.419881 -0.42311 -0.427403 -0.43258 -0.436406
0.65007 0.64162 0.631748 0.615077 0.614096 0.603349 0.59111 0.58091 0.574222 0.565388 0.553692 0.546008 0.537962 0.530052 0.519423 0.512281 0.505431 0.493594 0.467435 0.402807 0.376565 0.363853 0.36002 0.356143 0.359202 0.346184 0.280783 0.255227 0.243592 0.238254 0.230849 0.224934 0.219238 0.215132 0.210768 0.205096 0.201194 0.196914 0.191842 0.187866 0.18348 0.180297 0.176975 0.172623 0.168846 0.164267 0.160982 0.156398 0.15315 0.149051 0.145206 0.140997 0.135293 0.131567 0.0 0.0 0.0 0.118436 0.0 0.111412 0.0 0.0 0.0 0.0 0.0 0.0 0.0 0.0 0.0 0.0 0.0 0.0 0.0 0.0 0.0 0.0 0.0 0.0 0.0 0.0 0.0 0.0 0.0 0.0 0.0 0.0 0.0 0.0 0.0 0.0 0.0 0.0 0.0 -0.0183684 0.0 0.0 0.0 0.0 0.0 0.0 0.0 0.0 0.0 0.0 0.0 0.0 0.0 0.0 -0.0736411 -0.0772843 -0.0807883 -0.0847552 -0.0884239 -0.0921833 -0.0959809 -0.0999533 -0.103706 -0.107357 -0.110857 -0.114497 -0.11841 -0.122908 -0.126073 -0.129595 -0.133997 -0.137846 -0.142361 -0.146053 -0.15014 -0.154045 -0.158428 -0.16311 -0.167512 -0.172337 -0.176754 -0.182019 -0.186633 -0.190673 -0.197466 -0.204765 -0.212791 -0.226877 -0.25582 -0.257286 -0.304954 -0.387069 -0.391045 -0.398857 -0.405735 -0.413549 -0.419923 -0.427566 -0.434439 -0.444779 -0.447973 -0.457686 -0.467072 -0.472779 -0.481845 -0.490902 -0.497923 -0.506544 -0.511061 -0.525514 -0.530251 -0.538398 -0.493377 -0.413881 -0.409941 -0.41214 -0.415753 -0.421701 -0.425063 -0.430377 -0.434697 -0.437641
0.654264 0.639263 0.628634 0.618546 0.608543 0.597544 0.588045 0.583244 0.57217 0.558253 0.553606 0.544234 0.531904 0.52794 0.519145 0.51238 0.503036 0.493593 0.477259 0.427584 0.383512 0.366333 0.359522 0.353341 0.357101 0.40688 0.352263 0.277317 0.250962 0.23946 0.232761 0.22566 0.219596 0.215206 0.211043 0.205097 0.201129 0.196721 0.192778 0.18774 0.183956 0.179587 0.175475 0.171717 0.167686 0.164205 0.0 0.156542 0.15314 0.149235 0.0 0.141308 0.136309 0.130989 0.0 0.0 0.0 0.0 0.0 0.0 0.0 0.0 0.0997738 0.0 0.0 0.0 0.0 0.0 0.0 0.0 0.0 0.0 0.0 0.0 0.0 0.0 0.0 0.0 0.0 0.0 0.0 0.0 0.0 0.0 0.0 0.0 0.0 0.0 0.0 0.0 0.0 0.0 0.0 0.0 0.0 0.0 0.0 0.0 0.0 0.0 0.0 0.0 0.0 0.0 0.0 0.0 -0.0665725 -0.0696099 -0.0733845 -0.0770664 -0.0809108 -0.0846861 -0.0881753 -0.0917096 -0.0955523 -0.099243 -0.102798 -0.106451 -0.110806 -0.114636 -0.117805 -0.122 -0.126773 -0.129625 -0.13345 -0.137239 -0.141738 -0.145607 -0.150526 -0.154746 -0.158626 -0.163049 -0.167286 -0.172386 -0.176806 -0.181723 -0.18681 -0.192076 -0.198527 -0.206871 -0.220921 -0.2487 -0.252406 -0.284263 -0.374687 -0.383251 -0.389269 -0.395567 -0.403445 -0.411144 -0.419746 -0.427149 -0.432398 -0.441802 -0.449046 -0.458015 -0.463608 -0.47242 -0.483089 -0.4909 -0.497094 -0.505986 -0.510872 -0.522636 -0.529868 -0.532663 -0.448535 -0.408997 -0.411699 -0.412034 -0.418833 -0.423424 -0.428446 -0.431924 -0.436488 -0.441728
0.649809 0.635774 0.624513 0.617143 0.608473 0.597256 0.587972 0.576968 0.571683 0.561653 0.553733 0.542866 0.535352 0.522745 0.517449 0.510334 0.498156 0.490511 0.478423 0.448439 0.39603 0.370275 0.360626 0.355996 0.354516 0.38248 0.411989 0.355195 0.276254 0.246709 0.235193 0.228404 0.221087 0.214384 0.210032 0.20437 0.201067 0.196788 0.193031 0.187801 0.183474 0.179291 0.175415 0.171039 0.167517 0.163234 0.160183 0.155821 0.151988 0.148111 0.144856 0.140288 0.137195 0.131805 0.127269 0.0 0.0 0.0 0.0 0.0 0.107105 0.102954 0.0 0.0 0.0918798 0.0880401 0.0 0.0 0.0 0.0 0.0 0.0 0.0 0.0 0.0 0.0 0.0 0.0 0.0 0.0 0.0 0.0 0.0 0.0 0.0 0.0 0.0 0.0 0.0 0.0 0.0 0.0 0.0 0.0 0.0 0.0 0.0 0.0 0.0 0.0 0.0 0.0 0.0 0.0 0.0 -0.0622481 -0.0656594 -0.0696464 -0.0729818 -0.0769012 -0.080576 -0.0842798 -0.0876628 -0.0918823 -0.0953488 -0.0990319 -0.102682 -0.106618 -0.109945 -0.113669 -0.11803 -0.121785 -0.125965 -0.129657 -0.133529 -0.13732 -0.141823 -0.146081 -0.150022 -0.154434 -0.158151 -0.162883 -0.1675 -0.1716 -0.176918 -0.181781 -0.187768 -0.194768 -0.201716 -0.213507 -0.24272 -0.24774 -0.271719 -0.36445 -0.376982 -0.381511 -0.389614 -0.394582 -0.403353 -0.409898 -0.41762 -0.425546 -0.431335 -0.440395 -0.447534 -0.455885 -0.463952 -0.471367 -0.480953 -0.486466 -0.496274 -0.502726 -0.510504 -0.519571 -0.525782 -0.517215 -0.423442 -0.407785 -0.413572 -0.414349 -0.420118 -0.424942 -0.429329 -0.436252 -0.438852 -0.442303
0.646285 0.633889 0.626368 0.613638 0.605123 0.593408 0.587803 0.57564 0.568299 0.559235 0.551146 0.541605 0.531461 0.52509 0.516427 0.506981 0.499006 0.490254 0.483272 0.461221 0.411266 0.37799 0.361487 0.356263 0.348355 0.354373 0.403881 0.404755 0.356256 0.276723 0.241369 0.231157 0.221809 0.215713 0.21147 0.205445 0.200291 0.19673 0.191406 0.187682 0.182755 0.178763 0.174897 0.170588 0.167131 0.163715 0.159342 0.0 0.152033 0.148058 0.143905 0.140374 0.136249 0.132581 0.127134 0.123429 0.0 0.0 0.0 0.0 0.0 0.102611 0.0 0.0950024 0.0 0.0 0.0 0.0 0.0 0.0 0.0 0.0 0.0 0.0 0.0 0.0 0.0 0.0 0.0 0.0 0.0 0.0 0.0 0.0 0.0 0.0 0.0 0.00413047 0.0 0.0 -0.00704813 0.0 0.0 0.0 0.0 0.0 0.0 0.0 0.0 0.0 0.0 0.0 0.0 0.0 -0.0583295 -0.062011 -0.0656728 -0.0690786 -0.0730953 -0.0768403 -0.0803233 -0.0840158 -0.0880067 -0.0911962 -0.0951788 -0.0992212 -0.102741 -0.106143 -0.110489 -0.11385 -0.117428 -0.121776 -0.125074 -0.128827 -0.133387 -0.137541 -0.141864 -0.145785 -0.150563 -0.154633 -0.159034 -0.162827 -0.167718 -0.171712 -0.176977 -0.183014 -0.189271 -0.195817 -0.208348 -0.23482 -0.242431 -0.261187 -0.349143 -0.36788 -0.372678 -0.37949 -0.385806 -0.394199 -0.402663 -0.409505 -0.417145 -0.423949 -0.430036 -0.438748 -0.448039 -0.454954 -0.462835 -0.470234 -0.478555 -0.485755 -0.493437 -0.502839 -0.511569 -0.51815 -0.525709 -0.485881 -0.413514 -0.409437 -0.412246 -0.419615 -0.423329 -0.42755 -0.431206 -0.436825 -0.440779 -0.445961
0.646702 0.630185 0.625419 0.614033 0.603426 0.590972 0.582091 0.575902 0.562946 0.557643 0.547252 0.538561 0.533756 0.522323 0.515985 0.504571 0.498757 0.488368 0.478186 0.467057 0.432355 0.385382 0.361936 0.354552 0.348053 0.344879 0.355484 0.398255 0.398011 0.356873 0.273802 0.239172 0.225574 0.218988 0.211758 0.206258 0.20063 0.196548 0.191791 0.187443 0.182881 0.178885 0.175073 0.171153 0.166473 0.162749 0.158607 0.15464 0.150785 0.0 0.0 0.140278 0.136334 0.132097 0.0 0.122521 0.118724 0.1169 0.0 0.0 0.106188 0.0 0.0 0.0 0.0 0.087769 0.0 0.0 0.0 0.0 0.0 0.0 0.0 0.0 0.0 0.0 0.0 0.0 0.0 0.0 0.0 0.0 0.0 0.0 0.0 0.0 0.0 0.0 0.0 0.0 0.0 0.0 0.0 0.0 0.0 0.0 0.0 0.0 0.0 0.0 0.0 0.0 0.0 -0.0544234 -0.0581463 -0.061504 -0.0652241 -0.0689776 -0.0727684 -0.0767808 -0.0800179 -0.0834705 -0.0874378 -0.0911877 -0.0951065 -0.0986479 -0.102216 -0.105885 -0.109927 -0.113843 -0.117105 -0.121402 -0.125152 -0.129167 -0.133427 -0.137399 -0.141436 -0.146266 -0.150114 -0.15453 -0.158408 -0.162775 -0.16783 -0.17306 -0.176982 -0.185073 -0.191437 -0.202072 -0.22543 -0.237091 -0.250807 -0.334372 -0.3582 -0.365039 -0.371964 -0.377044 -0.385726 -0.392633 -0.402586 -0.408889 -0.415187 -0.423235 -0.430284 -0.439087 -0.444865 -0.453434 -0.460253 -0.468052 -0.474911 -0.486776 -0.493739 -0.498375 -0.508846 -0.516736 -0.518112 -0.441004 -0.407606 -0.412121 -0.414448 -0.419749 -0.423677 -0.427686 -0.433751 -0.439626 -0.441592 -0.448494
