0.612596 0.609383 0.617457 0.588177 0.58045 0.56676 0.467376 0.369182 0.350007 0.373807 0.49293 0.531921 0.523321 0.506937 0.501402 0.491014 0.487149 0.47411 0.47618 0.465325 0.452545 0.445806 0.43675 0.431387 0.424866 0.415894 0.411608 0.401587 0.386878 0.3888 0.379833 0.37424 0.368621 0.354667 0.339182 0.327688 0.320291 0.319235 0.320281 0.306048 0.299009 0.289852 0.279517 0.273782 0.271036 0.260898 0.255062 0.24364 0.218342 0.202567 0.192874 0.188406 0.182976 0.17813 0.173903 0.167798 0.161835 0.15723 0.152747 0.145763 0.141879 0.135689 0.128945 0.118367 0.109632 0.104007 0.0978822 0.0932499 0.0889089 0.0839063 0.0800069 0.0748817 0.0705099 0.066415 0.0622831 0.0578256 0.0533008 0.0491342 0.0447769 0.0407289 0.0362302 0.0317115 0.02737 0.0229379 0.0183743 0.0139415 0.00949018 0.00495618 0.000452141 -0.00408805 -0.00860026 -0.0132511 -0.0178782 -0.0224873 -0.0270708 -0.0319395 -0.036745 -0.041476 -0.0460802 -0.0514599 -0.0562167 -0.0610434 -0.0666688 -0.0721504 -0.0786201 -0.0833312 -0.0883004 -0.0939461 -0.098231 -0.102448 -0.107214 -0.109556 -0.108013 -0.109938 -0.112607 -0.116165 -0.119529 -0.123748 -0.127597 -0.131609 -0.1369 -0.140923 -0.144725 -0.148843 -0.152866 -0.157242 -0.161628 -0.167318 -0.171806 -0.179385 -0.183873 -0.189906 -0.19396 -0.200776 -0.205492 -0.209931 -0.215383 -0.220882 -0.22234 -0.228164 -0.233663 -0.238615 -0.248221 -0.254951 -0.261141 -0.269384 -0.273643 -0.277669 -0.284301 -0.290932 -0.297868 -0.301964 -0.308131 -0.316883 -0.320211 -0.327209 -0.333511 -0.346399 -0.358661 -0.364779 -0.370298 -0.375746 -0.386756 -0.403674 -0.416396 -0.420995 -0.428268 -0.432571 -0.437671 -0.44464 -0.449449 -0.46087 -0.4677 -0.472599 -0.478491 -0.494881
0.64226 0.606027 0.595973 0.583593 0.567465 0.492295 0.359966 0.336296 0.329395 0.335947 0.423888 0.521327 0.51385 0.50765 0.497111 0.493101 0.474666 0.473167 0.459109 0.456466 0.443055 0.441797 0.435887 0.430293 0.419281 0.414603 0.404577 0.391694 0.390848 0.387083 0.382213 0.373086 0.370707 0.352669 0.347664 0.335349 0.322301 0.31892 0.310458 0.304165 0.297107 0.287235 0.283463 0.271729 0.264669 0.255533 0.229505 0.214498 0.205557 0.1984 0.193277 0.187794 0.182159 0.177769 0.171372 0.166848 0.161822 0.156531 0.151627 0.145503 0.138836 0.128435 0.116265 0.110301 0.105907 0.100693 0.0976097 0.0931193 0.0881448 0.0838353 0.0792752 0.0754672 0.0703127 0.0661378 0.0620415 0.0577775 0.0532713 0.0487136 0.0447153 0.0402841 0.0361709 0.0315901 0.0272135 0.0228383 0.0183844 0.0138734 0.00944402 0.00494141 0.000452386 -0.00408696 -0.00864438 -0.0132829 -0.0178591 -0.0226489 -0.0272077 -0.0320658 -0.036735 -0.0415517 -0.0464669 -0.0516056 -0.0566377 -0.0617204 -0.0675851 -0.073333 -0.0778394 -0.0833075 -0.0876837 -0.0932251 -0.0975203 -0.0999099 -0.103696 -0.104558 -0.105843 -0.108043 -0.111811 -0.114711 -0.117507 -0.121865 -0.1273 -0.131036 -0.133642 -0.139826 -0.144302 -0.148364 -0.15202 -0.157007 -0.164327 -0.169944 -0.173566 -0.178616 -0.184221 -0.189573 -0.195354 -0.200092 -0.206153 -0.210433 -0.215598 -0.220857 -0.223615 -0.225105 -0.234022 -0.240427 -0.248858 -0.256146 -0.262288 -0.271047 -0.275335 -0.278435 -0.285529 -0.291645 -0.297816 -0.304278 -0.310322 -0.317231 -0.320814 -0.327903 -0.337385 -0.354769 -0.36592 -0.36811 -0.374682 -0.382786 -0.395872 -0.404052 -0.412906 -0.420692 -0.425271 -0.43145 -0.436738 -0.442135 -0.448277 -0.454662 -0.463679 -0.467317 -0.478139 -0.494744
0.613932 0.601556 0.587553 0.578145 0.538886 0.41128 0.34639 0.33395 0.331292 0.329006 0.347235 0.456342 0.490336 0.473773 0.497825 0.488515 0.476919 0.478446 0.454826 0.451813 0.45231 0.442281 0.427462 0.421351 0.422161 0.411894 0.403785 0.395356 0.386403 0.37821 0.375385 0.37251 0.359024 0.350335 0.343019 0.327958 0.327485 0.312266 0.308789 0.300584 0.294318 0.28649 0.271728 0.272079 0.243328 0.219257 0.215866 0.207075 0.202572 0.197275 0.19143 0.186865 0.181123 0.17577 0.171276 0.164152 0.161181 0.155261 0.148811 0.139675 0.125422 0.118627 0.113192 0.110331 0.10508 0.100354 0.0961481 0.0920343 0.0879728 0.0836487 0.0792979 0.0749029 0.07053 0.0663786 0.0619906 0.0577142 0.0530206 0.0488365 0.0447036 0.0401291 0.0358547 0.0315993 0.0272289 0.0227514 0.0183546 0.0139001 0.00947238 0.00497508 0.00045166 -0.00409141 -0.00864217 -0.0133114 -0.0179546 -0.0226431 -0.0272512 -0.0321081 -0.0371695 -0.0417802 -0.0468419 -0.0521383 -0.056841 -0.0626818 -0.067873 -0.0725482 -0.0777018 -0.0826028 -0.0875285 -0.0925751 -0.097055 -0.0982191 -0.102004 -0.104528 -0.106134 -0.107951 -0.111683 -0.113952 -0.11624 -0.120411 -0.125207 -0.128834 -0.133052 -0.14047 -0.144632 -0.149733 -0.153958 -0.159318 -0.163713 -0.168738 -0.173557 -0.179261 -0.184158 -0.189401 -0.194743 -0.200576 -0.205796 -0.210821 -0.216172 -0.223079 -0.226812 -0.230011 -0.231483 -0.241058 -0.247018 -0.257482 -0.264135 -0.272713 -0.277103 -0.280456 -0.285187 -0.294116 -0.300716 -0.303992 -0.312196 -0.317258 -0.323992 -0.333491 -0.342204 -0.359483 -0.36611 -0.370906 -0.377428 -0.386405 -0.397099 -0.403866 -0.410587 -0.41716 -0.424773 -0.428117 -0.432436 -0.439745 -0.448274 -0.453377 -0.460643 -0.466324 -0.479352 -0.491464
0.611587 0.613234 0.590508 0.578975 0.528989 0.375585 0.341168 0.331925 0.329089 0.326125 0.32533 0.344119 0.37641 0.468882 0.492428 0.490342 0.481097 0.456374 0.443733 0.463136 0.438552 0.432207 0.429613 0.41905 0.419253 0.406821 0.406657 0.393134 0.387227 0.375183 0.371179 0.357914 0.360006 0.346774 0.342892 0.330807 0.308992 0.310505 0.310729 0.299443 0.29088 0.274036 0.254249 0.237543 0.226689 0.216311 0.2119 0.206298 0.201617 0.196442 0.189963 0.185484 0.179336 0.174206 0.169926 0.16325 0.155418 0.143076 0.131483 0.125751 0.121045 0.117498 0.112969 0.109009 0.105081 0.10027 0.0962847 0.0916225 0.0874086 0.0832063 0.0794987 0.075009 0.0704529 0.0661402 0.0619577 0.0573794 0.0531552 0.0489329 0.0444087 0.0402525 0.0359646 0.0316523 0.0272595 0.0228081 0.0183602 0.0139081 0.00947265 0.00494029 0.000451917 -0.00407723 -0.00870736 -0.0133188 -0.0180121 -0.0226436 -0.0275039 -0.0324205 -0.0370928 -0.042096 -0.0473988 -0.0524982 -0.0576556 -0.0620985 -0.067669 -0.0725662 -0.0771182 -0.0820236 -0.0871993 -0.0921116 -0.0962747 -0.0985 -0.0999393 -0.10136 -0.103149 -0.106487 -0.109526 -0.113261 -0.117542 -0.120447 -0.125501 -0.131148 -0.135324 -0.139539 -0.144047 -0.148229 -0.153249 -0.158452 -0.163615 -0.168014 -0.173256 -0.178397 -0.18415 -0.19098 -0.194461 -0.200453 -0.205953 -0.210691 -0.217342 -0.222152 -0.227722 -0.228728 -0.233655 -0.238078 -0.246458 -0.257932 -0.268073 -0.273318 -0.27902 -0.282627 -0.287321 -0.296514 -0.301837 -0.30868 -0.313513 -0.319085 -0.329743 -0.336048 -0.350021 -0.359244 -0.366572 -0.374244 -0.382001 -0.386421 -0.395704 -0.403973 -0.408761 -0.415895 -0.422393 -0.427217 -0.431523 -0.435705 -0.441545 -0.449009 -0.45816 -0.466327 -0.481017 -0.490785
0.617825 0.575749 0.584569 0.564332 0.472304 0.366547 0.34397 0.331155 0.326586 0.322747 0.318708 0.315168 0.31627 0.334705 0.365566 0.396597 0.437428 0.44917 0.449574 0.446554 0.43434 0.434822 0.419051 0.415368 0.421744 0.407455 0.405101 0.391838 0.39557 0.378955 0.367853 0.364402 0.359107 0.347335 0.34351 0.330559 0.319556 0.317624 0.300439 0.298978 0.280721 0.246796 0.241002 0.226434 0.221444 0.215499 0.210277 0.205424 0.199876 0.19489 0.189485 0.184288 0.17813 0.173163 0.163258 0.148977 0.13914 0.134565 0.129453 0.125752 0.121357 0.116803 0.113163 0.108366 0.103902 0.100329 0.0959356 0.0917801 0.0876572 0.083279 0.0787044 0.0748652 0.0705145 0.0661058 0.06196 0.0573977 0.0531426 0.0487314 0.0444476 0.0400653 0.0358178 0.0315235 0.027283 0.0228963 0.018406 0.013973 0.0094679 0.00496467 0.000452301 -0.00410376 -0.00868448 -0.0133441 -0.0180508 -0.0227939 -0.0275552 -0.0326067 -0.0377016 -0.0425427 -0.047835 -0.0522062 -0.0574674 -0.0622098 -0.0669734 -0.0718567 -0.0766913 -0.081549 -0.0864555 -0.0905632 -0.0939867 -0.0938724 -0.0956794 -0.0982783 -0.102069 -0.104569 -0.108291 -0.112505 -0.116724 -0.120946 -0.125943 -0.130239 -0.134543 -0.139581 -0.143922 -0.148015 -0.153249 -0.158269 -0.163613 -0.16873 -0.173596 -0.178493 -0.183731 -0.188803 -0.194887 -0.200555 -0.206113 -0.21155 -0.21727 -0.223652 -0.22783 -0.22947 -0.233252 -0.23714 -0.246773 -0.259001 -0.268394 -0.272651 -0.280939 -0.282595 -0.289084 -0.299449 -0.303426 -0.30864 -0.316598 -0.325317 -0.331767 -0.33945 -0.352875 -0.358924 -0.365539 -0.370324 -0.380112 -0.38589 -0.392348 -0.399517 -0.407427 -0.406992 -0.419526 -0.425116 -0.428369 -0.43541 -0.440826 -0.447105 -0.454607 -0.46831 -0.478915 -0.486067
0.617788 0.594325 0.581094 0.572654 0.472536 0.375367 0.348779 0.333719 0.327475 0.321602 0.317281 0.312778 0.308296 0.305074 0.304657 0.325453 0.355098 0.43299 0.436649 0.444986 0.437605 0.431025 0.417646 0.427884 0.402208 0.400109 0.401765 0.379547 0.383789 0.371959 0.36939 0.367833 0.354583 0.336456 0.332165 0.325898 0.316476 0.31093 0.29432 0.262343 0.249266 0.2367 0.232438 0.226142 0.220614 0.215647 0.208917 0.205009 0.198831 0.192957 0.187837 0.182867 0.17595 0.160781 0.146587 0.142597 0.138236 0.133194 0.128939 0.125078 0.120706 0.11674 0.112719 0.108032 0.104437 0.100333 0.0958854 0.0918355 0.0872922 0.0830492 0.0789958 0.0748478 0.0704982 0.0663674 0.0618081 0.0575288 0.0530715 0.0488696 0.0446474 0.0403342 0.0359087 0.0316986 0.0272546 0.0228912 0.018482 0.0140116 0.00952479 0.00498104 0.000455864 -0.00412373 -0.00871041 -0.0133978 -0.0180611 -0.0230162 -0.0278732 -0.0328354 -0.0378379 -0.0425658 -0.0472803 -0.0521679 -0.0570185 -0.061723 -0.0664996 -0.0716946 -0.0760907 -0.0808897 -0.0856694 -0.0869368 -0.0874665 -0.0896572 -0.0927893 -0.0958723 -0.0998792 -0.103232 -0.107535 -0.111455 -0.116694 -0.120844 -0.125324 -0.129674 -0.134585 -0.138857 -0.143134 -0.14806 -0.152677 -0.15827 -0.162028 -0.168155 -0.173104 -0.17834 -0.182902 -0.188747 -0.194883 -0.200549 -0.205992 -0.212933 -0.217557 -0.223339 -0.228374 -0.231415 -0.233818 -0.239885 -0.245015 -0.25584 -0.267815 -0.278865 -0.280912 -0.285803 -0.294144 -0.299036 -0.304555 -0.315382 -0.322971 -0.328455 -0.331972 -0.345297 -0.35137 -0.357134 -0.364072 -0.369999 -0.377504 -0.383795 -0.389658 -0.398213 -0.404557 -0.410059 -0.416968 -0.421109 -0.426964 -0.432947 -0.438748 -0.443826 -0.454631 -0.467235 -0.473719 -0.480013
0.606919 0.56355 0.586972 0.553329 0.46953 0.392519 0.357595 0.338574 0.329087 0.321676 0.317355 0.31187 0.306142 0.302761 0.299557 0.297446 0.305232 0.318509 0.344268 0.339563 0.37989 0.428419 0.40329 0.410814 0.414846 0.397676 0.39976 0.382395 0.373749 0.379651 0.363906 0.354552 0.351325 0.334839 0.331184 0.324608 0.312693 0.273903 0.259909 0.248283 0.242645 0.23663 0.229294 0.224294 0.219082 0.213884 0.208806 0.203129 0.197097 0.191557 0.185865 0.177756 0.162107 0.151038 0.146005 0.141545 0.137492 0.13316 0.128797 0.124548 0.120677 0.117011 0.111989 0.108744 0.103941 0.100225 0.0958364 0.0912469 0.0869039 0.0824702 0.0786685 0.0747687 0.0704041 0.0660578 0.0619325 0.0575324 0.0534739 0.0487237 0.044453 0.0403368 0.0361484 0.0317093 0.0273829 0.0229736 0.0184682 0.0140011 0.00951769 0.00499075 0.000457478 -0.00414155 -0.00879208 -0.0134835 -0.018224 -0.0230233 -0.0280762 -0.0328285 -0.0374443 -0.0423505 -0.0471736 -0.0516644 -0.0567593 -0.0616783 -0.0660608 -0.0712786 -0.0760546 -0.0786622 -0.0795685 -0.0823891 -0.0847947 -0.0882311 -0.0916161 -0.0948135 -0.0988615 -0.103025 -0.107446 -0.111626 -0.115879 -0.120885 -0.12511 -0.129642 -0.134003 -0.138377 -0.143264 -0.147807 -0.153298 -0.157729 -0.162497 -0.167965 -0.173498 -0.177333 -0.18285 -0.188746 -0.194826 -0.200214 -0.206272 -0.211537 -0.218795 -0.225389 -0.228984 -0.232479 -0.235161 -0.238956 -0.243061 -0.251388 -0.261884 -0.26871 -0.27656 -0.282399 -0.294343 -0.299237 -0.311574 -0.317635 -0.321735 -0.3285 -0.335496 -0.342479 -0.349275 -0.354309 -0.361731 -0.369681 -0.37536 -0.38254 -0.388008 -0.396157 -0.402469 -0.409311 -0.413823 -0.416407 -0.425874 -0.432774 -0.437836 -0.438747 -0.454015 -0.46234 -0.469311 -0.47757
0.60383 0.581124 0.559291 0.551141 0.533523 0.393756 0.369886 0.347067 0.331114 0.324081 0.317435 0.312932 0.30719 0.301887 0.298225 0.29419 0.289524 0.288388 0.285048 0.288226 0.288098 0.300507 0.312142 0.335434 0.332343 0.383082 0.378263 0.380131 0.376854 0.364046 0.356766 0.346477 0.339699 0.334051 0.32564 0.297753 0.270859 0.260334 0.253381 0.246814 0.239721 0.234118 0.227636 0.223007 0.217934 0.211329 0.205223 0.201456 0.194084 0.186889 0.173214 0.159744 0.153595 0.149621 0.144964 0.140739 0.137223 0.0 0.0 0.124804 0.0 0.116221 0.112187 0.0 0.0 0.0993554 0.0958967 0.0914595 0.0870328 0.0826396 0.0789617 0.074774 0.0704486 0.0660627 0.0618338 0.0575847 0.0531824 0.0491205 0.04474 0.0403732 0.0363192 0.0319023 0.0274445 0.0229816 0.0185646 0.0140135 0.00956195 0.00502064 0.000458121 -0.00415173 -0.00885063 -0.0135622 -0.0184679 -0.0232879 -0.0278547 -0.0325863 -0.0373019 -0.0421248 -0.0467413 -0.0514545 -0.0564282 -0.0612562 -0.0654872 -0.0700447 -0.07163 -0.0736492 -0.0771458 -0.0795074 -0.0828792 -0.0865768 -0.089909 -0.0939805 -0.0989274 -0.102667 -0.107104 -0.111008 -0.115169 -0.120326 -0.124274 -0.129536 -0.133893 -0.138304 -0.143145 -0.147856 -0.152334 -0.15719 -0.163108 -0.16797 -0.173699 -0.178143 -0.183628 -0.18843 -0.194232 -0.200491 -0.206441 -0.213331 -0.217903 -0.225324 -0.230029 -0.231842 -0.231551 -0.230415 -0.234017 -0.237664 -0.242402 -0.246736 -0.25187 -0.259756 -0.273085 -0.295411 -0.309845 -0.316662 -0.321867 -0.327085 -0.333642 -0.341687 -0.347187 -0.352534 -0.360632 -0.366683 -0.371769 -0.37954 -0.385524 -0.39116 -0.397977 -0.405046 -0.411979 -0.41625 -0.421831 -0.429191 -0.433468 -0.446032 -0.452329 -0.459098 -0.467577 -0.47334
0.62003 0.588564 0.596304 0.58657 0.536248 0.439611 0.362487 0.355664 0.34226 0.326388 0.317621 0.312821 0.306985 0.302544 0.296524 0.293626 0.28906 0.284698 0.280795 0.276374 0.276259 0.274341 0.274602 0.27138 0.27175 0.280585 0.294656 0.320163 0.362184 0.363714 0.355283 0.357249 0.33904 0.321559 0.281208 0.270852 0.258896 0.25374 0.248535 0.242494 0.236385 0.231204 0.226096 0.221112 0.215212 0.208513 0.203044 0.196548 0.185598 0.17155 0.163336 0.157882 0.153204 0.14894 0.145056 0.140707 0.136956 0.0 0.0 0.125026 0.0 0.0 0.0 0.0 0.104015 0.100211 0.0959581 0.0913894 0.0866959 0.0829965 0.0784817 0.0747384 0.0704152 0.0662527 0.061994 0.0578296 0.0534382 0.0490976 0.0449288 0.0405988 0.0364211 0.0318011 0.027633 0.0231266 0.0186062 0.0140639 0.00957813 0.00504253 0.000461696 -0.0041817 -0.00888609 -0.0136836 -0.0183217 -0.0230265 -0.0276552 -0.0323529 0.0 -0.0412155 -0.0465392 -0.0509791 -0.0559382 -0.0606146 -0.0642527 -0.0652823 -0.0678877 -0.0713227 -0.074572 -0.0778056 -0.0819141 -0.0854095 -0.0898371 -0.093709 -0.098059 -0.102401 -0.106828 -0.110853 -0.115144 -0.120017 -0.124577 -0.12856 -0.134019 -0.138312 -0.142988 -0.147565 -0.152386 -0.15679 -0.163162 -0.167594 -0.172428 -0.177746 -0.182704 -0.188594 -0.194073 -0.200771 -0.207066 -0.214259 -0.220331 -0.226896 -0.227742 -0.220176 -0.223765 -0.226215 -0.232277 -0.236844 -0.239897 -0.246308 -0.250063 -0.25483 -0.260442 -0.265041 -0.28142 -0.309555 -0.320723 -0.324782 -0.332127 -0.33922 -0.344252 -0.352937 -0.358042 -0.364141 -0.37046 -0.377194 -0.382954 -0.391499 -0.396873 -0.40412 -0.410145 -0.416806 -0.421883 -0.423547 -0.429215 -0.442889 -0.447847 -0.458054 -0.461753 -0.469571
0.620153 0.598148 0.597761 0.57409 0.584401 0.523531 0.396356 0.361874 0.353814 0.337382 0.320101 0.310753 0.306399 0.302443 0.298211 0.293807 0.289331 0.284516 0.279114 0.276548 0.273173 0.273159 0.269953 0.267133 0.263315 0.261311 0.261649 0.26184 0.277634 0.272762 0.289616 0.302147 0.292069 0.281834 0.267833 0.263995 0.257794 0.251964 0.246671 0.241338 0.234541 0.229516 0.222511 0.215716 0.209396 0.19869 0.185003 0.175556 0.170063 0.166798 0.162128 0.15812 0.153391 0.148907 0.144606 0.141001 0.137005 0.0 0.0 0.0 0.0 0.116338 0.112141 0.107999 0.104613 0.100191 0.0957505 0.0913462 0.0873427 0.0830743 0.0785776 0.0745784 0.0706185 0.0663144 0.0622238 0.0579151 0.0536206 0.049414 0.0451057 0.0410469 0.0365432 0.0322459 0.0276728 0.0231662 0.018698 0.0142391 0.00969428 0.00510069 0.000466007 -0.00422159 -0.00885442 -0.0135538 -0.0182472 -0.022897 -0.0281902 -0.0321284 -0.0369511 -0.040991 -0.0461202 -0.0515686 -0.0553182 -0.0586985 -0.0598803 -0.062942 -0.0664968 -0.0705046 -0.0736616 -0.07726 -0.0811691 -0.0855465 -0.0892844 -0.0934668 -0.0980398 -0.102198 -0.106426 -0.111094 -0.11536 -0.120063 -0.124038 -0.128987 -0.134069 -0.138363 -0.143123 -0.148089 -0.152528 -0.157707 -0.162892 -0.167651 -0.173321 -0.178207 -0.183692 -0.189658 -0.194892 -0.200444 -0.208318 -0.2149 -0.220334 -0.225748 -0.214838 -0.217092 -0.221583 -0.227728 -0.232012 -0.237392 -0.243444 -0.245389 -0.249919 -0.25505 -0.25947 -0.262758 -0.268802 -0.279083 -0.312142 -0.324845 -0.331032 -0.337265 -0.341838 -0.350483 -0.356958 -0.363218 -0.368795 -0.374949 -0.381517 -0.388518 -0.394908 -0.402125 -0.40683 -0.412839 -0.413061 -0.421538 -0.433371 -0.44082 -0.448554 -0.454068 -0.458711 -0.464019
0.637727 0.607737 0.605446 0.584528 0.573722 0.55141 0.458722 0.370163 0.348378 0.337273 0.330646 0.314775 0.306786 0.301682 0.299527 0.294549 0.289333 0.284699 0.27903 0.27603 0.274891 0.27097 0.269376 0.264771 0.262919 0.259263 0.25684 0.253069 0.252741 0.246612 0.242005 0.240971 0.241781 0.259039 0.261251 0.258857 0.254501 0.251078 0.243139 0.234965 0.224677 0.214687 0.200781 0.192692 0.187168 0.181759 0.176408 0.173089 0.168644 0.165752 0.16139 0.157676 0.153093 0.149393 0.144493 0.140526 0.137253 0.0 0.0 0.0 0.121263 0.116847 0.11196 0.108747 0.10424 0.0996928 0.0956792 0.0916392 0.0874991 0.0832696 0.0791607 0.075004 0.0708815 0.0665427 0.0624886 0.058321 0.0538773 0.0498527 0.0454925 0.0411067 0.0367841 0.0322493 0.0278319 0.023349 0.0188399 0.01432 0.00979002 0.00509852 0.000466297 -0.00417262 -0.0088275 -0.0134703 -0.0181729 -0.0229351 -0.0271997 -0.0322409 -0.0367041 -0.0412991 -0.0459918 -0.0503365 -0.0532906 -0.0554614 -0.0588013 -0.0621127 -0.0655147 -0.0695637 -0.0728399 -0.0770617 -0.0809845 -0.0849183 -0.0892683 -0.0937578 -0.0974372 -0.102119 -0.106628 -0.110809 -0.11585 -0.120464 -0.124746 -0.128507 -0.134042 -0.138497 -0.143218 -0.148016 -0.152937 -0.157492 -0.162857 -0.167949 -0.173037 -0.178319 -0.18396 -0.190249 -0.194739 -0.201616 -0.207532 -0.214212 -0.220991 -0.223819 -0.212007 -0.216156 -0.220498 -0.224981 -0.230147 -0.240876 0.0 -0.244899 -0.249996 0.0 -0.261042 -0.264053 -0.267257 -0.273181 -0.283968 -0.323613 -0.329695 -0.332964 -0.338577 -0.346214 -0.352445 -0.359528 -0.364775 -0.37225 -0.377748 -0.386401 -0.390638 -0.398086 -0.401541 -0.407172 -0.412826 -0.421712 -0.430606 -0.436846 -0.443878 -0.451952 -0.45867 -0.462069
0.64311 0.593375 0.602593 0.600228 0.57603 0.548361 0.520742 0.404492 0.360856 0.339593 0.332138 0.327526 0.310755 0.303879 0.297937 0.293538 0.291072 0.285066 0.0 0.277605 0.272245 0.27098 0.268721 0.265025 0.261163 0.258168 0.25491 0.252469 0.249677 0.243014 0.23905 0.236436 0.234749 0.230375 0.226282 0.223507 0.219714 0.214771 0.212589 0.207717 0.201807 0.197194 0.192773 0.188645 0.184736 0.180764 0.177045 0.172901 0.168807 0.164084 0.159813 0.156095 0.152221 0.149493 0.145887 0.139972 0.136795 0.131991 0.128515 0.124811 0.120278 0.116693 0.112228 0.108022 0.104369 0.0999863 0.09569 0.0915722 0.0877791 0.0833492 0.0790372 0.0750127 0.0709684 0.0667532 0.0625647 0.0583437 0.0540017 0.0498178 0.0457564 0.0413112 0.0367686 0.0324608 0.0280062 0.0236563 0.019037 0.0143216 0.00971428 0.00509774 0.000462691 -0.00417198 -0.00880531 -0.0133586 -0.0180037 -0.0232124 -0.0272675 -0.0320172 -0.0365346 -0.0411516 -0.0453929 -0.0474565 -0.0504221 -0.0537369 -0.0569431 -0.0614118 -0.0645532 -0.0685415 -0.0727624 -0.0769797 -0.0807279 -0.0850572 -0.0895476 -0.0932379 -0.0975665 -0.101918 -0.106324 -0.110658 -0.115351 -0.120053 -0.124613 -0.129089 -0.133392 -0.138349 -0.143191 -0.148629 -0.153039 -0.158276 -0.162824 -0.168489 -0.173787 -0.178835 -0.184489 -0.189945 -0.195184 -0.202679 -0.209468 -0.216133 -0.222834 -0.223768 -0.211711 -0.215412 -0.218903 -0.223287 -0.227684 -0.238022 -0.242555 -0.247102 0.0 -0.253962 -0.262244 -0.263984 -0.267341 -0.27185 -0.278052 -0.304657 -0.32605 -0.33304 -0.340275 -0.34577 -0.35076 -0.357726 -0.366032 -0.372142 -0.373893 -0.380304 -0.388595 -0.396011 -0.398941 -0.403125 -0.411068 -0.420031 -0.425963 -0.435754 -0.440507 -0.451374 -0.454762 -0.46226
0.628453 0.62693 0.560028 0.565013 0.577051 0.543405 0.522274 0.424703 0.360855 0.346657 0.335425 0.326356 0.31434 0.305509 0.297104 0.292719 0.291084 0.285796 0.282321 0.0 0.273201 0.2731 0.268652 0.264468 0.260936 0.258261 0.253838 0.252026 0.248417 0.242882 0.238415 0.233895 0.229954 0.227517 0.223412 0.219245 0.215987 0.21289 0.208515 0.20391 0.200457 0.195641 0.191767 0.187495 0.184699 0.179454 0.176284 0.172058 0.168626 0.164486 0.160626 0.156932 0.152725 0.148605 0.14515 0.140759 0.135984 0.0 0.128935 0.124647 0.120396 0.11621 0.112624 0.108679 0.104677 0.100563 0.0962149 0.0920992 0.0879128 0.0834296 0.0794008 0.0750221 0.0712721 0.066909 0.0627962 0.0588146 0.05454 0.0501896 0.0458976 0.0414051 0.0372473 0.0327678 0.0279575 0.0234291 0.0188394 0.0142628 0.00963098 0.00504338 0.000459212 -0.00413628 -0.00872299 -0.0133744 -0.0178585 -0.0223608 -0.0272708 -0.031979 -0.0374445 -0.0393548 -0.0420177 -0.0454022 -0.0490066 -0.0526431 -0.0563749 -0.0604025 -0.0640777 -0.0683041 -0.0720083 -0.0762063 -0.080764 -0.0847375 -0.0891053 -0.093279 -0.0972587 -0.101506 -0.106212 -0.110705 -0.114957 -0.119573 -0.124262 -0.129029 -0.133407 -0.137922 -0.143664 -0.148688 -0.153496 -0.157884 -0.162794 -0.168553 -0.173606 -0.179404 -0.18502 -0.19091 -0.195523 -0.203689 -0.210161 -0.21684 -0.222965 -0.222693 -0.211665 -0.213664 -0.218919 -0.223172 -0.227699 -0.229381 -0.240069 -0.246124 -0.250882 -0.255148 -0.26009 -0.260956 -0.265806 -0.269737 -0.275103 -0.28783 -0.325966 -0.331106 -0.337455 -0.34143 -0.348024 -0.355483 -0.362483 -0.368722 -0.375568 -0.380863 -0.387234 -0.391599 -0.397242 -0.401301 -0.411562 -0.418152 -0.424268 -0.430951 -0.436715 -0.443488 -0.449317 -0.459994
0.645816 0.622149 0.60935 0.561464 0.5635 0.546667 0.551566 0.510647 0.38755 0.355539 0.341699 0.334013 0.320054 0.309524 0.301719 0.296618 0.289189 0.286621 0.282162 0.278506 0.275445 0.272865 0.267841 0.263345 0.261276 0.258043 0.253857 0.250901 0.247462 0.242901 0.238001 0.233844 0.230253 0.2274 0.22323 0.219396 0.215104 0.211897 0.207481 0.204294 0.199764 0.195777 0.191729 0.187403 0.183631 0.178731 0.175475 0.172128 0.16761 0.164312 0.16027 0.155811 0.152521 0.149441 0.145168 0.14106 0.136591 0.13229 0.128399 0.12477 0.120514 0.116623 0.112703 0.108786 0.104926 0.101056 0.0962007 0.0921888 0.0877773 0.0837208 0.0796326 0.0755333 0.0716747 0.0673972 0.0630456 0.0590782 0.0547096 0.0505212 0.046458 0.0415771 0.0369559 0.0327634 0.0279538 0.0233203 0.0187919 0.0142118 0.00956316 0.00504004 0.000456957 -0.00410831 -0.00873805 -0.0132808 -0.0178609 -0.0223937 -0.0269795 -0.0321682 -0.0343188 -0.037407 -0.0407444 -0.0444256 -0.0482597 -0.0522897 -0.0559941 -0.0600851 -0.0639718 -0.0682739 -0.0719981 -0.0763338 -0.0803149 -0.0849549 -0.0889316 -0.0929294 -0.0972733 -0.102069 -0.106417 -0.11128 -0.115348 -0.120226 -0.124206 -0.129008 -0.133815 -0.138665 -0.143973 -0.14832 -0.15347 -0.158491 -0.163696 -0.169622 -0.174703 -0.179925 -0.185398 -0.19135 -0.197541 -0.205034 -0.211819 -0.218013 -0.223335 -0.22005 -0.213102 -0.214313 -0.21611 -0.222273 -0.226447 -0.229808 -0.235087 0.0 -0.243263 -0.247756 -0.252341 -0.258845 -0.264121 -0.268888 -0.273359 -0.286135 -0.324814 -0.330102 -0.334898 -0.340826 -0.347938 -0.353338 -0.360757 -0.365679 -0.371076 -0.378486 -0.381835 -0.385339 -0.392973 -0.402702 -0.408699 -0.415351 -0.424153 -0.426902 -0.437027 -0.442493 -0.449304 -0.459082
0.631532 0.624124 0.591338 0.563948 0.575343 0.565492 0.555526 0.518708 0.482425 0.380351 0.346585 0.341672 0.329152 0.315255 0.306055 0.299043 0.293126 0.28781 0.283421 0.279138 0.27581 0.272804 0.269854 0.265569 0.261138 0.257277 0.253725 0.251533 0.246511 0.242115 0.237951 0.234435 0.229509 0.225919 0.221643 0.218695 0.214546 0.211857 0.208371 0.204074 0.198717 0.195509 0.191127 0.186592 0.182459 0.179178 0.174357 0.171695 0.167483 0.163565 0.161507 0.156697 0.152896 0.148685 0.145647 0.141282 0.137042 0.132613 0.128932 0.124574 0.120497 0.116672 0.112846 0.108924 0.104794 0.100845 0.0971595 0.0928464 0.0883791 0.0840361 0.0802186 0.0757739 0.072353 0.0678491 0.0636567 0.0594222 0.055411 0.0505013 0.0459472 0.041583 0.0368625 0.0324651 0.0277942 0.0232491 0.0187097 0.0141459 0.0096055 0.00501127 0.000456536 -0.00408587 -0.00867909 -0.0132332 -0.0176685 -0.0223073 -0.0270553 -0.0291951 -0.0328025 -0.0366103 -0.0402082 -0.0441542 -0.0479053 -0.0516065 -0.055953 -0.0598047 -0.0640023 -0.0680175 -0.0718357 -0.0765083 -0.080693 -0.0844075 -0.0885985 -0.0934482 -0.0972306 -0.101659 -0.106149 -0.110672 -0.11482 -0.119996 -0.124737 -0.129254 -0.134147 -0.138724 -0.14395 -0.148768 -0.154062 -0.15919 -0.1646 -0.16969 -0.175262 -0.180498 -0.185109 -0.192215 -0.198966 -0.206879 -0.213082 -0.218726 -0.220987 -0.21723 -0.213679 -0.214524 -0.216968 -0.221181 -0.225334 -0.229013 -0.23386 -0.238807 -0.243213 -0.247045 -0.253109 -0.258106 -0.262055 -0.268122 -0.273299 -0.291436 -0.323584 -0.329692 -0.332178 -0.340747 -0.346449 -0.351557 -0.357314 -0.362921 -0.368555 -0.376117 -0.381742 -0.382216 -0.390597 -0.398582 -0.40768 -0.41318 -0.419016 -0.4269 -0.436378 -0.437141 -0.445428 -0.453809
0.645837 0.622065 0.597407 0.591059 0.574667 0.566425 0.544259 0.524081 0.505719 0.416143 0.358331 0.341595 0.342693 0.324321 0.310582 0.301564 0.293426 0.287837 0.282478 0.279165 0.277035 0.272662 0.269715 0.265026 0.261566 0.257856 0.253752 0.250645 0.246762 0.242141 0.238773 0.234249 0.230233 0.226219 0.222743 0.218458 0.213282 0.209923 0.206415 0.203553 0.200168 0.195301 0.190185 0.18695 0.183515 0.177982 0.175054 0.171769 0.167162 0.163732 0.160594 0.156765 0.152386 0.149266 0.145124 0.141018 0.137534 0.132632 0.129246 0.124628 0.121409 0.117121 0.11331 0.108879 0.105222 0.101509 0.0971742 0.0927575 0.0887609 0.0846787 0.0806727 0.0767455 0.072914 0.0683936 0.0639244 0.0594312 0.0550947 0.0503196 0.0459296 0.0413897 0.0368286 0.0321326 0.0276498 0.0231097 0.0185227 0.0140498 0.00952253 0.00498926 0.000453804 -0.00406238 -0.00859477 -0.0130903 -0.0179897 -0.0216837 -0.024521 -0.0277873 -0.0319995 -0.0355645 -0.0395277 -0.0435378 -0.0474499 -0.0515061 -0.0556074 -0.0597976 -0.0637813 -0.0678031 -0.0721328 -0.0762682 -0.0805858 -0.0844735 -0.0887479 -0.0931286 -0.0975394 -0.101615 -0.106483 -0.11102 -0.115384 -0.11998 -0.12472 -0.129198 -0.133816 -0.138785 -0.144096 -0.149003 -0.154215 -0.15971 -0.164715 -0.17038 -0.175432 -0.182179 -0.186677 -0.194349 -0.201042 -0.208394 -0.213047 -0.216143 -0.221778 -0.215623 -0.21321 -0.217193 -0.220077 -0.220486 -0.224558 0.0 -0.233191 0.0 -0.241942 -0.246851 -0.249926 -0.256765 -0.259608 -0.266968 -0.275162 -0.297064 -0.321783 -0.32509 -0.330061 -0.339029 -0.344527 -0.349604 -0.354696 -0.362104 -0.367352 -0.372523 -0.375398 -0.382521 -0.3914 -0.396682 -0.403 -0.409777 -0.414727 -0.424463 -0.430353 -0.438566 -0.444659 -0.451571
0.665155 0.601936 0.589517 0.584038 0.567743 0.55001 0.546244 0.516509 0.508473 0.49183 0.391737 0.347498 0.33847 0.333673 0.319519 0.307784 0.297007 0.291006 0.284805 0.280588 0.276981 0.27261 0.268255 0.26522 0.261998 0.257099 0.253705 0.250371 0.246119 0.242319 0.238009 0.233712 0.230124 0.225838 0.222571 0.21908 0.21415 0.2109 0.206753 0.202308 0.198593 0.194342 0.190952 0.186589 0.18251 0.177956 0.175029 0.170784 0.166941 0.163997 0.160992 0.157608 0.153605 0.149634 0.14498 0.141933 0.138106 0.133796 0.129525 0.125182 0.122116 0.11714 0.113424 0.10859 0.105592 0.101921 0.0975679 0.0935971 0.0895115 0.0856716 0.0818565 0.0771126 0.0724543 0.0678521 0.0638487 0.059313 0.05472 0.0503142 0.0455185 0.0412189 0.0365484 0.0319389 0.0275503 0.0230452 0.0185208 0.0140068 0.00944478 0.00492709 0.000453636 -0.00404771 -0.0085198 -0.0133823 -0.0169756 -0.01992 -0.0235838 -0.0278264 -0.0318999 -0.0351486 -0.0391977 -0.0434667 -0.0471257 -0.0515635 -0.0556353 -0.0596457 -0.0637743 -0.0678781 -0.0723869 -0.0762366 -0.0803824 -0.0847446 -0.0892458 -0.0933975 -0.0974695 -0.101634 -0.106091 -0.111105 -0.11578 -0.119895 -0.124594 -0.129219 -0.134462 -0.139533 -0.144825 -0.148769 -0.154723 -0.159734 -0.165669 -0.17136 -0.176681 -0.183008 -0.189897 -0.195165 -0.203661 -0.207644 -0.212958 -0.217383 -0.22192 -0.214683 0.0 0.0 0.0 0.0 0.0 0.0 0.0 0.0 0.0 0.0 -0.249881 0.0 -0.261955 -0.268805 -0.279505 -0.305457 -0.318171 -0.324021 -0.329485 -0.335411 -0.342435 -0.346139 -0.350089 -0.357979 -0.36466 -0.369695 -0.372337 -0.381171 -0.389832 -0.393583 -0.401589 -0.40814 -0.415476 -0.420973 -0.428753 -0.435743 -0.441798 -0.451248
0.656374 0.601478 0.589621 0.586328 0.564609 0.555864 0.531958 0.532879 0.509805 0.5005 0.426924 0.366233 0.342943 0.333325 0.330052 0.317702 0.30605 0.296867 0.290578 0.283144 0.278215 0.275256 0.269865 0.265908 0.262434 0.25808 0.254593 0.250254 0.247426 0.242942 0.237682 0.233674 0.230366 0.226009 0.223074 0.218323 0.213989 0.210869 0.206909 0.202643 0.198505 0.194953 0.191153 0.18673 0.182757 0.179311 0.17511 0.170812 0.167018 0.163832 0.161113 0.157725 0.153498 0.149272 0.145004 0.141956 0.138129 0.132638 0.129915 0.12499 0.121277 0.117789 0.113412 0.109989 0.105905 0.102841 0.0998515 0.0941799 0.0906063 0.0858493 0.0814728 0.0766876 0.0723489 0.0676428 0.063361 0.0589558 0.0543459 0.049944 0.0455141 0.0408712 0.0364856 0.0319877 0.0274511 0.022956 0.0183592 0.0139451 0.00936203 0.00490787 0.000448232 -0.00404514 -0.00876207 -0.0126602 -0.0159571 -0.0202286 -0.0241567 -0.0275884 -0.0313769 -0.0352212 -0.0391939 -0.0434227 -0.0471356 -0.0512596 -0.055562 -0.0598761 -0.0636128 -0.0681599 -0.0722267 -0.0766671 -0.0806413 -0.0849654 -0.0893167 -0.0933317 -0.0980431 -0.10214 -0.106649 -0.110665 -0.115733 -0.12073 -0.125458 -0.129696 -0.134564 -0.139799 -0.144143 -0.149949 -0.154748 -0.160348 -0.166998 -0.17215 -0.179159 -0.18399 -0.191005 -0.198148 -0.201093 -0.20756 -0.212306 -0.216947 -0.219406 -0.214108 0.0 0.0 0.0 0.0 0.0 0.0 0.0 0.0 0.0 0.0 0.0 0.0 -0.263919 -0.270488 -0.279777 -0.309141 -0.31762 -0.323377 -0.329512 -0.333792 -0.338591 -0.344111 -0.352473 -0.354874 -0.359638 -0.365642 -0.374769 -0.378463 -0.38639 -0.393508 -0.398965 -0.407027 -0.413195 -0.417068 -0.426839 -0.435547 -0.440383 -0.449254
0.635096 0.572962 0.593392 0.572773 0.571629 0.554274 0.539949 0.528953 0.518398 0.495779 0.48763 0.411207 0.358904 0.33831 0.328216 0.325128 0.315278 0.3073 0.296794 0.288397 0.281506 0.276727 0.27181 0.267985 0.263275 0.259065 0.254555 0.251207 0.248138 0.243127 0.237575 0.234421 0.230125 0.226524 0.222909 0.217505 0.214283 0.210904 0.206572 0.202313 0.199014 0.194406 0.19147 0.187373 0.182572 0.178387 0.17395 0.171297 0.167097 0.163669 0.160486 0.157708 0.152507 0.149212 0.14503 0.142063 0.138193 0.133881 0.129975 0.126223 0.12209 0.118175 0.11439 0.110715 0.108397 0.104806 0.0994373 0.0946862 0.0904016 0.0857249 0.0813328 0.0766806 0.0716747 0.0674158 0.0627708 0.0586632 0.0539429 0.0494932 0.0450301 0.0404351 0.0362061 0.0316909 0.0273076 0.022836 0.0183576 0.0138797 0.00936891 0.00486725 0.00045855 -0.00410072 -0.00821737 -0.0121433 -0.0160128 -0.019797 -0.0233567 -0.0270984 -0.0311047 -0.0350229 -0.0391544 -0.0431532 -0.0469284 -0.0511608 -0.0551673 -0.0595619 -0.0636265 -0.0681744 -0.0719144 -0.076268 -0.0807796 -0.0852126 -0.0897896 -0.0933787 -0.098092 -0.102525 -0.106923 -0.111706 -0.115687 -0.121248 -0.125409 -0.130288 -0.135565 -0.140026 -0.144875 -0.150061 -0.155303 -0.161416 -0.166932 -0.173086 -0.179334 -0.186431 -0.192374 -0.195643 -0.20042 -0.205931 -0.209904 -0.213797 -0.218314 -0.213175 -0.212501 0.0 0.0 0.0 0.0 0.0 0.0 0.0 0.0 0.0 0.0 0.0 -0.264652 -0.270839 -0.28237 -0.310879 -0.314351 -0.322906 -0.32622 -0.330707 -0.336864 -0.343251 -0.348969 -0.354814 -0.359204 -0.363399 -0.371818 -0.376835 -0.385827 -0.391731 -0.394922 -0.40365 -0.40998 -0.417631 -0.423964 -0.431434 -0.438978 -0.449396
0.629874 0.583758 0.601162 0.576944 0.567222 0.552057 0.539863 0.530112 0.517805 0.504262 0.485965 0.478689 0.379498 0.345961 0.329291 0.320279 0.317414 0.312899 0.305219 0.297649 0.28993 0.282999 0.27732 0.271451 0.265002 0.262182 0.256844 0.251935 0.247282 0.243242 0.239494 0.235455 0.230652 0.22711 0.222814 0.21807 0.214192 0.211005 0.206795 0.202532 0.199703 0.195836 0.191732 0.186852 0.182498 0.177785 0.175225 0.171229 0.167129 0.164084 0.160423 0.156918 0.15413 0.149585 0.145894 0.14286 0.139556 0.134439 0.130589 0.126568 0.122903 0.119092 0.116134 0.11279 0.109418 0.103979 0.0997257 0.0942662 0.0898054 0.0856479 0.0810612 0.0765284 0.071885 0.0671895 0.0629034 0.0580517 0.0537912 0.0492458 0.0448666 0.0402768 0.0358678 0.0313943 0.0269933 0.0226417 0.0180915 0.0137125 0.0092889 0.00497409 0.000446943 -0.00383947 -0.00776541 -0.0115453 -0.0152751 -0.0192224 -0.0231321 -0.0271047 -0.0308905 -0.034684 -0.0390307 -0.0431366 -0.0471714 -0.051141 -0.0552477 -0.059648 -0.0635826 -0.0679628 -0.0724108 -0.0767691 -0.08087 -0.0855626 -0.0893542 -0.0939021 -0.098609 -0.103034 -0.106914 -0.111466 -0.115984 -0.12053 -0.12547 -0.130314 -0.135552 -0.140899 -0.145276 -0.150902 -0.155816 -0.161626 -0.169194 -0.174501 -0.181128 -0.185708 -0.191271 -0.195516 -0.197643 -0.202203 -0.207223 -0.211518 -0.216398 -0.212728 0.0 0.0 0.0 0.0 0.0 0.0 0.0 0.0 0.0 -0.249703 0.0 -0.261309 -0.265929 -0.273787 -0.283929 -0.308968 -0.314472 -0.319589 -0.324724 -0.330746 -0.333473 -0.341503 -0.346741 -0.350435 -0.357001 -0.363818 -0.368682 -0.378241 -0.383787 -0.38916 -0.394656 -0.402864 -0.406669 -0.41491 -0.420884 -0.429619 -0.439348 -0.447196
0.629214 0.606348 0.599525 0.572598 0.557649 0.553043 0.5464 0.530452 0.514363 0.516377 0.486196 0.475393 0.433764 0.379289 0.344144 0.324667 0.317827 0.310708 0.307561 0.302126 0.297587 0.291545 0.283412 0.276305 0.269617 0.263884 0.259293 0.253656 0.249348 0.244905 0.239828 0.235712 0.231462 0.226538 0.22279 0.216731 0.214234 0.210983 0.205598 0.202511 0.198793 0.194306 0.191145 0.186834 0.182371 0.178298 0.175571 0.171263 0.167803 0.163541 0.160222 0.156904 0.154205 0.149873 0.145798 0.142645 0.139426 0.134352 0.130984 0.127269 0.122997 0.120176 0.116157 0.11177 0.108144 0.103266 0.0992056 0.0938729 0.0898234 0.0849892 0.0802826 0.0757096 0.0714872 0.0666324 0.0624693 0.0582074 0.0533451 0.0493236 0.0446051 0.0402962 0.0359542 0.031323 0.0269172 0.0225035 0.0179305 0.0140061 0.0092755 0.00470175 0.00041098 -0.00357721 -0.00752419 -0.0113079 -0.0152029 -0.019054 -0.0231808 -0.0268675 -0.031081 -0.0349419 -0.0389195 -0.0430141 -0.0470811 -0.0513576 -0.0551761 -0.0596438 -0.0635393 -0.0681847 -0.0724274 -0.0770402 -0.0814226 -0.0855818 -0.0899357 -0.0940908 -0.0986307 -0.103178 -0.107254 -0.111984 -0.11652 -0.121333 -0.126045 -0.130908 -0.135736 -0.14137 -0.146302 -0.151445 -0.156991 -0.162517 -0.16983 -0.175583 -0.180279 -0.184937 -0.189038 -0.192754 -0.195949 -0.201078 -0.205166 -0.21167 -0.215017 -0.212706 -0.214981 0.0 0.0 -0.225836 0.0 0.0 0.0 0.0 0.0 0.0 0.0 0.0 0.0 -0.273754 -0.287168 -0.308199 -0.314515 -0.317787 -0.322723 -0.328107 -0.333254 -0.338244 -0.341255 -0.347719 -0.355832 -0.361683 -0.369402 -0.374481 -0.38017 -0.387298 -0.394092 -0.399709 -0.404832 -0.412411 -0.420824 -0.428904 -0.437186 -0.447132
0.628112 0.615699 0.572313 0.575587 0.551433 0.545101 0.538146 0.537531 0.527779 0.491546 0.498547 0.435505 0.379113 0.370022 0.358813 0.346782 0.32661 0.315151 0.308497 0.301398 0.295844 0.292187 0.288266 0.282058 0.274635 0.270001 0.264533 0.258503 0.252017 0.245909 0.241609 0.23576 0.2313 0.227131 0.222836 0.218749 0.214794 0.211027 0.206384 0.202493 0.198301 0.195218 0.191015 0.186929 0.183007 0.178601 0.174056 0.1713 0.168578 0.164297 0.160209 0.156938 0.154193 0.150636 0.146413 0.14377 0.139416 0.135103 0.131122 0.12783 0.12395 0.11924 0.114714 0.110658 0.106047 0.102244 0.0981741 0.0939699 0.0895724 0.0852169 0.0803659 0.0759343 0.0711883 0.0665547 0.0622077 0.0580282 0.0532534 0.0490637 0.0444425 0.0399945 0.035735 0.0311568 0.0267968 0.0223593 0.0180992 0.0126837 0.00830296 0.00433169 0.000389154 -0.00353863 -0.00740805 -0.0112931 -0.0150737 -0.0190827 -0.0234886 -0.0278579 -0.0314257 -0.035211 -0.0390499 -0.0430647 -0.0470783 -0.051213 -0.0553422 -0.0597128 -0.063865 -0.0682835 -0.0730343 -0.0770354 -0.081976 -0.0857549 -0.0899834 -0.0945599 -0.0989744 -0.103445 -0.107183 -0.112568 -0.117092 -0.121784 -0.126548 -0.131314 -0.136469 -0.1414 -0.146789 -0.152204 -0.157639 -0.163907 -0.170933 -0.174423 -0.177961 -0.181253 -0.187375 -0.190311 -0.196527 -0.199568 -0.206223 -0.2109 -0.213817 -0.21148 0.0 0.0 0.0 0.0 0.0 0.0 0.0 0.0 0.0 0.0 0.0 -0.260947 -0.266641 -0.275452 -0.289693 -0.306543 -0.310108 -0.316494 -0.321154 -0.326425 -0.33269 -0.335795 -0.340038 -0.347771 -0.353736 -0.361736 -0.36705 -0.374632 -0.37765 -0.385645 -0.391295 -0.397389 -0.404992 -0.412042 -0.417975 -0.428306 -0.437132 -0.448643
0.666928 0.575459 0.562396 0.550936 0.556982 0.550683 0.536726 0.523603 0.528541 0.450118 0.399432 0.380074 0.368368 0.362095 0.358871 0.351548 0.343671 0.324612 0.311995 0.303801 0.295047 0.289636 0.286335 0.281299 0.275252 0.269898 0.263193 0.258557 0.254165 0.248461 0.242455 0.237371 0.231351 0.226635 0.210688 0.203286 0.214455 0.211895 0.206553 0.20272 0.198464 0.194739 0.190717 0.186805 0.182886 0.178907 0.175337 0.171288 0.167877 0.164382 0.160853 0.157201 0.154449 0.15054 0.146571 0.143842 0.140508 0.135476 0.131814 0.12768 0.123256 0.119035 0.114165 0.109763 0.105394 0.101308 0.0971975 0.092497 0.0888318 0.0843735 0.080185 0.0754715 0.0709883 0.0661831 0.0618951 0.0574345 0.0530295 0.048439 0.0442556 0.0395379 0.0355556 0.0308699 0.0262233 0.0208672 0.0161207 0.0120752 0.00814909 0.00423769 0.000386699 -0.00348256 -0.00735909 -0.0112184 -0.015035 -0.0189923 -0.0234874 -0.0270496 -0.0310295 -0.0351225 -0.038879 -0.0428101 -0.0468584 -0.051352 -0.0554241 -0.0599277 -0.0644433 -0.0688158 -0.0734889 -0.0776077 -0.0817045 -0.0858523 -0.0907269 -0.0951698 -0.09929 -0.10353 -0.108063 -0.112594 -0.117528 -0.122377 -0.127272 -0.1321 -0.137514 -0.142962 -0.147984 -0.153135 -0.158465 -0.165254 -0.169201 -0.172215 -0.175353 0.0 -0.184993 -0.190298 -0.194028 0.0 -0.205077 -0.209323 -0.212796 0.0 0.0 0.0 0.0 0.0 0.0 0.0 0.0 0.0 0.0 0.0 0.0 0.0 -0.269088 -0.277312 -0.291024 -0.30481 -0.308429 -0.312859 -0.320357 -0.325529 -0.329757 -0.332906 -0.34073 -0.346633 -0.352954 -0.358572 -0.366436 -0.37196 -0.376919 -0.383196 -0.387793 -0.396935 -0.402543 -0.408815 -0.418039 -0.426407 -0.434434 -0.45061
0.62833 0.576755 0.571981 0.569903 0.550248 0.540848 0.533741 0.476461 0.431209 0.391492 0.384908 0.372117 0.368048 0.361495 0.356875 0.349858 0.345189 0.339719 0.327577 0.310896 0.298016 0.290959 0.284989 0.280301 0.27435 0.269957 0.264878 0.259908 0.254446 0.247635 0.242294 0.236007 0.228899 0.213028 0.181794 0.180139 0.180934 0.212576 0.207963 0.202223 0.199341 0.195482 0.191273 0.187016 0.183418 0.179268 0.175327 0.172087 0.167769 0.164804 0.160985 0.158057 0.154971 0.151436 0.148234 0.14428 0.140579 0.135545 0.130703 0.12682 0.122391 0.118532 0.113586 0.109727 0.105065 0.100682 0.0959253 0.0923641 0.0877978 0.083531 0.0790777 0.0749886 0.0709264 0.0665853 0.0616518 0.0572884 0.0529241 0.0485587 0.04386 0.0387824 0.0335312 0.0284901 0.0238519 0.0197544 0.0157905 0.0119275 0.00810017 0.00424422 0.000384979 -0.00346378 -0.00733797 -0.0112285 -0.0150296 -0.0193496 -0.0233858 -0.0270569 -0.0309609 -0.0347307 -0.0390101 -0.043074 -0.0474075 -0.0514127 -0.0557267 -0.0601432 -0.0646732 -0.0693693 -0.0737258 -0.0778579 -0.0817252 -0.0864351 -0.0907228 -0.095445 -0.0994897 -0.103525 -0.108058 -0.113246 -0.118205 -0.122972 -0.127668 -0.132661 -0.137859 -0.143358 -0.147769 -0.153982 -0.157709 -0.162168 -0.166542 -0.169914 -0.174608 -0.179874 -0.184828 -0.188968 -0.194773 -0.200205 0.0 -0.209715 -0.212429 -0.212175 0.0 0.0 0.0 0.0 -0.230155 0.0 0.0 0.0 0.0 -0.251734 -0.257504 -0.262575 -0.270766 -0.278391 -0.291162 -0.301135 -0.306838 -0.3125 -0.317606 -0.322734 -0.326039 -0.332523 -0.339071 -0.346421 -0.351057 -0.357595 -0.363232 -0.369099 -0.37471 -0.381759 -0.387353 -0.393598 -0.402299 -0.41069 -0.418218 -0.426043 -0.438152 -0.45113
0.627036 0.595901 0.576814 0.562215 0.557111 0.54613 0.481762 0.410497 0.395963 0.384017 0.378531 0.371897 0.366674 0.360616 0.355821 0.350113 0.343894 0.337997 0.333112 0.324767 0.309364 0.296241 0.288614 0.281506 0.275776 0.269941 0.263933 0.258523 0.25286 0.248062 0.243291 0.231741 0.194021 0.186996 0.0 0.0 0.0 0.204987 0.208324 0.203849 0.199272 0.195879 0.192003 0.187673 0.183952 0.1791 0.17651 0.172533 0.168008 0.164749 0.161585 0.157959 0.154832 0.151902 0.149398 0.144112 0.139592 0.135083 0.130477 0.126174 0.121974 0.117667 0.113295 0.109447 0.104561 0.100651 0.095814 0.0917944 0.0869119 0.0828291 0.0782362 0.0740477 0.0695891 0.064687 0.0597764 0.0535983 0.0477908 0.0432145 0.0391577 0.0352999 0.0313395 0.0275465 0.0234499 0.0195177 0.0158249 0.0120215 0.00809735 0.00424409 0.000386063 -0.00346258 -0.00732616 -0.0111893 -0.0151099 -0.0190088 -0.0230473 -0.0270308 -0.0310946 -0.0354018 -0.0395275 -0.0433117 -0.0475365 -0.051584 -0.0560976 -0.0604318 -0.0639926 -0.0694906 -0.0737015 -0.0778552 -0.0824021 -0.0862025 -0.0907998 -0.0954975 -0.100216 -0.10419 -0.108624 -0.113801 -0.118303 -0.123533 -0.128249 -0.13345 -0.139025 -0.143634 -0.149507 -0.152565 -0.156646 -0.161528 -0.165047 -0.169239 -0.174257 -0.17856 -0.18415 -0.189223 -0.193954 -0.197708 -0.202794 -0.207913 -0.211296 0.0 0.0 0.0 0.0 0.0 0.0 0.0 0.0 0.0 0.0 0.0 -0.25831 -0.260739 -0.270056 -0.278375 -0.293939 -0.300386 -0.3055 -0.312314 -0.316479 -0.319339 -0.326106 -0.332591 -0.338053 -0.345663 -0.351128 -0.354349 -0.36167 -0.366148 -0.371815 -0.379525 -0.38519 -0.391611 -0.399969 -0.408859 -0.418297 -0.428848 -0.442097 -0.458708
0.63803 0.577135 0.578667 0.565465 0.494335 0.427501 0.414058 0.395573 0.386757 0.381684 0.376031 0.370314 0.366271 0.360124 0.3544 0.349543 0.342606 0.336996 0.331862 0.324926 0.317554 0.309769 0.296133 0.286053 0.279208 0.272293 0.265471 0.258665 0.254047 0.249375 0.242126 0.204298 0.190813 0.0 0.0 0.0 0.0 0.192855 0.206461 0.204145 0.20057 0.195582 0.192053 0.187722 0.183457 0.180472 0.176659 0.17273 0.169036 0.165896 0.162188 0.157954 0.155757 0.152973 0.149226 0.143338 0.139312 0.133748 0.129847 0.125495 0.121112 0.116405 0.112845 0.108218 0.104176 0.100225 0.0954878 0.0912771 0.0864193 0.0813359 0.0748788 0.0676652 0.0623244 0.0574327 0.053605 0.0495577 0.0459465 0.0420638 0.0383446 0.0346007 0.0307172 0.0269059 0.0232413 0.0195483 0.0155799 0.0118437 0.00803323 0.00423997 0.000384592 -0.00347346 -0.00736302 -0.0112844 -0.0151998 -0.0190621 -0.0230827 -0.0270974 -0.0314307 -0.035542 -0.0393939 -0.04347 -0.0475789 -0.0516928 -0.0562149 -0.0605938 -0.0646889 -0.0694476 -0.0737215 -0.0782221 -0.0824486 -0.0868634 -0.0912251 -0.0963337 -0.100213 -0.104857 -0.110013 -0.114258 -0.119254 -0.123953 -0.129086 -0.134315 -0.138396 -0.142583 -0.148049 -0.151748 -0.154749 -0.160392 0.0 -0.169663 0.0 -0.178604 -0.184298 -0.188478 -0.193569 0.0 0.0 -0.207444 0.0 0.0 0.0 0.0 0.0 0.0 0.0 0.0 0.0 0.0 0.0 -0.251783 -0.259045 -0.264142 -0.271743 -0.279933 -0.293607 -0.299237 -0.305487 -0.308024 -0.31425 -0.319065 -0.32618 -0.333201 -0.337313 -0.342611 -0.34859 -0.351679 -0.359056 -0.363399 -0.368532 -0.376596 -0.385069 -0.391488 -0.399636 -0.408944 -0.418491 -0.429153 -0.445499 -0.467301
0.635282 0.585306 0.549417 0.446239 0.417018 0.409937 0.393689 0.391628 0.38552 0.380867 0.373837 0.370009 0.36491 0.357262 0.351299 0.34741 0.340687 0.335286 0.328591 0.323441 0.317203 0.309424 0.30258 0.295817 0.282804 0.274649 0.26802 0.26254 0.254938 0.249589 0.242048 0.196425 0.0 0.0 0.0 0.0 0.0 0.178137 0.195196 0.192809 0.186269 0.188205 0.188528 0.187718 0.185353 0.180946 0.176914 0.174342 0.170116 0.166612 0.162979 0.160271 0.157435 0.153787 0.14772 0.144024 0.138131 0.134126 0.129808 0.124959 0.120732 0.11637 0.112397 0.108523 0.103674 0.0982494 0.0911705 0.0831136 0.0770257 0.0721551 0.0679903 0.0645363 0.0604979 0.0569348 0.053123 0.0493494 0.0457247 0.041955 0.0382579 0.0346001 0.0309239 0.0270698 0.0232781 0.0193803 0.0157744 0.0118775 0.00807147 0.00423589 0.000386535 -0.00347779 -0.0073444 -0.011249 -0.0151948 -0.0190797 -0.0232549 -0.0270298 -0.0314495 -0.0354547 -0.0398276 -0.0435756 -0.0475491 -0.0517392 -0.0561971 -0.0605202 -0.0652113 -0.0695084 -0.0740696 -0.07829 -0.0824716 -0.087117 -0.0914375 -0.096388 -0.100211 -0.105311 -0.109853 -0.114848 -0.119627 -0.124729 -0.130217 -0.133443 -0.13691 -0.141211 0.0 0.0 -0.154878 0.0 -0.163458 0.0 0.0 -0.176441 -0.182492 -0.188738 -0.191351 -0.196979 -0.201425 0.0 -0.210516 0.0 0.0 0.0 0.0 0.0 0.0 0.0 0.0 0.0 0.0 0.0 -0.258293 -0.265349 -0.271118 -0.279926 -0.29328 -0.298499 -0.301023 -0.305752 -0.311005 -0.317066 -0.326258 -0.331317 -0.334584 -0.342049 -0.347086 -0.352048 -0.357315 -0.362803 -0.369015 -0.376484 -0.382309 -0.391579 -0.399832 -0.409038 -0.423101 -0.433063 -0.453104 -0.499289
0.638115 0.534925 0.442009 0.417934 0.405908 0.400571 0.395153 0.388001 0.384086 0.379352 0.373435 0.365602 0.361819 0.354787 0.349515 0.344361 0.338593 0.331163 0.324091 0.319792 0.314892 0.30715 0.303156 0.295569 0.289369 0.280395 0.270108 0.263375 0.257703 0.251277 0.242768 0.197203 0.0 0.0 0.0 0.0 0.0 0.176052 0.185481 0.185233 0.180573 0.167131 0.163541 0.162899 0.163104 0.166051 0.168582 0.168837 0.167308 0.161812 0.157042 0.153309 0.150487 0.148109 0.144795 0.13835 0.135223 0.128417 0.123475 0.117166 0.113106 0.107925 0.103245 0.0987428 0.0929614 0.0879275 0.0836713 0.0789677 0.0750144 0.0718284 0.0684314 0.064244 0.0603994 0.0568976 0.0530023 0.0493172 0.0455917 0.0419548 0.0381838 0.0345778 0.0307757 0.0271215 0.023278 0.0195604 0.0156695 0.0119379 0.00813792 0.00423855 0.000387629 -0.00348764 -0.00735593 -0.0112842 -0.0151235 -0.0192527 -0.0233338 -0.0270968 -0.0312953 -0.035628 -0.0398153 -0.0438675 -0.0479404 -0.0518489 -0.0562137 -0.0607015 -0.0655016 -0.0698995 -0.074222 -0.0784509 -0.0829323 -0.087295 -0.0921585 -0.0969744 -0.101553 -0.105949 -0.1102 -0.115603 -0.119968 -0.12395 -0.128425 -0.132838 -0.136401 0.0 -0.145056 -0.149392 0.0 0.0 0.0 -0.166937 0.0 -0.176891 -0.181667 -0.18689 -0.190485 -0.195817 0.0 -0.204779 0.0 0.0 0.0 0.0 0.0 0.0 0.0 0.0 0.0 0.0 0.0 0.0 0.0 -0.264815 -0.272582 -0.281022 -0.289924 -0.294925 -0.2997 -0.305665 -0.313897 -0.317755 -0.323442 -0.3281 -0.333402 -0.339561 -0.344468 -0.351096 -0.354522 -0.361335 -0.368516 -0.376279 -0.382508 -0.389923 -0.397421 -0.409139 -0.423419 -0.440794 -0.473418 -0.538894
0.626411 0.483657 0.423631 0.410178 0.405587 0.400042 0.393371 0.38821 0.383068 0.375731 0.372941 0.365213 0.359893 0.354789 0.347925 0.341226 0.336231 0.331165 0.324886 0.319359 0.314125 0.30732 0.300758 0.295733 0.290491 0.284571 0.277078 0.268248 0.260248 0.253483 0.245295 0.206773 0.192477 0.0 0.0 0.0 0.0 0.0 0.168096 0.166147 0.167879 0.174097 0.16303 0.158957 0.157082 0.153384 0.151507 0.14844 0.144364 0.142234 0.138768 0.13666 0.131948 0.128285 0.12525 0.121533 0.11782 0.114491 0.111695 0.107951 0.104245 0.100507 0.0967406 0.0929184 0.0895775 0.0858691 0.0821071 0.0788392 0.0745241 0.0710831 0.0669305 0.0636186 0.0601248 0.0566033 0.0529853 0.0491097 0.0453264 0.0416032 0.0381347 0.0345889 0.0309534 0.0271562 0.0234192 0.0195542 0.0156995 0.0119341 0.00810981 0.00423722 0.000386534 -0.00348217 -0.00736752 -0.0113054 -0.0153373 -0.0193542 -0.0232548 -0.0272062 -0.0311607 -0.0356714 -0.0402255 -0.0440669 -0.0480855 -0.0522106 -0.0567729 -0.0610467 -0.0657344 -0.070147 -0.0744841 -0.0787508 -0.083758 -0.0881878 -0.092827 -0.0970306 -0.101524 -0.106314 -0.110074 -0.114025 -0.119081 -0.12282 -0.127035 0.0 -0.135816 0.0 -0.145057 0.0 -0.154526 -0.158941 -0.161923 -0.166269 0.0 0.0 0.0 0.0 -0.18973 -0.194712 0.0 0.0 0.0 0.0 0.0 0.0 0.0 0.0 0.0 0.0 0.0 0.0 0.0 0.0 -0.260751 -0.266106 -0.271811 -0.281415 -0.288569 -0.293384 -0.298877 -0.305666 -0.310406 -0.315333 -0.320631 -0.325692 -0.333313 -0.336527 -0.341388 -0.34816 -0.353274 -0.361727 -0.367726 -0.373771 -0.382306 -0.389616 -0.400248 -0.41402 -0.428904 -0.46063 -0.505225 -0.639717
0.665415 0.550985 0.43416 0.410516 0.402039 0.39803 0.391177 0.387701 0.380219 0.374532 0.369873 0.362188 0.356718 0.351375 0.346247 0.341049 0.334057 0.329203 0.324188 0.316415 0.311995 0.308251 0.302254 0.295332 0.290177 0.285758 0.279639 0.270993 0.263619 0.255472 0.248332 0.229461 0.193733 0.0 0.0 0.179004 0.0 0.0 0.171502 0.167665 0.165272 0.163419 0.164453 0.165234 0.155891 0.152009 0.149025 0.145817 0.142249 0.139789 0.136947 0.132931 0.130578 0.126824 0.123289 0.11963 0.116721 0.113161 0.109635 0.106209 0.103697 0.099846 0.0962954 0.0925517 0.0892255 0.0858702 0.0821351 0.0784797 0.0747457 0.0710607 0.0673728 0.0635985 0.0601647 0.0562358 0.0526937 0.0490624 0.0453711 0.0419012 0.0379875 0.0345672 0.0309044 0.0271392 0.0234269 0.0195047 0.0157146 0.0119682 0.00811501 0.00425602 0.00039007 -0.0035107 -0.00736528 -0.0113303 -0.0153754 -0.0194141 -0.0234994 -0.0276435 -0.031623 -0.0359863 -0.0403103 -0.0441205 -0.0481586 -0.0520854 -0.0567566 -0.0615924 -0.0662586 -0.0704569 -0.0750308 -0.07972 -0.0839047 -0.0881379 -0.0922134 -0.0966125 -0.100679 -0.10516 -0.109348 -0.113435 -0.118571 -0.121126 -0.126489 0.0 -0.135623 -0.140245 0.0 -0.148924 0.0 0.0 -0.162483 -0.167513 -0.170527 -0.174483 0.0 -0.184045 -0.190489 -0.19466 0.0 -0.204089 0.0 0.0 0.0 0.0 0.0 0.0 0.0 0.0 0.0 0.0 0.0 0.0 0.0 0.0 -0.271817 -0.279223 -0.285621 -0.290549 -0.297315 -0.302068 -0.309391 -0.314302 -0.320111 -0.323824 -0.328427 -0.336166 -0.341395 -0.346652 -0.35184 -0.357638 -0.364766 -0.373881 -0.381603 -0.391173 -0.404548 -0.420501 -0.444291 -0.488212 -0.575694 -0.710677
0.661238 0.599927 0.496631 0.423318 0.40432 0.396558 0.390459 0.384923 0.37901 0.373742 0.36562 0.36054 0.355383 0.350914 0.342889 0.33894 0.33207 0.32644 0.321731 0.316513 0.310639 0.305151 0.298706 0.29518 0.289707 0.285454 0.280114 0.274809 0.270661 0.259156 0.251372 0.243008 0.206127 0.190134 0.0 0.178089 0.0 0.0 0.0 0.0 0.166107 0.0 0.160937 0.160741 0.164306 0.157737 0.151927 0.14476 0.141711 0.138641 0.136109 0.13248 0.129077 0.125924 0.123251 0.119552 0.115899 0.111794 0.109306 0.106282 0.102497 0.099186 0.0959787 0.0925845 0.0889627 0.0852517 0.0820559 0.0784556 0.0744531 0.0710389 0.0672859 0.063579 0.0599697 0.0562921 0.0528495 0.0490953 0.0454163 0.0419021 0.0380867 0.0345013 0.0309642 0.0271311 0.0233233 0.0197598 0.0158547 0.0119685 0.00814842 0.00428022 0.000389103 -0.00350967 -0.00740245 -0.0114259 -0.0153805 -0.0193369 -0.0235286 -0.0276105 -0.0319508 -0.0361605 -0.0402026 -0.0441214 -0.0483191 -0.0526997 -0.0573677 -0.0618843 -0.0662988 -0.0709118 -0.0754472 -0.0788687 -0.0831781 -0.0882673 -0.0915739 -0.0961674 -0.100331 -0.105162 0.0 0.0 -0.117585 0.0 0.0 -0.131974 -0.1359 0.0 -0.143859 -0.149527 -0.153784 0.0 -0.162441 -0.166658 -0.170532 -0.17494 -0.179822 0.0 -0.187956 -0.193505 -0.197194 0.0 -0.207926 0.0 0.0 0.0 0.0 0.0 0.0 0.0 0.0 0.0 0.0 0.0 -0.261734 -0.266955 -0.271363 -0.278605 -0.285392 -0.290073 -0.294769 -0.299396 -0.30591 -0.312583 -0.316519 -0.322498 -0.326718 -0.333328 -0.338141 -0.345244 -0.350988 -0.358336 -0.364781 -0.372691 -0.381212 -0.394905 -0.406972 -0.434098 -0.469902 -0.525504 -0.674451 -0.711715
0.663097 0.613204 0.606625 0.531748 0.439819 0.408071 0.393421 0.38712 0.379951 0.374569 0.366734 0.359386 0.353764 0.345991 0.338694 0.333791 0.324452 0.314012 0.310286 0.306981 0.300828 0.297513 0.292928 0.285587 0.282593 0.277749 0.273236 0.2682 0.263716 0.259243 0.255355 0.24699 0.238358 0.192943 0.18514 0.180266 0.0 0.0 0.0 0.0 0.0 0.0 0.161 0.157472 0.156065 0.155094 0.151985 0.14724 0.142554 0.138454 0.135227 0.132485 0.129436 0.125456 0.122294 0.11984 0.115432 0.112521 0.10931 0.105646 0.102638 0.0989574 0.0960138 0.0919437 0.0888773 0.0853673 0.0818158 0.0777629 0.0745535 0.0712508 0.0674425 0.0636643 0.0601874 0.0564411 0.0529026 0.0493682 0.0456093 0.0419304 0.038297 0.0343804 0.0308763 0.0272875 0.023532 0.0196734 0.0158502 0.0120141 0.00813586 0.00427766 0.000388992 -0.00351087 -0.00748134 -0.0114262 -0.0154902 -0.0195344 -0.0236227 -0.0278214 -0.0319132 -0.0362266 -0.0403364 -0.044468 -0.0491036 -0.0535188 -0.0579794 -0.0623765 -0.0660681 -0.0702956 -0.0744889 -0.0788481 -0.0836663 -0.087811 0.0 0.0 0.0 -0.104101 0.0 0.0 -0.117589 0.0 0.0 0.0 -0.134499 -0.139811 -0.143739 -0.148891 -0.152249 -0.157912 -0.163145 -0.166187 -0.171028 -0.175349 -0.178953 -0.183108 0.0 -0.192297 0.0 -0.200867 -0.206104 -0.211084 0.0 0.0 0.0 0.0 0.0 0.0 0.0 0.0 0.0 0.0 0.0 -0.266362 -0.270991 -0.277913 -0.281655 -0.28814 -0.29231 -0.297064 -0.304137 -0.311388 -0.314954 -0.321445 -0.325014 -0.331782 -0.337133 -0.342989 -0.35072 -0.356991 -0.364109 -0.370405 -0.38154 -0.395754 -0.417776 -0.452159 -0.490039 -0.636049 -0.697907 -0.710192
0.672815 0.650733 0.64621 0.653427 0.653904 0.567259 0.534187 0.525758 0.499631 0.453323 0.396242 0.359707 0.343952 0.331473 0.32626 0.322649 0.317748 0.312692 0.309339 0.30353 0.299311 0.294337 0.289968 0.284873 0.282052 0.27635 0.272789 0.267304 0.262686 0.2597 0.255083 0.24892 0.241853 0.230248 0.194667 0.186389 0.176688 0.0 0.0 0.0 0.163928 0.162569 0.159249 0.157425 0.155096 0.150437 0.148836 0.146591 0.143251 0.138605 0.135981 0.13149 0.128867 0.125978 0.121841 0.118751 0.11583 0.112298 0.108836 0.105899 0.103123 0.0988624 0.0953801 0.0925915 0.0890281 0.0855682 0.0815224 0.078281 0.0747527 0.0710672 0.0674452 0.0640005 0.0603861 0.0566826 0.0533687 0.0493701 0.0458175 0.0421619 0.0383969 0.0344149 0.0309268 0.0273058 0.0235849 0.01973 0.0159357 0.0120485 0.00820522 0.00428585 0.000390712 -0.00353182 -0.00754178 -0.0114337 -0.0155525 -0.0195232 -0.0238751 -0.0279233 -0.0320876 -0.0362388 -0.0408325 -0.0451604 -0.0498016 -0.0535522 0.0 -0.0621428 -0.0662258 0.0 -0.07447 0.0 -0.0833054 0.0 0.0 0.0 0.0 0.0 -0.109263 0.0 0.0 0.0 -0.126063 -0.13051 -0.135481 -0.13877 -0.143829 -0.147658 -0.151289 -0.157603 -0.161758 -0.166196 -0.170596 -0.175257 -0.179272 -0.182274 -0.186677 0.0 0.0 0.0 -0.20517 -0.209527 0.0 0.0 0.0 -0.229194 0.0 0.0 0.0 0.0 0.0 0.0 -0.260348 -0.266834 -0.271318 0.0 -0.280955 -0.28605 -0.290597 -0.297001 -0.30271 -0.307775 -0.315241 -0.319683 -0.324403 -0.329414 -0.335383 -0.342162 -0.348727 -0.355652 -0.365226 -0.373345 -0.385031 -0.402702 -0.43267 -0.471293 -0.571812 -0.689507 -0.693213 -0.702638
0.68266 0.670437 0.671416 0.653163 0.656664 0.657859 0.649799 0.65004 0.625466 0.568646 0.446807 0.384207 0.354209 0.331884 0.326478 0.321755 0.318323 0.311466 0.308132 0.303123 0.2972 0.293858 0.288751 0.284002 0.280633 0.274718 0.270798 0.268163 0.262707 0.258251 0.253948 0.248656 0.242637 0.237028 0.203661 0.186272 0.179988 0.0 0.17098 0.169699 0.161863 0.159619 0.0 0.154048 0.152936 0.153045 0.149105 0.145641 0.142669 0.138998 0.135896 0.13168 0.12852 0.125942 0.122307 0.118636 0.114619 0.111962 0.108695 0.105727 0.102648 0.0989339 0.0956722 0.0919831 0.0887679 0.0852342 0.0820122 0.0783107 0.0748791 0.0712338 0.0674485 0.0640662 0.0 0.0569431 0.0529415 0.0494203 0.0 0.0420827 0.038411 0.0345606 0.0308295 0.0273936 0.0237198 0.0197247 0.0160313 0.0120906 0.00822861 0.00430078 0.000392191 -0.0035561 -0.00750972 -0.011519 -0.0156197 -0.0196434 -0.0240487 -0.0279666 -0.032426 -0.0371188 -0.0406293 0.0 0.0 -0.053429 0.0 0.0 0.0 -0.0703224 -0.0749758 0.0 0.0 -0.0874109 0.0 -0.0959277 -0.0997602 -0.104081 -0.108415 -0.113058 -0.11726 -0.122488 -0.12596 -0.13063 -0.134591 -0.13906 -0.143754 -0.147709 -0.152134 -0.157522 -0.161628 -0.165394 -0.170215 -0.174113 -0.176863 -0.183024 -0.186365 -0.191104 -0.194512 -0.198522 -0.204298 -0.209421 0.0 -0.218217 -0.221056 -0.227706 -0.231517 -0.236947 -0.239514 0.0 0.0 -0.253962 -0.258654 -0.264959 -0.269179 -0.275599 -0.279541 -0.284532 -0.291035 -0.294511 -0.300607 -0.307716 -0.312631 -0.316855 -0.323435 -0.32926 -0.336722 -0.34153 -0.347124 -0.355978 -0.364469 -0.376392 -0.389446 -0.413477 -0.456368 -0.518982 -0.667376 -0.687504 -0.690741 -0.702372
0.678078 0.670741 0.670055 0.662094 0.656201 0.65985 0.656697 0.651564 0.601541 0.475067 0.394636 0.382488 0.364764 0.336484 0.325483 0.320959 0.316265 0.31132 0.308164 0.302199 0.297488 0.292878 0.288781 0.28403 0.27954 0.275533 0.270824 0.266362 0.262807 0.257393 0.253755 0.248111 0.243634 0.236571 0.222446 0.189115 0.179939 0.176739 0.169695 0.0 0.0 0.0 0.0 0.0 0.152731 0.149822 0.147978 0.149036 0.141891 0.139632 0.134971 0.131508 0.128883 0.125564 0.122608 0.118685 0.114941 0.111436 0.108849 0.1052 0.102242 0.0985097 0.0952956 0.0918969 0.0888911 0.0856907 0.082179 0.0785987 0.0751533 0.0710749 0.0676511 0.064633 0.0 0.0571488 0.0 0.0494072 0.0457632 0.0420174 0.0384992 0.0347954 0.0310681 0.0272999 0.0237879 0.0198935 0.0160671 0.0120988 0.00823417 0.00431576 0.000393917 -0.00355958 -0.00755873 -0.0115938 -0.0157583 -0.0198057 -0.0238775 -0.028422 -0.0327839 0.0 0.0 -0.0453377 0.0 0.0 0.0 0.0 -0.0660195 0.0 0.0 -0.0787445 -0.0827318 -0.0875437 -0.0917779 -0.0954583 -0.100263 0.0 -0.108865 -0.112276 -0.117608 -0.121577 0.0 -0.130526 -0.134327 -0.138989 -0.143225 -0.147121 -0.151925 -0.156312 -0.160617 -0.164022 -0.168807 -0.172819 -0.17667 -0.182353 -0.185732 -0.190456 -0.194301 -0.19796 0.0 -0.208714 0.0 -0.217732 -0.222552 0.0 -0.23107 -0.235063 0.0 -0.24381 0.0 -0.254205 -0.258902 -0.263695 -0.267043 -0.273663 -0.277333 -0.283099 -0.288836 -0.294038 -0.299786 -0.306017 -0.310378 -0.315281 -0.323017 -0.326075 -0.336104 -0.339767 -0.349183 -0.356896 -0.367678 -0.379848 -0.397534 -0.439028 -0.479765 -0.630894 -0.675091 -0.681479 -0.685188 -0.692268
0.679195 0.679027 0.671808 0.665791 0.675599 0.669943 0.660249 0.619135 0.499393 0.399902 0.386347 0.375196 0.360855 0.341567 0.325993 0.32063 0.316032 0.311538 0.306879 0.302323 0.296754 0.292072 0.288815 0.284389 0.280133 0.275407 0.270622 0.265935 0.262238 0.256833 0.253782 0.248138 0.243869 0.238168 0.230981 0.200178 0.183502 0.177894 0.171755 0.0 0.0 0.0 0.0 0.0 0.0 0.15026 0.148043 0.145817 0.140869 0.137052 0.135356 0.131246 0.128363 0.125316 0.122117 0.11833 0.11491 0.111635 0.108453 0.105351 0.102284 0.0988151 0.0953026 0.0923636 0.0892802 0.0856968 0.081969 0.0788618 0.0753793 0.0713595 0.0679428 0.0644705 0.0609266 0.0 0.0534294 0.0494104 0.0458399 0.0423448 0.038514 0.0349307 0.0309714 0.0274747 0.0237969 0.0198948 0.0160432 0.012092 0.00829608 0.00432541 0.000396866 -0.00357954 -0.00759855 -0.0117181 -0.0159399 -0.0201233 0.0 0.0 -0.0326705 0.0 0.0 0.0 -0.0495488 0.0 0.0 0.0 0.0 0.0 -0.0745049 -0.0784962 -0.0827618 -0.0873457 -0.0907417 -0.0957447 -0.100036 -0.103791 -0.10843 -0.112482 -0.117412 -0.12148 -0.125173 -0.130422 -0.133634 -0.137872 -0.142945 -0.147176 -0.150705 -0.155329 -0.158398 -0.162269 -0.168086 -0.171528 -0.17581 -0.1801 -0.183642 -0.190308 0.0 -0.198441 -0.201085 -0.20463 -0.212097 -0.216873 -0.220713 -0.226636 -0.23303 -0.234611 -0.240532 -0.245037 -0.248907 -0.25394 -0.258409 -0.262282 -0.267614 -0.272752 -0.276407 -0.2837 -0.288375 -0.294912 -0.299822 -0.305707 -0.309537 -0.31407 -0.3207 -0.327957 -0.332971 -0.341042 -0.347015 -0.357137 -0.371092 -0.384216 -0.418057 -0.455919 -0.579292 -0.661334 -0.674106 -0.679827 -0.681856 -0.662805
0.6884 0.685308 0.690416 0.685357 0.677645 0.669087 0.635359 0.513694 0.402741 0.385357 0.378857 0.366147 0.353671 0.341617 0.328664 0.319106 0.31444 0.310238 0.304981 0.300975 0.295512 0.291691 0.287446 0.284346 0.279689 0.275443 0.269572 0.266273 0.261073 0.256277 0.251791 0.246324 0.242715 0.237718 0.232215 0.224134 0.191839 0.188023 0.173507 0.165383 0.0 0.0 0.0 0.0 0.0 0.150011 0.146763 0.145225 0.140539 0.135817 0.133827 0.131531 0.128375 0.125758 0.12217 0.118705 0.114921 0.110884 0.108941 0.105324 0.102671 0.0993205 0.0955658 0.0924939 0.0892875 0.0857038 0.0825962 0.0785847 0.074772 0.071738 0.0682572 0.0 0.0 0.0 0.0 0.0496537 0.0 0.0419962 0.0387261 0.0349333 0.0312697 0.0274248 0.0237986 0.019977 0.0160693 0.0121609 0.00833761 0.0043686 0.000401036 -0.00361488 -0.00770557 -0.011878 -0.0158887 -0.0200173 -0.0242905 0.0 -0.0327017 -0.0368548 -0.0404321 0.0 0.0 -0.0532979 0.0 0.0 -0.0654666 0.0 0.0 -0.0781103 -0.0825011 -0.0865873 -0.0902944 -0.0953889 -0.0995773 -0.103191 -0.107996 -0.112557 -0.116399 -0.12043 -0.124562 -0.12877 -0.133373 -0.136917 -0.141629 -0.145393 -0.148826 -0.153896 -0.158088 -0.162332 -0.166584 -0.170842 -0.175107 -0.178219 -0.185336 -0.188448 -0.193492 -0.196901 -0.201934 -0.205558 0.0 0.0 -0.22138 -0.22509 0.0 0.0 -0.238827 -0.241816 -0.247931 -0.252067 -0.257919 -0.261101 -0.267262 -0.271609 -0.277322 -0.282114 -0.286845 -0.293022 -0.297561 -0.303845 -0.307557 -0.312774 -0.320564 -0.326162 -0.332551 -0.340807 -0.349856 -0.361387 -0.37491 -0.399842 -0.436555 -0.523224 -0.647443 -0.660904 -0.670013 -0.675024 -0.681187 -0.596057
0.707065 0.70272 0.695745 0.684928 0.669992 0.644823 0.549877 0.404188 0.384011 0.376658 0.367796 0.360136 0.348806 0.339104 0.330404 0.318973 0.313216 0.309033 0.303617 0.300848 0.294959 0.291146 0.287572 0.283085 0.275482 0.273434 0.268992 0.264483 0.259988 0.254842 0.251826 0.245081 0.241355 0.237613 0.23238 0.226333 0.217459 0.195124 0.175386 0.169406 0.162583 0.0 0.0 0.0 0.0 0.0 0.144243 0.14317 0.141589 0.137369 0.13342 0.131728 0.128433 0.124825 0.122141 0.118069 0.1145 0.111466 0.10851 0.105904 0.102578 0.0992637 0.0960533 0.0926866 0.0892369 0.0857116 0.082037 0.0788752 0.075441 0.071721 0.0682411 0.0 0.0609758 0.0576038 0.0 0.0497058 0.0 0.0 0.0385939 0.0350914 0.031371 0.0276087 0.0238154 0.0200967 0.0161405 0.0121959 0.00833828 0.00441854 0.000403749 -0.0036678 -0.00774554 -0.0118789 0.0 -0.0198816 0.0 -0.0281676 0.0 -0.0359141 -0.0407491 -0.0450421 -0.0488168 -0.0531609 -0.057221 -0.0614366 0.0 -0.0700953 -0.074408 -0.0779558 -0.082557 -0.0867992 -0.090677 -0.0944467 -0.099207 -0.10241 -0.106803 -0.11168 -0.115148 -0.119593 -0.123697 -0.127497 -0.131941 -0.136125 -0.140855 -0.143911 -0.148578 -0.153052 -0.157035 -0.16235 -0.165426 -0.170811 -0.173478 -0.179401 -0.183304 -0.187751 -0.193006 -0.19681 -0.202077 0.0 -0.208941 0.0 -0.216978 -0.222696 -0.226276 -0.232969 -0.237333 -0.241779 -0.246237 -0.251296 -0.256166 -0.261594 -0.266992 -0.271492 -0.277043 -0.280856 -0.285072 -0.29206 -0.295817 -0.30216 -0.307605 -0.313627 -0.32134 -0.326123 -0.33354 -0.342665 -0.351934 -0.365743 -0.386065 -0.424821 -0.477174 -0.624235 -0.645982 -0.655815 -0.665823 -0.672632 -0.675448 -0.509811
0.716077 0.70308 0.692221 0.681012 0.667529 0.591386 0.429397 0.389241 0.377646 0.371589 0.361804 0.353837 0.344622 0.33888 0.333463 0.320138 0.314363 0.308011 0.302787 0.29977 0.295095 0.28968 0.286543 0.28199 0.275287 0.274109 0.26888 0.263992 0.25898 0.25444 0.249914 0.245544 0.241252 0.23553 0.232213 0.226037 0.221488 0.212847 0.194481 0.167852 0.163793 0.161158 0.0 0.0 0.0 0.0 0.0 0.0 0.141064 0.137001 0.137973 0.131789 0.128492 0.124753 0.122029 0.118163 0.115103 0.111631 0.108669 0.106379 0.102692 0.0995724 0.0959358 0.0927269 0.0890106 0.0860872 0.0824501 0.0791664 0.075473 0.0714716 0.0684244 0.0647585 0.0609031 0.0571673 0.053357 0.0497104 0.0 0.0425178 0.0388683 0.0351612 0.0314726 0.0276285 0.0238547 0.0200363 0.0162719 0.0123103 0.00841835 0.00448193 0.000409389 0.0 -0.00780411 0.0 -0.0161623 0.0 -0.0243162 0.0 0.0 0.0 -0.0407408 0.0 -0.049213 -0.0528355 -0.0571586 -0.0614424 -0.0654009 0.0 -0.0738473 -0.0775943 -0.0816421 -0.0856596 -0.0900977 -0.0936172 -0.0976988 -0.102116 -0.106244 -0.110343 -0.114068 -0.117662 -0.121881 -0.127057 -0.13094 -0.135375 -0.139666 -0.143371 -0.148683 -0.151938 -0.157287 -0.160316 -0.166083 -0.170178 -0.174788 -0.179213 -0.182571 -0.187278 -0.190373 -0.195911 -0.200272 -0.204465 -0.209587 0.0 -0.218679 0.0 -0.226243 -0.230756 -0.237369 -0.241816 -0.246059 -0.250529 -0.255833 -0.260041 -0.265104 -0.2713 -0.274772 -0.280497 -0.285615 -0.290263 -0.296634 -0.301432 -0.306955 -0.313414 -0.320308 -0.325904 -0.33388 -0.344624 -0.356234 -0.37538 -0.411396 -0.451324 -0.589651 -0.637061 -0.6416 -0.651161 -0.663582 -0.669925 -0.672261 -0.449307
0.713953 0.698511 0.688486 0.677217 0.646295 0.497362 0.395972 0.382793 0.374249 0.36592 0.359592 0.349892 0.343533 0.338281 0.330435 0.322603 0.310329 0.308608 0.302403 0.297828 0.294209 0.290407 0.285105 0.281227 0.276459 0.27195 0.267222 0.264267 0.258052 0.254337 0.249957 0.244237 0.240874 0.235431 0.231178 0.226468 0.220362 0.21623 0.208754 0.181342 0.16453 0.160949 0.0 0.0 0.0 0.0 0.0 0.144168 0.139753 0.137068 0.136448 0.132808 0.128465 0.124726 0.121794 0.118056 0.114606 0.111454 0.109124 0.106035 0.102704 0.0990207 0.0961703 0.0927988 0.0896685 0.0863226 0.0828371 0.0790463 0.075604 0.0716425 0.0685864 0.0649741 0.0611649 0.0 0.0536033 0.050035 0.0463431 0.0424138 0.0389092 0.0352202 0.0315251 0.0276226 0.023872 0.0201689 0.0162935 0.0125268 0.00857273 0.00448371 0.0 0.0 -0.0077771 0.0 0.0 0.0 -0.0241604 -0.0283327 0.0 -0.0363875 0.0 0.0 -0.0485506 -0.0528567 -0.0569611 0.0 0.0 -0.0693878 0.0 -0.0768645 -0.0813352 -0.0854393 -0.0886635 -0.0924248 -0.0970966 -0.101002 -0.105338 0.0 -0.113672 -0.11711 0.0 -0.126316 -0.130019 -0.134505 -0.137939 -0.142619 -0.146061 -0.152185 -0.156145 -0.160099 -0.164341 -0.168392 -0.174091 -0.177707 -0.182003 -0.18736 -0.190684 -0.19513 -0.198233 -0.203771 -0.207029 -0.213905 -0.218328 -0.219947 -0.227148 -0.230658 -0.236853 -0.240442 -0.245741 -0.251451 -0.254832 -0.259403 -0.264764 -0.269698 -0.273862 -0.278598 -0.284594 -0.289981 -0.294899 -0.301229 -0.306221 -0.312581 -0.318465 -0.326428 -0.335254 -0.344597 -0.365162 -0.393818 -0.425945 -0.53985 -0.627275 -0.633058 -0.640056 -0.650446 -0.658123 -0.666574 -0.644206 -0.418366
0.7115 0.698223 0.685761 0.668399 0.599689 0.419605 0.389756 0.379977 0.371981 0.361869 0.355497 0.348009 0.341483 0.335309 0.32863 0.323226 0.313216 0.308046 0.300965 0.295977 0.293242 0.289708 0.281764 0.279489 0.27499 0.270741 0.266188 0.262793 0.257426 0.253648 0.247907 0.244708 0.240151 0.234927 0.230347 0.226705 0.222335 0.217215 0.211205 0.202967 0.171861 0.162022 0.0 0.0 0.0 0.0 0.0 0.0 0.140415 0.137232 0.134269 0.133601 0.128129 0.124012 0.1211 0.117991 0.114425 0.111545 0.109175 0.106441 0.103096 0.0998288 0.0963739 0.093148 0.0897974 0.0867848 0.0829282 0.0792362 0.0753921 0.0723272 0.06897 0.0651485 0.0 0.0576956 0.0 0.0 0.0464663 0.0425269 0.0389135 0.0353794 0.031341 0.0277814 0.0239787 0.020283 0.0164452 0.0126604 0.0 0.00445872 0.0 0.0 -0.00776637 0.0 0.0 -0.0200846 -0.0241631 0.0 0.0 0.0 -0.0401943 -0.0445907 -0.0483239 0.0 0.0 0.0 0.0 0.0 0.0 -0.0768505 -0.0800572 0.0 -0.0881392 -0.0924362 0.0 -0.100071 -0.104465 -0.110008 -0.113414 -0.117656 -0.122278 -0.125387 -0.130466 -0.134322 -0.138457 -0.141997 -0.146169 -0.151708 -0.155144 -0.160361 -0.163532 -0.168719 -0.172572 -0.175411 -0.181923 -0.185564 -0.190827 -0.193484 -0.199448 -0.203745 -0.207434 -0.212494 -0.215667 -0.22182 -0.224381 -0.230495 -0.235091 -0.240486 -0.244922 -0.249445 -0.25391 -0.259377 -0.263888 -0.268493 -0.273437 -0.278897 -0.282916 -0.287689 -0.294874 -0.300251 -0.306109 -0.312736 -0.320347 -0.328156 -0.339347 -0.35511 -0.379011 -0.411294 -0.486095 -0.611537 -0.620789 -0.631546 -0.641563 -0.650169 -0.653642 -0.661488 -0.59005 -0.406359
0.708718 0.69761 0.685044 0.668783 0.546809 0.400848 0.385016 0.374575 0.368186 0.359839 0.353792 0.345642 0.340597 0.334721 0.32758 0.321175 0.314108 0.304349 0.301033 0.295173 0.292793 0.288171 0.283898 0.278733 0.274567 0.269615 0.265235 0.26178 0.257179 0.25186 0.247812 0.24284 0.238944 0.235588 0.229452 0.225235 0.218183 0.213841 0.207651 0.201851 0.194522 0.161992 0.159933 0.153925 0.0 0.0 0.0 0.0 0.0 0.0 0.133682 0.132256 0.127617 0.123299 0.12116 0.118009 0.115189 0.112018 0.109854 0.106492 0.102801 0.0994449 0.0968978 0.0934982 0.0902808 0.0867963 0.0831821 0.0794012 0.0760892 0.072453 0.0 0.0651568 0.0615529 0.0 0.0 0.0501108 0.0463687 0.0426945 0.0389059 0.0352505 0.0315028 0.0278107 0.0241303 0.0203351 0.016727 0.0126657 0.00857723 0.00450752 0.000407694 0.0 -0.00777655 -0.0117707 -0.0159537 -0.0199795 0.0 0.0 0.0 0.0 -0.040018 0.0 0.0 -0.0523184 0.0 0.0 0.0 0.0 -0.072606 0.0 0.0 0.0 -0.0875355 0.0 -0.0957489 0.0 0.0 -0.109497 -0.113123 -0.117849 0.0 0.0 -0.130095 -0.13406 -0.138519 -0.142704 -0.145399 -0.151143 -0.155261 -0.159431 -0.162332 -0.168445 -0.171105 -0.176813 -0.180007 -0.18543 -0.189219 -0.194038 -0.198478 -0.202573 -0.207164 -0.21077 -0.216864 -0.221534 -0.225761 -0.230607 -0.234998 -0.239473 -0.244107 -0.248542 -0.253066 -0.257379 -0.262784 -0.267213 -0.271896 -0.277006 -0.282812 -0.288172 -0.293659 -0.299538 -0.305913 -0.312896 -0.320057 -0.330535 -0.344944 -0.367913 -0.398171 -0.444811 -0.590689 -0.607763 -0.616555 -0.628288 -0.636688 -0.645015 -0.653265 -0.661215 -0.506783 -0.399399
0.709364 0.695324 0.677905 0.654619 0.51152 0.397543 0.380807 0.375295 0.366032 0.358822 0.350602 0.344848 0.337205 0.332425 0.325223 0.321254 0.315278 0.308191 0.300311 0.293766 0.29098 0.286385 0.281145 0.277085 0.27118 0.268099 0.263588 0.259246 0.256337 0.250737 0.245479 0.241045 0.236485 0.230233 0.226613 0.220081 0.216162 0.211986 0.206267 0.202558 0.198599 0.183242 0.158656 0.153398 0.151649 0.0 0.0 0.0 0.0 0.0 0.133751 0.130729 0.128702 0.125128 0.120427 0.118028 0.115718 0.112912 0.110388 0.107327 0.103745 0.0998909 0.0975507 0.094003 0.0903823 0.0869218 0.082978 0.0793867 0.0762471 0.0 0.0688778 0.0651657 0.0 0.0578212 0.053348 0.0500375 0.0462863 0.0427542 0.0390096 0.0353883 0.0315859 0.0280048 0.0243416 0.0206486 0.0 0.0 0.00856041 0.00448396 0.0 0.0 -0.00769184 0.0 0.0 -0.0198506 0.0 0.0 0.0 0.0 0.0 0.0 0.0 0.0 0.0 0.0 0.0 0.0 -0.0725067 0.0 0.0 0.0 0.0 0.0 0.0 0.0 0.0 -0.108197 -0.113788 0.0 -0.121948 -0.125803 -0.129099 -0.133718 -0.136879 -0.142171 -0.144983 -0.1499 -0.152867 -0.158311 -0.163587 -0.167317 -0.1716 -0.175736 -0.18096 -0.185465 -0.188179 -0.19396 -0.197748 -0.202371 -0.204983 -0.211882 -0.216072 -0.220465 -0.224938 -0.228747 -0.234978 -0.238321 -0.243727 -0.246762 -0.25245 -0.256677 -0.261219 -0.265623 -0.271158 -0.276582 -0.282383 -0.287148 -0.293217 -0.299783 -0.304666 -0.312972 -0.322406 -0.33412 -0.353169 -0.391077 -0.417636 -0.559967 -0.598872 -0.606009 -0.614166 -0.624315 -0.633186 -0.642847 -0.649021 -0.649052 -0.44307 -0.398721
0.70353 0.687315 0.678987 0.651301 0.499455 0.393391 0.383859 0.373533 0.364394 0.357106 0.350997 0.343765 0.337297 0.330895 0.324278 0.31912 0.312993 0.307374 0.300831 0.295494 0.28917 0.285868 0.28022 0.276665 0.271729 0.267533 0.2621 0.256486 0.2531 0.247556 0.242571 0.238189 0.232007 0.228438 0.223173 0.219603 0.215048 0.210387 0.205815 0.202904 0.197808 0.193339 0.174215 0.155208 0.151679 0.0 0.0 0.0 0.0 0.0 0.0 0.0 0.127838 0.125581 0.122456 0.118495 0.115738 0.112931 0.110553 0.106953 0.103727 0.100504 0.097247 0.0940486 0.0908974 0.0 0.0837199 0.0802495 0.0 0.072404 0.0692417 0.0647996 0.0615899 0.0 0.0539751 0.0501406 0.0462929 0.0428957 0.0391259 0.0354487 0.0317286 0.0283896 0.0247392 0.0205955 0.0166114 0.0125406 0.00846174 0.00445239 0.0 0.0 0.0 0.0 0.0 0.0 0.0 0.0 0.0 0.0 0.0 0.0 0.0 0.0 0.0 0.0 0.0 0.0 -0.07184 0.0 0.0 0.0 0.0 0.0 0.0 0.0 0.0 -0.108215 0.0 -0.118099 -0.121858 -0.124992 0.0 0.0 -0.137901 -0.141339 -0.145361 -0.150154 0.0 -0.15901 -0.161851 -0.166896 -0.171168 -0.175295 -0.180022 -0.184284 -0.18833 -0.192668 -0.197493 -0.200539 -0.206014 -0.210857 -0.215348 -0.219857 -0.224186 -0.228458 -0.232045 -0.237243 -0.242342 -0.24682 -0.250941 -0.255826 -0.260896 -0.26553 -0.271785 -0.276407 -0.282288 -0.286969 -0.293463 -0.298906 -0.306683 -0.315558 -0.324307 -0.341215 -0.374507 -0.398875 -0.513731 -0.586322 -0.595466 -0.60336 -0.612806 -0.623145 -0.631686 -0.639839 -0.645433 -0.619855 -0.417406 -0.398835
0.704544 0.682463 0.672866 0.651828 0.499606 0.394256 0.381134 0.371673 0.363582 0.356001 0.348712 0.342296 0.335848 0.3308 0.324276 0.317916 0.312716 0.30755 0.303212 0.295924 0.290877 0.28173 0.279466 0.2738 0.269312 0.263655 0.259219 0.252966 0.24904 0.244009 0.24075 0.233772 0.230809 0.226439 0.221816 0.217679 0.214581 0.20917 0.204683 0.202464 0.197911 0.193381 0.185972 0.1677 0.153885 0.148187 0.0 0.0 0.0 0.0 0.0 0.0 0.12937 0.125604 0.122395 0.11941 0.115799 0.113485 0.110684 0.107863 0.104709 0.101384 0.0980939 0.0943716 0.090618 0.0873451 0.0834096 0.0800821 0.076271 0.0726723 0.0689432 0.0653527 0.0 0.0577464 0.0539146 0.0503082 0.0463738 0.0429835 0.0393783 0.0356872 0.0322273 0.0285671 0.0247131 0.0 0.0 0.0 0.0 0.0 0.0 0.0 0.0 0.0 0.0 0.0 0.0 0.0 0.0 0.0 0.0 0.0 0.0 0.0 0.0 0.0 0.0 0.0 -0.0720918 0.0 0.0 0.0 0.0 0.0 0.0 0.0 0.0 0.0 0.0 0.0 0.0 0.0 -0.128793 -0.132879 -0.137344 -0.141066 -0.144507 -0.14973 -0.153996 -0.157272 -0.161835 -0.164313 -0.169811 -0.175331 -0.178869 -0.183714 -0.187918 -0.19022 -0.196471 -0.201249 -0.205566 -0.209897 -0.214304 -0.218597 -0.222767 -0.227831 -0.231059 -0.236948 -0.241032 -0.245854 -0.24966 -0.254827 -0.259648 -0.264262 -0.269616 -0.27648 -0.282281 -0.286962 -0.293628 -0.300463 -0.307825 -0.319494 -0.332937 -0.360586 -0.390152 -0.468433 -0.576536 -0.582875 -0.592665 -0.600117 -0.610233 -0.61971 -0.631141 -0.633863 -0.642718 -0.558749 -0.402697 -0.400304
0.698047 0.682573 0.672307 0.649189 0.533935 0.39769 0.38136 0.369923 0.364618 0.356213 0.350911 0.341029 0.335468 0.328804 0.323718 0.318012 0.311899 0.306923 0.301003 0.296184 0.289505 0.284088 0.276973 0.271755 0.265132 0.261597 0.25502 0.251509 0.245358 0.243042 0.237992 0.233691 0.229822 0.224375 0.221738 0.217668 0.213536 0.208778 0.204795 0.202026 0.19671 0.192496 0.186698 0.181647 0.164195 0.150822 0.146724 0.0 0.0 0.0 0.0 0.0 0.0 0.0 0.0 0.118824 0.116294 0.114117 0.111074 0.10824 0.104694 0.100971 0.0981438 0.0947572 0.0912238 0.0875019 0.0840997 0.0 0.0765053 0.0728481 0.0690213 0.0654264 0.0617869 0.0578114 0.0541645 0.0503165 0.0467948 0.0432072 0.0398406 0.0363146 0.0325981 0.0286063 0.0247171 0.0 0.0 0.0 0.0 0.0 0.0 0.0 0.0 0.0 0.0 0.0 0.0 0.0 0.0 0.0 0.0 0.0 0.0 0.0 0.0 0.0 0.0 0.0 -0.0716013 -0.0745992 0.0 0.0 0.0 0.0 0.0 0.0 0.0 0.0 0.0 0.0 -0.120438 0.0 -0.128857 -0.132905 -0.136748 -0.140452 -0.145419 -0.149262 -0.15319 -0.157784 -0.16079 -0.165506 -0.17057 -0.174049 -0.178314 -0.183146 -0.186658 -0.19148 -0.196931 -0.199785 -0.204937 -0.209002 -0.2141 -0.218455 -0.222824 -0.22707 -0.231674 -0.235664 -0.239293 -0.245112 -0.248456 -0.254592 -0.2591 -0.264413 -0.269451 -0.276477 -0.280128 -0.287045 -0.293713 -0.300811 -0.311089 -0.323347 -0.343305 -0.374164 -0.427069 -0.560752 -0.573339 -0.580512 -0.588781 -0.597688 -0.610323 -0.614524 -0.627879 -0.634066 -0.637101 -0.483298 -0.399726 -0.399985
0.69213 0.681344 0.665761 0.656427 0.577599 0.406895 0.378542 0.370151 0.363716 0.356231 0.347742 0.340356 0.33374 0.328339 0.32401 0.317188 0.310721 0.304506 0.30092 0.295667 0.289765 0.285103 0.279547 0.271755 0.263845 0.257724 0.253774 0.249368 0.244303 0.242521 0.2369 0.230202 0.229396 0.223614 0.219917 0.216935 0.211977 0.209085 0.203607 0.201288 0.19664 0.192136 0.188052 0.183305 0.177286 0.162013 0.146966 0.144866 0.140184 0.0 0.134844 0.0 0.0 0.126088 0.122948 0.0 0.117144 0.113912 0.111797 0.10901 0.104749 0.101489 0.0986102 0.0950519 0.0914181 0.0879987 0.0842777 0.080369 0.0769124 0.0730015 0.0692329 0.0 0.0619946 0.0583563 0.0 0.0507891 0.0468916 0.0433095 0.0403652 0.0365319 0.0 0.0286025 0.0 0.0 0.0 0.0 0.0 0.0 0.0 0.0 -0.00765948 0.0 0.0 0.0 0.0 0.0 -0.03175 0.0 0.0 0.0 0.0 -0.0511462 -0.0557461 -0.0596376 0.0 0.0 0.0 0.0 0.0 0.0 -0.086751 0.0 0.0 0.0 0.0 0.0 0.0 0.0 0.0 -0.124269 -0.129236 -0.13148 -0.137026 -0.140011 -0.144568 -0.148615 -0.152711 -0.156623 -0.160924 -0.164689 -0.16963 -0.173508 -0.178248 -0.181085 -0.18591 -0.19089 -0.195678 -0.199594 -0.203939 -0.207985 -0.212741 -0.216478 -0.220876 -0.226518 -0.230069 -0.234525 -0.238711 -0.243198 -0.248378 -0.254741 -0.258788 -0.265121 -0.269291 -0.274118 -0.282364 -0.287048 -0.296195 -0.30481 -0.315329 -0.332222 -0.365503 -0.397999 -0.53258 -0.564356 -0.571018 -0.577669 -0.586394 -0.597484 -0.606341 -0.61473 -0.623367 -0.628109 -0.62556 -0.43503 -0.398423 -0.402256
0.693181 0.681029 0.664225 0.653922 0.620223 0.473333 0.388154 0.373398 0.365073 0.355548 0.348162 0.339394 0.333564 0.32683 0.321959 0.316925 0.309092 0.304338 0.298366 0.293412 0.288916 0.284098 0.279304 0.274046 0.268346 0.262466 0.255328 0.248756 0.245427 0.240161 0.235739 0.232189 0.227858 0.223678 0.219979 0.216073 0.211972 0.206926 0.204158 0.200552 0.195324 0.19044 0.187361 0.18402 0.177386 0.173583 0.158881 0.143637 0.139033 0.136654 0.134313 0.0 0.0 0.0 0.0 0.120297 0.117249 0.114623 0.112338 0.109568 0.105735 0.101941 0.0989821 0.095225 0.0918496 0.0883556 0.0845648 0.0804623 0.0770013 0.0733425 0.0 0.0659103 0.0620457 0.0584411 0.0546491 0.0511185 0.0475651 0.0440492 0.0404342 0.0362831 0.0325207 0.0 0.0 0.0 0.0 0.0 0.0 0.0 0.0 0.0 0.0 0.0 0.0 -0.0196034 0.0 -0.027431 0.0 -0.035496 -0.0394878 0.0 0.0 -0.0513605 0.0 -0.0591393 -0.0631374 -0.0671812 0.0 0.0 0.0 0.0 0.0 0.0 0.0 0.0 0.0 0.0 0.0 0.0 0.0 -0.123841 0.0 -0.13272 -0.135643 -0.1397 -0.142926 -0.147425 -0.152235 -0.156469 -0.160079 -0.16483 -0.168897 -0.172547 -0.175803 -0.181076 -0.185845 -0.190245 -0.195019 -0.198256 -0.202388 -0.206843 -0.212156 -0.216342 -0.220604 -0.224945 -0.229719 -0.233673 -0.237627 -0.242316 -0.24763 -0.253297 -0.257552 -0.264258 -0.269535 -0.275344 -0.282454 -0.29 -0.297915 -0.307514 -0.323634 -0.354811 -0.377355 -0.503367 -0.556373 -0.559034 -0.568706 -0.575324 -0.585705 -0.595276 -0.603796 -0.614845 -0.621068 -0.631208 -0.588555 -0.413094 -0.399121 -0.40476
0.690137 0.674305 0.666257 0.651209 0.634854 0.582439 0.427909 0.377382 0.365619 0.356892 0.34839 0.340402 0.333589 0.327235 0.321792 0.314167 0.309202 0.303276 0.297939 0.293252 0.287471 0.283181 0.27807 0.273729 0.269159 0.263975 0.257509 0.252044 0.245205 0.241195 0.234727 0.231621 0.226741 0.221554 0.219104 0.215807 0.211258 0.206796 0.20372 0.199879 0.194189 0.191308 0.187071 0.18329 0.177868 0.172832 0.167328 0.158254 0.143265 0.13664 0.0 0.0 0.0 0.0 0.0 0.0 0.117828 0.115069 0.112364 0.109557 0.106241 0.102462 0.0992596 0.0960446 0.0921938 0.0881201 0.0842853 0.0805824 0.0769681 0.0735211 0.0699904 0.0657984 0.0622746 0.0586189 0.0552283 0.0515125 0.0481506 0.0444644 0.0 0.0364235 0.0 0.0 0.0 0.0204698 0.0 0.0 0.0 0.0 0.0 0.0 0.0 0.0 0.0 0.0 -0.0233362 -0.0273268 -0.0315209 -0.035253 -0.039145 -0.0430502 -0.0471066 0.0 -0.0550207 0.0 0.0 0.0 0.0 0.0 0.0 0.0 0.0 0.0 0.0 0.0 0.0 0.0 0.0 0.0 0.0 0.0 -0.12679 0.0 0.0 -0.139605 -0.143667 -0.148051 -0.1519 -0.156317 -0.160366 -0.163663 -0.169303 -0.171059 -0.176283 -0.18107 -0.184762 -0.188964 -0.193119 -0.197344 -0.202013 -0.206462 -0.210673 -0.215224 -0.219933 -0.224194 -0.227563 -0.233604 -0.237268 -0.242172 -0.248232 -0.25216 -0.258487 -0.263399 -0.269785 -0.277065 -0.281638 -0.290351 -0.30212 -0.316913 -0.342272 -0.363177 -0.459353 -0.542699 -0.548699 -0.556382 -0.567561 -0.575926 -0.579165 -0.595496 -0.60351 -0.609064 -0.616784 -0.62431 -0.523789 -0.401872 -0.400936 -0.406039
0.690643 0.670857 0.660295 0.651469 0.641604 0.624762 0.547586 0.409234 0.37058 0.358749 0.348624 0.34073 0.335556 0.327073 0.321725 0.315674 0.309043 0.302669 0.296543 0.29118 0.286288 0.283029 0.277088 0.2717 0.267725 0.262563 0.258064 0.253658 0.248366 0.243267 0.238571 0.231412 0.226674 0.223201 0.218366 0.213567 0.209061 0.206796 0.202478 0.19769 0.192997 0.189617 0.186042 0.18195 0.177919 0.17288 0.168256 0.164019 0.156884 0.14404 0.134617 0.131889 0.0 0.0 0.0 0.0 0.118369 0.115364 0.113055 0.110119 0.0 0.10315 0.0999219 0.0961282 0.0925098 0.0881683 0.0845205 0.0812197 0.0777962 0.0737707 0.0700056 0.0663977 0.0626814 0.0591295 0.0557395 0.0519394 0.048205 0.0445143 0.0 0.0 0.0324249 0.0 0.0 0.0 0.0162436 0.0 0.0 0.0043953 0.00039212 -0.0035643 0.0 -0.011496 0.0 -0.0193001 -0.0232329 -0.0273324 0.0 0.0 -0.0393344 0.0 0.0 0.0 -0.0549134 -0.0591819 0.0 0.0 0.0 0.0 0.0 0.0 0.0 0.0 0.0 0.0 0.0 0.0 0.0 0.0 0.0 0.0 0.0 0.0 0.0 -0.138869 0.0 -0.147727 -0.150588 -0.155545 -0.158739 -0.163557 -0.166974 -0.171741 -0.175574 -0.179957 -0.184645 -0.187744 -0.193176 -0.197402 -0.201827 -0.20583 -0.21003 -0.21424 -0.218596 -0.223378 -0.227358 -0.23127 -0.237924 -0.242693 -0.246819 -0.253159 -0.25997 -0.264436 -0.27084 -0.277243 -0.285796 -0.296514 -0.307531 -0.333188 -0.350251 -0.416902 -0.529044 -0.537452 -0.547218 -0.555926 -0.56208 -0.572914 -0.584059 -0.590083 -0.601599 -0.607126 -0.615556 -0.616993 -0.456608 -0.401703 -0.402206 -0.406426
0.686023 0.668997 0.660016 0.651192 0.64198 0.626838 0.606326 0.524517 0.401908 0.363345 0.353053 0.342341 0.335788 0.326534 0.32063 0.31552 0.309164 0.302337 0.29586 0.291901 0.286311 0.280601 0.276443 0.272127 0.266938 0.261077 0.256834 0.253672 0.248153 0.244459 0.238581 0.233981 0.228846 0.223276 0.217497 0.211988 0.209194 0.205405 0.201549 0.197144 0.193414 0.188801 0.184959 0.181894 0.177972 0.172931 0.168876 0.16437 0.158657 0.154767 0.145297 0.135348 0.1292 0.125782 0.0 0.121282 0.118951 0.0 0.114007 0.110146 0.0 0.103209 0.0999145 0.0959056 0.0930042 0.08867 0.0858386 0.081755 0.0778143 0.0742315 0.0703094 0.0669563 0.0632072 0.0601023 0.0 0.052191 0.0 0.0 0.0 0.0 0.0 0.0 0.0240929 0.0201484 0.0162721 0.0 0.00832374 0.00436267 0.000396354 -0.00355628 -0.00751938 -0.0114666 -0.015283 -0.0191667 -0.0230218 0.0 0.0 -0.034931 -0.0390649 0.0 0.0 0.0 0.0 0.0 0.0 0.0 0.0 0.0 0.0 0.0 0.0 0.0 0.0 0.0 0.0 0.0 0.0 0.0 0.0 -0.122302 -0.127246 -0.130396 -0.134538 -0.138178 -0.143963 -0.14695 -0.150583 -0.155397 -0.157752 -0.161789 -0.166454 -0.171051 -0.174543 -0.179068 -0.183283 -0.186989 -0.192228 -0.196072 -0.200531 -0.204697 -0.20881 -0.213194 -0.217931 -0.222019 -0.226461 -0.231561 -0.237717 -0.241528 -0.247879 -0.253173 -0.259986 -0.264768 -0.270859 -0.27922 -0.28847 -0.302014 -0.325614 -0.344266 -0.382166 -0.512275 -0.528339 -0.536369 -0.545089 -0.553387 -0.561919 -0.571086 -0.579325 -0.588508 -0.59714 -0.607376 -0.614548 -0.602007 -0.419632 -0.3999 -0.402707 -0.408171
0.683011 0.673916 0.657411 0.649719 0.638249 0.627538 0.61819 0.599023 0.517092 0.389905 0.360684 0.343567 0.337673 0.326862 0.320762 0.314259 0.307554 0.302639 0.2966 0.290884 0.285136 0.280458 0.275054 0.269451 0.264707 0.259752 0.256075 0.252237 0.247869 0.242851 0.238232 0.23435 0.228858 0.224931 0.21912 0.214898 0.209782 0.202558 0.197145 0.193012 0.18913 0.184492 0.180516 0.177437 0.172799 0.168995 0.165033 0.161583 0.157371 0.153272 0.148951 0.145293 0.136029 0.128708 0.124109 0.121315 0.120245 0.11783 0.114739 0.11089 0.107664 0.103734 0.100804 0.0965758 0.0933524 0.0895973 0.0 0.0821109 0.0781531 0.0748103 0.0710568 0.0678715 0.0 0.0606149 0.0 0.0 0.0 0.0 0.0 0.0 0.0319743 0.0279294 0.0 0.0200596 0.0160655 0.0120785 0.0 0.0043247 0.000389972 -0.00351532 -0.00741901 0.0 -0.0152579 -0.0192309 0.0 0.0 0.0 0.0 0.0 0.0 0.0 -0.0510108 0.0 0.0 0.0 0.0 0.0 0.0 0.0 0.0 0.0 0.0 0.0 0.0 0.0 -0.106226 0.0 -0.11409 -0.117344 -0.123093 -0.127359 -0.132331 -0.135367 -0.13989 -0.143651 -0.147492 -0.15072 -0.153192 -0.156324 -0.161737 -0.165626 -0.16978 -0.174218 -0.178404 -0.182263 -0.186295 -0.191283 -0.195349 -0.199422 -0.204513 -0.208881 -0.212873 -0.215997 -0.222233 -0.22668 -0.231219 -0.237008 -0.241984 -0.246922 -0.252505 -0.258533 -0.264947 -0.271604 -0.282671 -0.295213 -0.314767 -0.334986 -0.358924 -0.486268 -0.519837 -0.525003 -0.534093 -0.539684 -0.550665 -0.558965 -0.567601 -0.579073 -0.587951 -0.592895 -0.603591 -0.608923 -0.547885 -0.408465 -0.400075 -0.405437 -0.409363
0.682983 0.664747 0.655708 0.647379 0.638431 0.624827 0.61752 0.602518 0.586711 0.503843 0.388685 0.352277 0.337724 0.328915 0.321937 0.314487 0.307869 0.300698 0.295395 0.290395 0.284825 0.279813 0.273919 0.268087 0.264974 0.259697 0.255398 0.251341 0.246537 0.24287 0.238468 0.2328 0.229502 0.225083 0.220277 0.213392 0.210828 0.205674 0.200382 0.194661 0.187705 0.182339 0.178466 0.173315 0.168715 0.165485 0.162073 0.158187 0.154405 0.151152 0.147871 0.143921 0.1398 0.136343 0.132193 0.12802 0.123315 0.119353 0.116065 0.111528 0.107108 0.104992 0.101151 0.0974938 0.094263 0.0899605 0.0865861 0.0829588 0.0790588 0.0754838 0.071872 0.0679305 0.0 0.0 0.0 0.0 0.0 0.0 0.0 0.0 0.0318732 0.0 0.0 0.0 0.0 0.0 0.0 0.0 0.0 0.0 0.0 0.0 0.0 0.0 0.0 0.0 -0.0309216 0.0 0.0 0.0 0.0 0.0 0.0 0.0 -0.0620811 0.0 0.0 0.0 0.0 0.0 0.0 0.0 0.0 0.0 0.0 0.0 0.0 -0.114405 -0.118661 -0.122066 -0.125907 0.0 0.0 0.0 0.0 -0.14563 0.0 -0.153239 -0.156422 -0.161788 -0.164904 -0.169252 -0.173732 -0.178407 -0.181529 -0.186126 -0.190577 -0.194568 -0.199492 -0.203449 -0.207731 -0.212029 -0.216276 -0.22047 -0.224745 -0.231376 -0.236014 -0.241488 -0.246044 -0.252604 -0.25972 -0.266393 -0.275965 -0.286455 -0.304287 -0.329474 -0.343173 -0.456845 -0.510063 -0.517365 -0.525774 -0.532288 -0.542639 -0.551095 -0.556986 -0.566772 -0.57316 -0.581047 -0.592443 -0.600956 -0.606462 -0.486684 -0.403136 -0.40245 -0.4074 -0.411127
0.679879 0.664952 0.656243 0.638011 0.628971 0.62555 0.612004 0.603946 0.592119 0.578605 0.503178 0.387969 0.343117 0.331359 0.322177 0.314814 0.30828 0.30029 0.294018 0.289736 0.284003 0.278411 0.273869 0.26771 0.263716 0.258459 0.254102 0.24976 0.245659 0.241416 0.237111 0.231396 0.228613 0.223385 0.21888 0.214661 0.209742 0.206575 0.201512 0.197105 0.191646 0.183745 0.174251 0.170308 0.166975 0.162613 0.159633 0.156364 0.153121 0.149274 0.146698 0.142049 0.140022 0.136213 0.133282 0.128913 0.125364 0.0 0.0 0.114239 0.110276 0.105487 0.101884 0.0974291 0.0942599 0.0902968 0.0860416 0.082439 0.0 0.0759016 0.0720906 0.0679485 0.0 0.0 0.0 0.0 0.0 0.0 0.0 0.0 0.0 0.0 0.0 0.0 0.0 0.0 0.0 0.0 0.0 0.0 0.0 0.0 0.0 -0.0190308 0.0 -0.02681 0.0 0.0 0.0 0.0 0.0 0.0 0.0 0.0 -0.061903 0.0 0.0 0.0 0.0 0.0 0.0 0.0 0.0 0.0 0.0 0.0 -0.110751 0.0 0.0 -0.12252 0.0 0.0 0.0 0.0 0.0 -0.144222 -0.148294 -0.152138 -0.155686 -0.160127 -0.164494 -0.168727 -0.172599 -0.177026 -0.181252 -0.185263 -0.189221 -0.193244 -0.198327 -0.202134 -0.206454 -0.210991 -0.215151 -0.220486 -0.226365 -0.230899 -0.236035 -0.241584 -0.247642 -0.253622 -0.26037 -0.268319 -0.278568 -0.295307 -0.322665 -0.331386 -0.416217 -0.503514 -0.506486 -0.514542 -0.522089 -0.53086 -0.539879 -0.548581 -0.55608 -0.564579 -0.57223 -0.580307 -0.5919 -0.598953 -0.594745 -0.433441 -0.400514 -0.403408 -0.408261 -0.413237
0.67358 0.659183 0.651218 0.639647 0.630475 0.621254 0.612304 0.603616 0.594975 0.579087 0.561353 0.50464 0.383461 0.338307 0.327041 0.317189 0.308423 0.30133 0.296281 0.289868 0.284303 0.278874 0.272326 0.267828 0.263429 0.25865 0.252264 0.249867 0.244258 0.239965 0.23554 0.232987 0.227656 0.222102 0.219237 0.213953 0.209241 0.205639 0.200906 0.196388 0.192314 0.187313 0.181333 0.17037 0.165345 0.0 0.159222 0.0 0.152877 0.0 0.146278 0.143375 0.0 0.136041 0.133325 0.0 0.0 0.122979 0.0 0.0 0.110758 0.107115 0.103291 0.0987504 0.0950261 0.0910308 0.0 0.0828503 0.0798658 0.0754788 0.0 0.0 0.0 0.0 0.0 0.0 0.0 0.0 0.0 0.0 0.0 0.0 0.0 0.0 0.0 0.0 0.0 0.0 0.0 0.0 0.0 0.0 0.0 0.0 0.0 0.0 0.0 -0.0347154 0.0 0.0 0.0 0.0 0.0 0.0 0.0 0.0 0.0 0.0 0.0 0.0 -0.0846664 0.0 -0.0939981 0.0 0.0 0.0 0.0 0.0 0.0 0.0 0.0 0.0 0.0 0.0 -0.140208 -0.14368 -0.147784 -0.151663 -0.155937 -0.159728 -0.164241 -0.167833 -0.172389 -0.176868 -0.180012 -0.184054 -0.187927 -0.193317 -0.197412 -0.201516 -0.205761 -0.210679 -0.215438 -0.21948 -0.22576 -0.230852 -0.236278 -0.241685 -0.247821 -0.253806 -0.262034 -0.272935 -0.286879 -0.314948 -0.323472 -0.378004 -0.489248 -0.498519 -0.503445 -0.511635 -0.519778 -0.526017 -0.536938 -0.548173 -0.553151 -0.564751 -0.572804 -0.580082 -0.588806 -0.595921 -0.562172 -0.413898 -0.403093 -0.405363 -0.40813 -0.415583
0.668204 0.659411 0.647762 0.642067 0.628301 0.620714 0.607226 0.599127 0.59065 0.582926 0.570428 0.55277 0.497746 0.379431 0.331067 0.318737 0.31086 0.301925 0.295801 0.288869 0.283061 0.278411 0.272452 0.267951 0.261776 0.256944 0.252922 0.24791 0.243387 0.238665 0.235569 0.23052 0.226423 0.222607 0.216498 0.212984 0.208743 0.204516 0.200799 0.196101 0.191614 0.186452 0.182659 0.17741 0.168352 0.162519 0.157876 0.155055 0.151992 0.150005 0.0 0.143426 0.140872 0.0 0.0 0.0 0.0 0.12321 0.119279 0.0 0.0 0.0 0.103868 0.0 0.0954691 0.0914267 0.0879612 0.0 0.0 0.0 0.0 0.0 0.0 0.0 0.0 0.0 0.0476563 0.0 0.0 0.0 0.0 0.0 0.0 0.0 0.0 0.0 0.0 0.0 0.0 0.0 0.0 0.0 0.0 0.0 0.0 -0.026833 0.0 0.0 0.0 0.0 0.0 0.0 0.0 0.0 0.0 0.0 0.0 0.0 0.0 0.0 -0.0853093 0.0 -0.092269 0.0 -0.100905 -0.103909 0.0 0.0 0.0 0.0 0.0 0.0 0.0 -0.136245 -0.139151 -0.143048 -0.146949 -0.150853 -0.155304 -0.159281 -0.163215 -0.167206 -0.171097 -0.175102 -0.179911 -0.184009 -0.188178 -0.192241 -0.196189 -0.201534 -0.205909 -0.210765 -0.214991 -0.220325 -0.224949 -0.230666 -0.236307 -0.24238 -0.248755 -0.255826 -0.265956 -0.278587 -0.303557 -0.315256 -0.353095 -0.473527 -0.485962 -0.493093 -0.5005 -0.510713 -0.518204 -0.525624 -0.534003 -0.542431 -0.551488 -0.563264 -0.568406 -0.579464 -0.585311 -0.596119 -0.499014 -0.404708 -0.403516 -0.408535 -0.4119 -0.417601
0.673604 0.657955 0.64398 0.638336 0.629178 0.616113 0.609239 0.599964 0.587155 0.580087 0.569025 0.5569 0.54512 0.49289 0.373312 0.326334 0.31239 0.305773 0.296747 0.290847 0.283285 0.2777 0.27275 0.266439 0.261416 0.256272 0.251793 0.247565 0.241616 0.237663 0.233859 0.229268 0.224772 0.221468 0.216591 0.212546 0.208118 0.203712 0.199825 0.195145 0.191454 0.18752 0.182275 0.178206 0.171801 0.1645 0.158769 0.155113 0.152841 0.149771 0.0 0.142975 0.0 0.136957 0.133879 0.0 0.0 0.123062 0.0 0.0 0.0 0.0 0.0 0.0 0.0 0.0 0.0 0.0 0.0 0.0 0.0 0.0 0.0 0.0 0.0 0.0 0.0 0.0 0.0388676 0.0 0.0 0.0 0.0 0.0 0.0 0.0 0.0 0.0 0.0 0.0 0.0 0.0 0.0 0.0 0.0 0.0 -0.0305786 0.0 0.0 0.0 0.0 0.0 0.0 0.0 0.0 0.0 0.0 0.0 0.0 0.0 -0.0851753 0.0 0.0 0.0 0.0 0.0 0.0 0.0 0.0 0.0 0.0 -0.129265 -0.130913 -0.13479 -0.139068 -0.142645 -0.147003 -0.149854 -0.154869 -0.158231 -0.162656 -0.166899 -0.170566 -0.174948 -0.17913 -0.183211 -0.187245 -0.19232 -0.196023 -0.200417 -0.206513 -0.210856 -0.215621 -0.219668 -0.224978 -0.231053 -0.236341 -0.243669 -0.249694 -0.259151 -0.271285 -0.292231 -0.30796 -0.332157 -0.453687 -0.476458 -0.484398 -0.493596 -0.500482 -0.507012 -0.513717 -0.524129 -0.534087 -0.542613 -0.549931 -0.560606 -0.567006 -0.576227 -0.58172 -0.586241 -0.444552 -0.401929 -0.404164 -0.409522 -0.41212 -0.419066
0.668132 0.656058 0.643555 0.633841 0.62322 0.614092 0.604177 0.596431 0.585519 0.577255 0.569532 0.559664 0.549785 0.536834 0.483947 0.36361 0.318323 0.305751 0.298055 0.291258 0.284806 0.278433 0.272886 0.268129 0.261706 0.255841 0.250511 0.24615 0.242033 0.237628 0.232079 0.228018 0.223825 0.220125 0.216015 0.211847 0.206914 0.203039 0.198729 0.194132 0.190043 0.185847 0.182237 0.178224 0.173508 0.167392 0.159093 0.155987 0.153099 0.0 0.146957 0.0 0.0 0.0 0.0 0.0 0.0 0.0 0.0 0.0 0.0 0.0 0.0 0.0 0.0 0.0 0.0 0.0 0.0 0.0 0.0 0.0 0.0 0.0 0.0 0.0 0.0 0.0430463 0.0 0.0 0.0 0.0 0.0 0.0 0.0 0.0 0.0 0.0 0.0 0.0 0.0 0.0 0.0 0.0 0.0 0.0 0.0 0.0 0.0 0.0 0.0 -0.0499278 0.0 0.0 0.0 0.0 0.0 0.0 0.0 0.0 0.0 0.0 0.0 0.0 0.0 0.0 0.0 0.0 0.0 0.0 0.0 -0.127004 -0.130335 -0.133938 -0.137882 -0.141744 -0.146124 -0.149864 -0.15424 -0.158293 -0.162203 -0.166171 -0.169984 -0.174075 -0.179147 -0.182241 -0.187146 -0.192099 -0.196542 -0.200251 -0.20486 -0.210357 -0.215248 -0.220316 -0.22543 -0.230947 -0.237537 -0.244521 -0.253866 -0.26447 -0.283153 -0.30281 -0.317117 -0.427481 -0.469205 -0.473657 -0.483614 -0.490622 -0.497994 -0.505475 -0.516177 -0.523013 -0.532674 -0.540417 -0.548576 -0.559923 -0.565217 -0.5733 -0.582549 -0.560443 -0.417471 -0.40215 -0.407531 -0.409858 -0.415021 -0.420765
0.664732 0.651228 0.641914 0.633322 0.623467 0.613905 0.604097 0.59562 0.586055 0.57565 0.567448 0.5581 0.548339 0.537609 0.522934 0.456388 0.35479 0.313227 0.301325 0.291938 0.285043 0.277476 0.27236 0.266298 0.26184 0.255574 0.250949 0.246196 0.241097 0.236633 0.232264 0.227414 0.223441 0.219197 0.215374 0.210953 0.20636 0.202114 0.198195 0.193791 0.189709 0.185461 0.181401 0.177071 0.172927 0.169009 0.162439 0.0 0.15336 0.0 0.0 0.0 0.140097 0.0 0.0 0.12918 0.0 0.122808 0.0 0.0 0.0 0.0 0.0 0.0 0.0 0.0 0.0 0.0 0.0 0.0 0.0 0.0 0.0 0.0 0.0 0.0 0.0 0.0 0.0 0.0 0.0 0.0 0.0 0.0 0.0 0.0 0.0 0.0 0.0 0.0 0.0 0.0 0.0 0.0 0.0 0.0 0.0 0.0 0.0 0.0 0.0 0.0 0.0 0.0 0.0 0.0 0.0 0.0 0.0 0.0 0.0 0.0 0.0 0.0 0.0 0.0 0.0 0.0 0.0 0.0 -0.122277 -0.126243 -0.130093 -0.133947 -0.137892 -0.141846 -0.145154 -0.149108 -0.15381 -0.157651 -0.161545 -0.165551 -0.169621 -0.173538 -0.177632 -0.182437 -0.186991 -0.19097 -0.19663 -0.200722 -0.2056 -0.208279 -0.215348 -0.220557 -0.225119 -0.231769 -0.238377 -0.248625 -0.25722 -0.275225 -0.298148 -0.307156 -0.394909 -0.458946 -0.464542 -0.472045 -0.481979 -0.490271 -0.498082 -0.504127 -0.51344 -0.52274 -0.529105 -0.536127 -0.551401 -0.556495 -0.560641 -0.569775 -0.57569 -0.511617 -0.407996 -0.405482 -0.410692 -0.410202 -0.418044 -0.420894
0.662947 0.651048 0.641512 0.634248 0.623182 0.605784 0.603604 0.593879 0.585469 0.576289 0.567275 0.557532 0.546317 0.538586 0.528049 0.493885 0.412855 0.35025 0.309407 0.294287 0.285112 0.278814 0.274259 0.268164 0.261898 0.255867 0.251236 0.24548 0.240316 0.236087 0.231217 0.225884 0.2225 0.218204 0.214061 0.20993 0.205096 0.200556 0.19698 0.192661 0.189318 0.184551 0.181083 0.176032 0.173112 0.166522 0.162301 0.0 0.0 0.150146 0.0 0.0 0.0 0.0 0.0 0.0 0.0 0.0 0.0 0.0 0.0 0.0 0.0 0.0 0.0 0.0 0.0 0.0 0.0 0.0 0.0 0.0 0.0 0.0 0.0 0.0 0.0 0.0 0.0 0.0 0.0 0.0 0.0 0.0 0.0 0.0 0.0 0.0 0.0 0.0 0.0 0.0 -0.0151017 0.0 0.0 0.0 0.0 0.0 0.0 0.0 0.0 0.0 0.0 0.0 0.0 0.0 0.0 0.0 0.0 0.0 0.0 0.0 0.0 0.0 0.0 0.0 0.0 0.0 -0.115193 -0.118178 -0.121697 -0.126212 -0.12931 -0.13314 -0.137373 -0.141312 -0.145822 -0.149026 -0.152988 -0.156656 -0.160837 -0.16472 -0.169424 -0.173115 -0.177712 -0.182229 -0.186541 -0.191483 -0.195295 -0.200247 -0.205181 -0.209962 -0.215386 -0.220596 -0.226837 -0.233095 -0.241614 -0.25163 -0.265542 -0.292114 -0.298147 -0.369049 -0.449689 -0.454689 -0.464542 -0.470102 -0.478805 -0.485914 -0.491708 -0.503056 -0.510893 -0.519971 -0.52686 -0.535954 -0.544148 -0.552286 -0.560566 -0.571017 -0.569964 -0.453995 -0.403482 -0.405507 -0.411043 -0.415395 -0.418292 -0.425663
0.660599 0.651108 0.640003 0.628896 0.62084 0.611632 0.602168 0.594656 0.58376 0.577041 0.566712 0.554802 0.546543 0.536313 0.527697 0.505816 0.43429 0.395456 0.345801 0.304091 0.289067 0.280498 0.274162 0.267738 0.26091 0.255609 0.250513 0.246379 0.240444 0.235989 0.230173 0.22693 0.221842 0.216801 0.213831 0.209505 0.204743 0.200845 0.196639 0.192815 0.187854 0.184054 0.180881 0.175443 0.17199 0.168359 0.163937 0.15568 0.0 0.149632 0.0 0.0 0.0 0.0 0.0 0.129285 0.0 0.0 0.0 0.0 0.0 0.0 0.0 0.0 0.0 0.0 0.0 0.0 0.0 0.0 0.0 0.0 0.0 0.0 0.054932 0.0 0.0 0.0 0.0 0.0 0.0 0.0 0.0 0.0 0.0 0.0118142 0.0 0.0 0.0 0.0 0.0 0.0 0.0 0.0 0.0 0.0 0.0 0.0 0.0 -0.0415116 0.0 0.0 0.0 0.0 0.0 0.0 0.0 0.0 0.0 0.0 0.0 0.0 0.0 0.0 0.0 0.0 0.0 -0.110349 -0.114061 -0.117389 -0.12159 -0.125129 -0.129489 -0.133067 -0.1369 -0.141373 -0.144528 -0.148419 -0.152316 -0.156726 -0.16091 -0.16437 -0.168142 -0.172638 -0.177966 -0.181209 -0.186571 -0.190968 -0.196135 -0.200155 -0.205864 -0.209341 -0.215696 -0.22064 -0.227792 -0.236277 -0.244569 -0.259369 -0.285531 -0.290205 -0.340423 -0.439568 -0.446794 -0.4506 -0.462719 -0.471211 -0.477785 -0.483046 -0.492343 -0.502535 -0.510639 -0.518045 -0.526037 -0.53646 -0.542236 -0.549758 -0.558602 -0.565075 -0.553551 -0.421851 -0.404043 -0.407039 -0.411837 -0.4173 -0.418548 -0.426263
