0.405585 0.392941 0.386401 0.390337 0.386107 0.377979 0.381142 0.381568 0.382699 0.385234 0.381161 0.379124 0.378184 0.378259 0.380659 0.382441 0.385767 0.401866 0.408783 0.406249 0.410016 0.404135 0.404699 0.400382 0.391432 0.405061 0.396599 0.399947 0.399802 0.398984 0.399084 0.389734 0.382981 0.395509 0.409151 0.402274 0.402195 0.408069 0.415895 0.422364 0.405194 0.395709 0.413141 0.410268 0.402247 0.401572 0.409419 0.407934 0.413992 0.408796 0.396986 0.427552 0.395676 0.399011 0.407774 0.448987 0.445185 0.494956 0.52133 0.535829 0.532027 0.582809 0.661831 0.657123 0.658643 0.657289 0.66016 0.677298 0.672428 0.672667 0.668709 0.66624 0.667472 0.672696 0.667975 0.66297 0.66277 0.66339 0.662031 0.666944 0.658092 0.660226 0.661339 0.660621 0.661974 0.658183 0.668981 0.657111 0.660713 0.661674 0.659994 0.661859 0.661156 0.664735 0.654331 0.654247 0.664411 0.651161 0.654348 0.659683 0.654049 0.645768 0.575338 0.343892 0.298533 0.295435 0.296548 0.295156 0.294728 0.296373 0.296324 0.296132 0.29735 0.297613 0.298029 0.300819 0.300136 0.298939 0.297673 0.302715 0.304576 0.30496 0.304162 0.304111 0.305331 0.306112 0.308388 0.308886 0.30924 0.311617 0.310492 0.312362 0.313343 0.314557 0.313382 0.314611 0.315173 0.315967 0.31925 0.319235 0.324196 0.32631 0.32602 0.326417 0.326745 0.324509 0.319396 0.315872 0.316218 0.31832 0.319063 0.319357 0.320574 0.320503 0.320591 0.318772 0.320173 0.32051 0.320086 0.320744 0.321179 0.320927 0.320062 0.320902 0.320666 0.320745 0.321295 0.31944 0.324521 0.327437 0.329115 0.329942 0.331796 0.33688 0.340805 0.344115
0.393335 0.402831 0.381542 0.378999 0.379241 0.376488 0.375669 0.373554 0.375126 0.376087 0.37667 0.377791 0.379219 0.380877 0.38011 0.379578 0.38178 0.400835 0.389432 0.401432 0.398504 0.398523 0.395397 0.394237 0.39848 0.394268 0.405168 0.392391 0.393592 0.394428 0.370421 0.375977 0.387247 0.395164 0.390997 0.395655 0.403196 0.397359 0.396338 0.411333 0.39595 0.397461 0.3992 0.405354 0.389397 0.394759 0.381563 0.387158 0.39744 0.391174 0.389897 0.388777 0.38971 0.387657 0.39707 0.396123 0.402694 0.485696 0.486987 0.520313 0.521459 0.59963 0.661969 0.659087 0.660432 0.650676 0.654876 0.658285 0.65503 0.655413 0.655371 0.653238 0.652421 0.65147 0.642562 0.650396 0.648752 0.649363 0.645569 0.646707 0.645176 0.64069 0.641929 0.641297 0.644147 0.643027 0.644594 0.64371 0.643415 0.642913 0.640251 0.642226 0.636038 0.640854 0.63859 0.639809 0.640241 0.640683 0.640773 0.631536 0.627445 0.506423 0.316705 0.290189 0.290257 0.290039 0.288449 0.288603 0.288543 0.286893 0.287713 0.290573 0.291042 0.292533 0.291632 0.293063 0.291953 0.293395 0.293533 0.293239 0.295575 0.297626 0.297204 0.297371 0.297252 0.300282 0.301639 0.300807 0.301446 0.303703 0.304209 0.304942 0.307299 0.305696 0.308143 0.307066 0.308867 0.310088 0.310357 0.312038 0.314985 0.31861 0.319878 0.321971 0.318286 0.315937 0.310019 0.309979 0.311137 0.313946 0.312958 0.314966 0.315188 0.313543 0.314453 0.314394 0.314116 0.315124 0.314783 0.314749 0.314797 0.313185 0.313698 0.314826 0.314289 0.314441 0.315286 0.313388 0.316464 0.320014 0.323733 0.323778 0.327524 0.32527 0.329811 0.333442
0.385475 0.390085 0.387022 0.39011 0.379428 0.372334 0.367378 0.364099 0.368953 0.371321 0.373313 0.377551 0.384846 0.387277 0.3909 0.385965 0.383725 0.391514 0.391215 0.392699 0.392488 0.388816 0.391722 0.389696 0.386874 0.391045 0.393086 0.391027 0.390372 0.390751 0.393328 0.389998 0.387704 0.38768 0.383517 0.392017 0.391868 0.389987 0.390437 0.406536 0.409737 0.405134 0.388916 0.393664 0.400432 0.392928 0.387892 0.393018 0.386925 0.387461 0.385489 0.383025 0.395851 0.379346 0.385152 0.385588 0.439643 0.461528 0.4588 0.475596 0.511889 0.573938 0.64858 0.641328 0.637304 0.637713 0.634427 0.633148 0.637793 0.629984 0.63365 0.634122 0.629908 0.632962 0.628699 0.629069 0.625752 0.629838 0.62448 0.627731 0.630351 0.628789 0.624252 0.625337 0.62842 0.62583 0.624457 0.621105 0.622662 0.621742 0.626158 0.624334 0.622092 0.62128 0.620832 0.623021 0.626002 0.618761 0.615649 0.615175 0.464001 0.29472 0.283543 0.283604 0.2831 0.281106 0.281678 0.280902 0.280344 0.282141 0.282376 0.282545 0.283788 0.285607 0.287219 0.286481 0.286104 0.287232 0.286937 0.287935 0.288437 0.288157 0.291824 0.290553 0.290147 0.29032 0.297537 0.294636 0.296268 0.296036 0.296818 0.298833 0.299341 0.299496 0.301174 0.300403 0.30188 0.302063 0.304643 0.304913 0.308239 0.313177 0.313111 0.314582 0.310742 0.302378 0.305979 0.306086 0.308175 0.308151 0.30806 0.307901 0.30819 0.306058 0.303484 0.303714 0.302694 0.303084 0.303481 0.303737 0.30697 0.303748 0.305065 0.308033 0.308923 0.309223 0.309679 0.310141 0.305576 0.311311 0.31624 0.320736 0.321394 0.322362 0.325233 0.326522
0.398505 0.410156 0.407998 0.393064 0.377516 0.363134 0.360567 0.359121 0.361816 0.365246 0.373378 0.383915 0.387609 0.392105 0.392281 0.39166 0.38806 0.391758 0.380692 0.383243 0.384418 0.383206 0.384538 0.383418 0.384474 0.382724 0.382498 0.386884 0.390693 0.384384 0.387058 0.38515 0.378891 0.379085 0.385571 0.387486 0.385914 0.389124 0.37384 0.400527 0.395431 0.386521 0.377845 0.389383 0.374221 0.378756 0.39128 0.38458 0.38312 0.379413 0.378044 0.375063 0.377375 0.388207 0.381519 0.381244 0.390812 0.466886 0.480138 0.501315 0.501371 0.536277 0.624487 0.62326 0.620644 0.62189 0.618668 0.6128 0.618483 0.615155 0.612468 0.611748 0.612574 0.612223 0.610764 0.60785 0.606271 0.606866 0.610888 0.607872 0.608494 0.608287 0.610181 0.609992 0.60507 0.608734 0.605364 0.606675 0.611689 0.610298 0.610938 0.60831 0.609595 0.60803 0.606544 0.606949 0.60555 0.602346 0.588894 0.531976 0.294018 0.275993 0.278002 0.276176 0.275401 0.275538 0.27526 0.274497 0.276885 0.276061 0.27545 0.274844 0.276413 0.278758 0.279567 0.282415 0.281133 0.282801 0.282019 0.282155 0.282857 0.282019 0.283928 0.284367 0.282488 0.284839 0.289172 0.290131 0.290814 0.290514 0.290786 0.291983 0.291843 0.290151 0.293282 0.294721 0.295033 0.295281 0.296744 0.298785 0.301051 0.303184 0.307398 0.305124 0.299776 0.299651 0.30032 0.300065 0.302473 0.302017 0.297246 0.294417 0.290722 0.290926 0.291063 0.292511 0.291358 0.292821 0.292405 0.292138 0.294209 0.296146 0.29824 0.299174 0.299676 0.303269 0.302172 0.30174 0.302491 0.303324 0.30616 0.312715 0.314694 0.315495 0.317493 0.318086
0.407645 0.406022 0.406089 0.403098 0.376962 0.359131 0.355736 0.355692 0.35768 0.360535 0.37183 0.383674 0.385705 0.387594 0.387118 0.387724 0.37181 0.377595 0.37588 0.381802 0.368572 0.378341 0.376026 0.37812 0.380501 0.379701 0.379688 0.378906 0.379404 0.384415 0.383867 0.381923 0.378166 0.379474 0.378195 0.374057 0.375599 0.383714 0.35664 0.365331 0.380287 0.378515 0.383919 0.379312 0.376109 0.380207 0.372168 0.376209 0.373879 0.377582 0.371671 0.380571 0.367217 0.374742 0.3579 0.368678 0.381658 0.45728 0.480001 0.491829 0.489615 0.507225 0.601916 0.606081 0.599189 0.601379 0.598908 0.596655 0.596883 0.591701 0.593595 0.599132 0.595147 0.592269 0.592006 0.594354 0.590067 0.595446 0.58933 0.596573 0.591844 0.58911 0.592134 0.593455 0.586847 0.592975 0.595621 0.589313 0.587597 0.587806 0.587955 0.588385 0.58903 0.589614 0.588702 0.589577 0.588682 0.582318 0.558844 0.373623 0.271565 0.270518 0.270777 0.270765 0.270141 0.270412 0.270276 0.270692 0.270084 0.269205 0.269292 0.269314 0.269134 0.272877 0.27367 0.275776 0.275892 0.277046 0.274556 0.276753 0.27558 0.276618 0.27704 0.277054 0.277143 0.278481 0.279826 0.284085 0.2851 0.284319 0.285069 0.285479 0.284089 0.287082 0.287094 0.286904 0.289436 0.289677 0.291181 0.293253 0.293657 0.295747 0.296236 0.286215 0.284322 0.288333 0.29053 0.292105 0.291081 0.284981 0.284877 0.285134 0.283414 0.283681 0.285375 0.284307 0.284879 0.285885 0.286401 0.288424 0.290387 0.290856 0.290902 0.293109 0.293097 0.293956 0.293668 0.296562 0.297879 0.297321 0.296693 0.303191 0.308332 0.309117 0.312904 0.312391
0.40028 0.398973 0.403552 0.399034 0.380392 0.352472 0.35199 0.35244 0.354881 0.36767 0.376958 0.378522 0.3803 0.379684 0.379922 0.37876 0.372487 0.375558 0.362952 0.371076 0.365853 0.369575 0.360344 0.372146 0.373369 0.372933 0.37396 0.375824 0.373751 0.374522 0.375576 0.372362 0.366339 0.365771 0.372016 0.361984 0.365492 0.349469 0.375253 0.382048 0.367032 0.36168 0.368493 0.362208 0.366299 0.368076 0.349715 0.347095 0.372145 0.365386 0.364003 0.362494 0.383162 0.364042 0.362217 0.368252 0.369485 0.448613 0.470905 0.48089 0.477708 0.492895 0.579861 0.581997 0.582725 0.587708 0.581649 0.582675 0.581353 0.582532 0.574567 0.581281 0.581073 0.578588 0.579004 0.577479 0.577509 0.576942 0.574167 0.573887 0.573011 0.574158 0.573567 0.574394 0.57147 0.574193 0.576387 0.571004 0.575765 0.571942 0.57343 0.573651 0.574887 0.576602 0.573624 0.571259 0.566282 0.563462 0.497974 0.286211 0.265494 0.263996 0.26398 0.265312 0.264094 0.262879 0.26382 0.263353 0.263967 0.262699 0.263456 0.265431 0.263839 0.264812 0.266938 0.268934 0.269249 0.269164 0.269421 0.269412 0.269003 0.27232 0.271583 0.271595 0.27046 0.273195 0.273291 0.274752 0.278869 0.277625 0.277882 0.278282 0.278687 0.281554 0.280609 0.281376 0.283722 0.284709 0.28543 0.28753 0.287787 0.285648 0.279801 0.26989 0.267058 0.267671 0.269671 0.270231 0.273356 0.27421 0.277289 0.277536 0.27786 0.278191 0.278598 0.277548 0.278943 0.278672 0.280154 0.281856 0.283569 0.283816 0.284844 0.287218 0.287841 0.287059 0.287906 0.289682 0.291327 0.288575 0.288951 0.292969 0.299646 0.302773 0.305126 0.307994
0.395035 0.401421 0.400833 0.401236 0.387913 0.359184 0.35436 0.356181 0.365728 0.372542 0.372679 0.373654 0.37145 0.372162 0.372119 0.371602 0.373914 0.357949 0.365985 0.368867 0.360865 0.363829 0.352729 0.367441 0.370001 0.366984 0.371322 0.365815 0.367719 0.367663 0.364841 0.366155 0.362884 0.362594 0.36602 0.357395 0.36467 0.35769 0.367989 0.363986 0.365763 0.365737 0.368127 0.366108 0.358418 0.348876 0.342359 0.364468 0.360495 0.359798 0.375417 0.357563 0.365334 0.35968 0.353308 0.351264 0.359512 0.426443 0.458455 0.468847 0.468048 0.483011 0.563872 0.570468 0.570061 0.564244 0.565972 0.563216 0.569451 0.562688 0.56181 0.561931 0.560082 0.562858 0.56096 0.564806 0.559433 0.558418 0.559586 0.558851 0.557137 0.557011 0.557092 0.557575 0.558987 0.558367 0.55828 0.559256 0.556683 0.560242 0.554129 0.556255 0.557072 0.556316 0.556226 0.552324 0.549352 0.534199 0.32864 0.257652 0.258749 0.258926 0.258118 0.258106 0.258426 0.257564 0.257431 0.257367 0.258166 0.258243 0.258588 0.259533 0.257904 0.259585 0.259485 0.261706 0.263536 0.265637 0.264497 0.265018 0.265743 0.264483 0.266281 0.267753 0.26531 0.266794 0.266753 0.267184 0.26822 0.271864 0.273649 0.272571 0.273569 0.274372 0.275718 0.276067 0.276624 0.276717 0.275676 0.273697 0.271654 0.268939 0.265148 0.262569 0.259923 0.259237 0.260585 0.261467 0.261137 0.262305 0.26253 0.266298 0.269468 0.269924 0.270114 0.27031 0.270512 0.27305 0.273679 0.274591 0.277986 0.278091 0.279098 0.279215 0.281897 0.281821 0.282444 0.282657 0.284059 0.284703 0.284935 0.286921 0.291157 0.297095 0.300597 0.300738
0.391993 0.400865 0.399381 0.38711 0.364586 0.364966 0.362614 0.361982 0.365521 0.364696 0.364831 0.365652 0.365121 0.364192 0.361717 0.362296 0.362947 0.368185 0.347921 0.341489 0.351453 0.35443 0.368652 0.350491 0.360959 0.362274 0.361928 0.360193 0.365317 0.361606 0.360896 0.360659 0.356194 0.365831 0.352731 0.35623 0.3565 0.348409 0.359035 0.360836 0.358634 0.356311 0.348029 0.350191 0.349016 0.351712 0.337008 0.356134 0.350674 0.358548 0.352716 0.349245 0.345654 0.348002 0.348987 0.350367 0.343102 0.404437 0.446162 0.459147 0.460183 0.472259 0.546675 0.556713 0.554826 0.557291 0.550564 0.551233 0.544984 0.550784 0.544037 0.542089 0.547588 0.547337 0.547418 0.547572 0.547087 0.539697 0.541426 0.538899 0.54174 0.540779 0.543506 0.53959 0.547626 0.545533 0.545771 0.542209 0.539041 0.542659 0.542993 0.541074 0.540712 0.540551 0.544724 0.534311 0.523257 0.388775 0.258205 0.253332 0.252791 0.251543 0.253659 0.253323 0.252602 0.252337 0.252206 0.252273 0.252472 0.252547 0.252885 0.254004 0.253119 0.254117 0.253953 0.254572 0.257144 0.258942 0.259187 0.259112 0.259301 0.260146 0.260671 0.261396 0.264865 0.261495 0.260671 0.260635 0.262237 0.264891 0.266378 0.268329 0.268651 0.267668 0.270035 0.270047 0.270263 0.266406 0.256955 0.253026 0.254635 0.254865 0.256687 0.253692 0.253807 0.254126 0.254186 0.253655 0.255055 0.254535 0.255017 0.255374 0.255803 0.257643 0.261968 0.263362 0.2651 0.26584 0.26827 0.271722 0.271007 0.27293 0.270874 0.273151 0.275915 0.274006 0.277878 0.276862 0.276667 0.277364 0.277725 0.281245 0.286565 0.288056 0.292311 0.293963
0.385394 0.381983 0.353008 0.357151 0.362363 0.357018 0.357732 0.357578 0.357832 0.357758 0.355558 0.358828 0.355117 0.358924 0.357689 0.351832 0.363249 0.346525 0.353121 0.35049 0.345179 0.34895 0.353768 0.351704 0.358748 0.360097 0.359623 0.356876 0.355511 0.35357 0.356322 0.356673 0.353723 0.352018 0.347799 0.349352 0.359893 0.35738 0.354492 0.350456 0.351522 0.349956 0.348849 0.338177 0.348974 0.345132 0.327326 0.343382 0.352124 0.34691 0.341071 0.341892 0.355687 0.344062 0.340369 0.336494 0.334542 0.395932 0.440139 0.444846 0.449301 0.464447 0.530579 0.536354 0.536225 0.535534 0.532057 0.529798 0.531862 0.526576 0.532525 0.529349 0.529732 0.528602 0.527798 0.528965 0.525768 0.524481 0.526937 0.526994 0.52826 0.527762 0.525563 0.527168 0.52492 0.526982 0.52399 0.528154 0.52119 0.523028 0.526834 0.525396 0.523902 0.52368 0.51296 0.475787 0.38101 0.25545 0.247252 0.247857 0.247326 0.246862 0.246465 0.245817 0.247328 0.247322 0.245797 0.246813 0.247262 0.247461 0.247537 0.247681 0.247892 0.249124 0.248263 0.24925 0.250432 0.252893 0.252113 0.252738 0.253623 0.253748 0.255728 0.25497 0.256452 0.256469 0.256236 0.255496 0.257448 0.258319 0.260479 0.262646 0.263474 0.263345 0.264828 0.263101 0.258995 0.251988 0.247747 0.24725 0.244624 0.245103 0.245524 0.245756 0.246124 0.247148 0.248243 0.248566 0.2487 0.248709 0.249833 0.249201 0.249488 0.251027 0.251394 0.255706 0.258523 0.260036 0.260109 0.263223 0.264699 0.26486 0.26642 0.265998 0.268637 0.270689 0.271487 0.271358 0.272838 0.271716 0.273478 0.275519 0.280597 0.28125 0.284001 0.288184
0.358599 0.349197 0.352524 0.349574 0.351055 0.349444 0.349027 0.350781 0.350571 0.350433 0.3599 0.354155 0.351233 0.355152 0.346278 0.347355 0.347853 0.347322 0.346478 0.341064 0.346234 0.342651 0.340432 0.356579 0.351673 0.346017 0.349783 0.349587 0.3494 0.346543 0.348349 0.348759 0.353751 0.347441 0.340707 0.339886 0.34762 0.345733 0.345374 0.34957 0.367331 0.340751 0.340238 0.341368 0.336654 0.319948 0.328649 0.343245 0.334178 0.33654 0.338467 0.347035 0.336262 0.344272 0.345465 0.332667 0.358859 0.379726 0.424727 0.437513 0.441256 0.455348 0.519083 0.517707 0.518644 0.51853 0.517928 0.517022 0.518674 0.518096 0.51678 0.511684 0.517093 0.513442 0.513587 0.512932 0.511788 0.513134 0.513184 0.512744 0.514607 0.512322 0.508183 0.511431 0.511089 0.512924 0.510241 0.5062 0.507436 0.511034 0.509122 0.508084 0.490375 0.42815 0.341553 0.295877 0.251313 0.241293 0.241014 0.242475 0.240713 0.24063 0.240116 0.240536 0.24096 0.240704 0.240638 0.240825 0.241885 0.241893 0.242526 0.241795 0.24337 0.243082 0.241739 0.244137 0.244173 0.243153 0.247252 0.248862 0.24723 0.247976 0.249102 0.248857 0.249431 0.252827 0.249904 0.251559 0.251966 0.25219 0.25198 0.255231 0.256165 0.257861 0.256289 0.251505 0.24571 0.242563 0.240868 0.237153 0.236157 0.235799 0.236523 0.238776 0.239769 0.240006 0.240949 0.241198 0.242346 0.243821 0.244857 0.245197 0.245543 0.246024 0.246383 0.247841 0.247184 0.251623 0.254207 0.255833 0.257405 0.259829 0.259928 0.261008 0.261901 0.264561 0.265472 0.266913 0.265418 0.267529 0.266564 0.269745 0.273205 0.275359 0.278318 0.282152
0.346449 0.352228 0.347376 0.344872 0.344059 0.342031 0.341686 0.342633 0.342621 0.347482 0.348882 0.344731 0.342829 0.344377 0.34097 0.342086 0.337627 0.337619 0.339705 0.337309 0.340035 0.341186 0.340204 0.343441 0.344482 0.348662 0.346203 0.344195 0.340449 0.342462 0.347345 0.343258 0.34267 0.334259 0.339037 0.343876 0.342081 0.345003 0.349785 0.337808 0.336794 0.334493 0.333805 0.328503 0.3319 0.313016 0.324368 0.335589 0.335988 0.336149 0.325823 0.329497 0.335686 0.320496 0.328777 0.324633 0.327044 0.343764 0.415593 0.433187 0.439905 0.450654 0.50551 0.506178 0.50472 0.506074 0.503658 0.502653 0.503726 0.502188 0.502119 0.501085 0.498111 0.500377 0.499669 0.496658 0.498883 0.498501 0.498187 0.494781 0.497883 0.496313 0.496513 0.495747 0.495898 0.494842 0.496283 0.495118 0.495782 0.494995 0.471505 0.392579 0.314685 0.283428 0.279197 0.257597 0.239338 0.23572 0.235689 0.236087 0.233753 0.235008 0.235537 0.235279 0.233991 0.235199 0.235804 0.235012 0.235927 0.236665 0.236188 0.236079 0.237499 0.237399 0.237607 0.23782 0.238158 0.23899 0.239399 0.242196 0.241758 0.241569 0.243221 0.243715 0.244153 0.244903 0.246026 0.246663 0.247737 0.248324 0.248549 0.248778 0.247535 0.245864 0.237841 0.230306 0.232401 0.231475 0.231666 0.2318 0.230762 0.229168 0.231302 0.231333 0.231181 0.232156 0.235257 0.23631 0.236434 0.236188 0.238701 0.240222 0.24056 0.240968 0.240941 0.241549 0.240398 0.242217 0.246764 0.249935 0.250268 0.251877 0.252415 0.256205 0.257271 0.258281 0.259938 0.260261 0.260269 0.260539 0.261007 0.261353 0.267251 0.269425 0.269863 0.273613
0.343607 0.339863 0.340128 0.335652 0.337449 0.336029 0.338838 0.336175 0.337355 0.344116 0.340224 0.339787 0.337798 0.348657 0.332863 0.330415 0.331643 0.333121 0.331385 0.333369 0.332208 0.328467 0.336318 0.33647 0.338411 0.339128 0.337583 0.344008 0.336116 0.332586 0.33078 0.334288 0.332194 0.332302 0.332416 0.332295 0.329148 0.338745 0.331734 0.333943 0.337305 0.325499 0.326641 0.322478 0.314348 0.311056 0.33409 0.335737 0.330232 0.327685 0.322745 0.32412 0.32406 0.325025 0.305916 0.322956 0.306633 0.327557 0.397284 0.422826 0.425879 0.430908 0.484677 0.491665 0.488211 0.490018 0.487716 0.487749 0.48916 0.485154 0.484256 0.483901 0.484923 0.485 0.483952 0.483625 0.482175 0.480077 0.484411 0.480721 0.484592 0.481986 0.481409 0.483989 0.480928 0.475792 0.484812 0.474399 0.448713 0.363586 0.296177 0.276032 0.273131 0.273207 0.262107 0.239948 0.230634 0.229054 0.230748 0.230304 0.229982 0.228414 0.229586 0.230345 0.229559 0.230325 0.230439 0.230676 0.231036 0.23128 0.23117 0.231421 0.231378 0.232174 0.232616 0.231807 0.232855 0.23301 0.234306 0.233512 0.235775 0.237686 0.238523 0.239366 0.239494 0.240586 0.241084 0.240506 0.241795 0.24261 0.242045 0.235158 0.228387 0.228369 0.227147 0.225506 0.225923 0.22574 0.226106 0.225812 0.225218 0.226632 0.22702 0.22638 0.225926 0.226208 0.227289 0.230514 0.230817 0.231003 0.231256 0.235256 0.236753 0.237029 0.236942 0.236551 0.236535 0.236895 0.237818 0.241846 0.245393 0.246284 0.247992 0.24728 0.251062 0.251549 0.254733 0.255738 0.256124 0.256453 0.256661 0.256938 0.263281 0.263641 0.262613 0.267613
0.338102 0.333255 0.332955 0.331732 0.329221 0.316236 0.327935 0.326996 0.333803 0.335568 0.335252 0.329993 0.325975 0.321062 0.320856 0.325096 0.326598 0.323678 0.325374 0.327254 0.325272 0.328429 0.328151 0.349002 0.33399 0.333249 0.337554 0.331135 0.339098 0.32362 0.32317 0.324577 0.326703 0.330321 0.328289 0.322227 0.331739 0.312765 0.327144 0.32812 0.320639 0.323998 0.321508 0.329304 0.326001 0.312863 0.328151 0.317986 0.320905 0.322004 0.317111 0.317929 0.320455 0.311129 0.316424 0.311929 0.321565 0.320538 0.389592 0.41254 0.416875 0.428171 0.471846 0.476817 0.476245 0.476205 0.476407 0.47469 0.474672 0.47093 0.471278 0.468892 0.470186 0.468981 0.469298 0.47096 0.470649 0.465627 0.470627 0.469171 0.47034 0.466977 0.46682 0.465797 0.465478 0.464583 0.428845 0.342208 0.285249 0.266807 0.265707 0.266937 0.26596 0.259982 0.234803 0.22586 0.22402 0.223055 0.224479 0.224219 0.222972 0.22394 0.224096 0.224431 0.224827 0.225401 0.225395 0.22551 0.225628 0.226216 0.22564 0.227053 0.226017 0.226094 0.226584 0.226668 0.227868 0.228077 0.228232 0.22845 0.230078 0.231125 0.232588 0.23388 0.235002 0.235248 0.236028 0.235167 0.23478 0.228332 0.223354 0.225271 0.223479 0.221393 0.221791 0.220834 0.221536 0.221356 0.219996 0.21929 0.220191 0.219493 0.220405 0.22055 0.220521 0.220676 0.222567 0.222914 0.222667 0.2256 0.225846 0.226697 0.229239 0.231911 0.233572 0.233372 0.233237 0.2322 0.231892 0.233103 0.235173 0.239927 0.242812 0.242968 0.244839 0.246597 0.246714 0.248919 0.248926 0.250351 0.249754 0.251749 0.255176 0.257999 0.258419 0.258596
0.337884 0.327241 0.329006 0.325565 0.323229 0.312096 0.319919 0.324716 0.323019 0.323371 0.322651 0.326184 0.318968 0.320423 0.316939 0.318109 0.317442 0.319214 0.31945 0.319218 0.315805 0.323733 0.319041 0.330786 0.323642 0.323627 0.328017 0.333928 0.317245 0.332114 0.325819 0.321178 0.326986 0.310313 0.314215 0.314164 0.327999 0.316288 0.314922 0.316404 0.315517 0.306599 0.316484 0.310652 0.302065 0.3033 0.308631 0.298583 0.304901 0.302934 0.310748 0.300804 0.295816 0.308861 0.291493 0.30729 0.306113 0.315082 0.356115 0.403301 0.40823 0.409215 0.445481 0.460125 0.458369 0.458277 0.462018 0.456003 0.460841 0.458665 0.459007 0.454167 0.456575 0.457507 0.456393 0.456084 0.45561 0.454686 0.449897 0.453485 0.453776 0.45117 0.453067 0.442903 0.415271 0.326066 0.269142 0.25673 0.258492 0.257924 0.258441 0.257596 0.248557 0.226315 0.220638 0.218493 0.218685 0.217968 0.219134 0.219164 0.219709 0.219744 0.218529 0.219768 0.218615 0.218891 0.220482 0.220593 0.219338 0.219684 0.219748 0.220615 0.220571 0.221217 0.220438 0.220462 0.221977 0.222295 0.223018 0.22386 0.224535 0.22573 0.227675 0.227561 0.229059 0.229413 0.230519 0.226052 0.21836 0.217517 0.216388 0.215839 0.215524 0.214001 0.214156 0.214142 0.214132 0.214532 0.214126 0.213666 0.215474 0.213919 0.214751 0.215473 0.215676 0.21641 0.216624 0.21626 0.21783 0.217944 0.220936 0.222003 0.22249 0.224806 0.227251 0.227525 0.229104 0.228918 0.228974 0.227908 0.230228 0.230954 0.235437 0.23946 0.238665 0.24122 0.241273 0.241811 0.243796 0.244589 0.245389 0.245352 0.248037 0.252732 0.252719 0.255502
0.325467 0.322313 0.319531 0.315402 0.315071 0.30537 0.318846 0.317235 0.31904 0.317388 0.31481 0.321596 0.312321 0.310422 0.310513 0.308634 0.303924 0.310766 0.307179 0.312047 0.314659 0.319289 0.318155 0.328365 0.316206 0.327614 0.316931 0.325235 0.320828 0.311409 0.311835 0.306679 0.310314 0.315202 0.300864 0.311447 0.302318 0.300813 0.308895 0.306777 0.306366 0.302966 0.307939 0.305007 0.292155 0.298159 0.303484 0.29856 0.300289 0.299546 0.301958 0.301058 0.292417 0.293611 0.302773 0.291525 0.305958 0.296802 0.340231 0.397563 0.39869 0.400046 0.436569 0.446864 0.445485 0.44551 0.444089 0.444574 0.442443 0.441714 0.442888 0.443956 0.439902 0.440648 0.440119 0.440375 0.439635 0.439402 0.440512 0.4394 0.434397 0.433075 0.397527 0.31368 0.260179 0.249705 0.249919 0.251194 0.250858 0.251082 0.246802 0.230114 0.217936 0.215889 0.212954 0.213862 0.213158 0.213237 0.213262 0.212789 0.212375 0.212966 0.213115 0.21321 0.213643 0.213912 0.213571 0.214125 0.214682 0.214462 0.213686 0.214365 0.21583 0.215399 0.216089 0.21572 0.215579 0.215777 0.216314 0.218423 0.21981 0.220922 0.221085 0.222823 0.222939 0.224014 0.219867 0.213246 0.213429 0.212547 0.211273 0.211017 0.209862 0.208428 0.209651 0.209297 0.208267 0.208657 0.208711 0.20877 0.209571 0.209697 0.21051 0.212069 0.210844 0.212586 0.213823 0.213868 0.214031 0.213914 0.213343 0.214784 0.217496 0.218035 0.219616 0.223108 0.224131 0.225799 0.226202 0.226263 0.225518 0.225821 0.227061 0.229765 0.233941 0.234744 0.235906 0.236256 0.238489 0.239029 0.239458 0.241012 0.243521 0.24752 0.248337 0.248568
0.326361 0.311841 0.315496 0.31793 0.312744 0.307926 0.313196 0.302257 0.30994 0.321901 0.3089 0.309934 0.308234 0.306716 0.305323 0.303997 0.307614 0.31944 0.288373 0.309582 0.312242 0.31417 0.311541 0.30887 0.310255 0.308223 0.306314 0.310964 0.302194 0.311264 0.312456 0.31148 0.306448 0.298929 0.307159 0.298723 0.301181 0.301093 0.29586 0.298279 0.294673 0.295665 0.295558 0.298436 0.283397 0.292077 0.288472 0.286858 0.292952 0.296295 0.28805 0.292446 0.28971 0.287147 0.282125 0.283359 0.284432 0.287315 0.333698 0.380648 0.384051 0.384888 0.41687 0.435728 0.433454 0.435009 0.43395 0.43268 0.432235 0.430542 0.430165 0.429848 0.430083 0.429996 0.427247 0.430113 0.427594 0.428021 0.427637 0.420076 0.395601 0.306614 0.257685 0.242382 0.242803 0.24388 0.244089 0.243921 0.241255 0.238265 0.21684 0.213257 0.210764 0.21083 0.210246 0.208142 0.208596 0.207476 0.207881 0.207582 0.207558 0.207972 0.207681 0.207991 0.207597 0.208785 0.208832 0.20921 0.208991 0.209483 0.209543 0.209496 0.209562 0.209358 0.209594 0.210654 0.210077 0.210598 0.212325 0.213784 0.21481 0.214361 0.217643 0.216435 0.216602 0.213149 0.209367 0.207454 0.207576 0.206713 0.206127 0.205931 0.206179 0.204611 0.202383 0.202256 0.203735 0.203838 0.204056 0.204168 0.204174 0.20485 0.204532 0.206275 0.205967 0.20622 0.208653 0.208974 0.209525 0.209354 0.208459 0.209585 0.212571 0.213827 0.214021 0.216136 0.219954 0.219324 0.220677 0.221358 0.220346 0.220642 0.222535 0.223014 0.224526 0.227988 0.228949 0.229975 0.233015 0.233945 0.234076 0.234558 0.236892 0.242474 0.243563 0.244485
0.301013 0.312008 0.313134 0.310423 0.309191 0.303354 0.286529 0.31032 0.307718 0.307144 0.311324 0.303119 0.301571 0.301812 0.300116 0.300926 0.287454 0.300403 0.302777 0.304047 0.30433 0.300932 0.302715 0.3028 0.302178 0.29921 0.305719 0.300363 0.302886 0.303666 0.302162 0.298873 0.301143 0.289833 0.298471 0.298423 0.287708 0.285409 0.295237 0.289272 0.285916 0.285808 0.28204 0.284049 0.273406 0.278981 0.284339 0.287654 0.285599 0.278505 0.2828 0.276102 0.278527 0.273724 0.270215 0.280896 0.271887 0.289411 0.302434 0.370262 0.376738 0.374568 0.398552 0.421352 0.418973 0.418522 0.419463 0.41977 0.417473 0.415077 0.415669 0.415415 0.417615 0.415138 0.418625 0.414032 0.409181 0.407632 0.384453 0.306325 0.251762 0.235104 0.235032 0.235122 0.236703 0.235205 0.235622 0.23567 0.232428 0.213675 0.207729 0.204282 0.204396 0.205577 0.204368 0.203693 0.204297 0.204212 0.202747 0.203252 0.203069 0.203313 0.20239 0.203278 0.202627 0.20219 0.202768 0.202816 0.204092 0.20372 0.202285 0.203731 0.203955 0.204448 0.204518 0.204644 0.205255 0.205708 0.207983 0.208552 0.208858 0.210291 0.211087 0.211619 0.206744 0.205942 0.201924 0.202521 0.202479 0.201526 0.200362 0.199576 0.198686 0.20017 0.19934 0.197759 0.196395 0.197682 0.198379 0.198974 0.200387 0.199312 0.199705 0.20195 0.201594 0.202167 0.203671 0.203875 0.20452 0.205172 0.20479 0.204412 0.207711 0.208826 0.20995 0.211575 0.213926 0.215791 0.215953 0.216674 0.217125 0.215531 0.216768 0.217735 0.217987 0.219804 0.221296 0.223692 0.225147 0.227733 0.230613 0.229174 0.230608 0.238597 0.237176 0.236887
0.298457 0.295141 0.296807 0.302495 0.301128 0.308285 0.307473 0.310173 0.302485 0.298482 0.299077 0.30256 0.295496 0.299259 0.299061 0.297246 0.291065 0.296675 0.297532 0.296994 0.298239 0.300561 0.294409 0.291386 0.291107 0.293614 0.291637 0.292499 0.289795 0.288434 0.285965 0.288449 0.28568 0.290877 0.287912 0.282841 0.284079 0.288333 0.281182 0.279745 0.279108 0.279953 0.278855 0.278448 0.272264 0.281645 0.264925 0.28942 0.268166 0.274612 0.272781 0.267554 0.268355 0.272506 0.271013 0.270101 0.263764 0.266884 0.303712 0.349797 0.36113 0.362872 0.377694 0.407562 0.40644 0.40621 0.406142 0.405039 0.404412 0.405401 0.403694 0.404123 0.403518 0.403855 0.400561 0.395248 0.37525 0.29915 0.242019 0.230158 0.229355 0.229438 0.229471 0.228262 0.228405 0.227305 0.226728 0.214274 0.202706 0.199543 0.199598 0.198515 0.19873 0.199052 0.198806 0.198925 0.199411 0.198912 0.198987 0.198961 0.199404 0.199279 0.198222 0.19805 0.19814 0.196623 0.196614 0.197596 0.19619 0.198166 0.19744 0.198227 0.198912 0.198039 0.199669 0.198072 0.200022 0.200933 0.202736 0.203656 0.205154 0.205352 0.206494 0.201941 0.19927 0.196862 0.19744 0.197604 0.19646 0.194847 0.193025 0.192834 0.192173 0.192987 0.194228 0.19242 0.190665 0.191444 0.192018 0.194128 0.193391 0.192709 0.193302 0.195756 0.196786 0.196495 0.197802 0.199755 0.199319 0.19974 0.200808 0.199798 0.200074 0.203677 0.204075 0.205284 0.206823 0.21187 0.210952 0.21063 0.212581 0.212269 0.212395 0.212526 0.214292 0.215523 0.215673 0.217738 0.219376 0.222118 0.22257 0.225499 0.227231 0.231342 0.23227 0.233094
0.303686 0.302748 0.298104 0.295039 0.294726 0.298919 0.294867 0.293611 0.290978 0.301937 0.299099 0.292611 0.296753 0.293423 0.292383 0.292408 0.293653 0.291635 0.290524 0.290893 0.296041 0.287666 0.287952 0.287355 0.284417 0.289994 0.286344 0.284633 0.288652 0.280775 0.28693 0.281727 0.274211 0.28265 0.27857 0.280031 0.27556 0.275073 0.276448 0.269487 0.27211 0.267539 0.271712 0.263668 0.275645 0.268851 0.26535 0.263394 0.268659 0.265589 0.265542 0.268412 0.261073 0.263799 0.258061 0.260794 0.250537 0.259443 0.286316 0.338007 0.334926 0.347363 0.368438 0.395347 0.394458 0.394337 0.39412 0.390965 0.391421 0.390511 0.390775 0.389978 0.385183 0.38526 0.378298 0.311302 0.242104 0.22277 0.222742 0.222867 0.222439 0.222722 0.222654 0.222588 0.219893 0.206369 0.195885 0.194261 0.193298 0.193046 0.192746 0.192852 0.192911 0.192972 0.193946 0.194012 0.193472 0.193846 0.194274 0.194552 0.193616 0.194659 0.194691 0.195081 0.195169 0.194043 0.193984 0.19413 0.193265 0.192706 0.191439 0.192358 0.192366 0.193596 0.193559 0.193627 0.195478 0.196316 0.197972 0.198003 0.199056 0.20042 0.198525 0.194284 0.190859 0.191571 0.191419 0.191219 0.191124 0.189139 0.188078 0.186403 0.186577 0.187524 0.186833 0.187789 0.185768 0.187299 0.186261 0.187081 0.188268 0.188634 0.188282 0.188244 0.192041 0.19274 0.192978 0.194104 0.195445 0.195335 0.195491 0.196172 0.195033 0.197502 0.199667 0.201265 0.201299 0.203963 0.206112 0.206377 0.206594 0.207819 0.207836 0.207594 0.209104 0.210464 0.211673 0.213902 0.216141 0.216043 0.219264 0.22132 0.225104 0.227293 0.226586 0.227498
0.294347 0.287179 0.288438 0.287707 0.28803 0.294417 0.290514 0.296471 0.293993 0.292878 0.28721 0.294299 0.28933 0.286085 0.288319 0.28973 0.278754 0.284448 0.281981 0.28936 0.292123 0.283391 0.286883 0.277886 0.276807 0.281483 0.278028 0.277631 0.275519 0.281317 0.27173 0.277431 0.272626 0.274444 0.273392 0.275017 0.270004 0.268775 0.270116 0.265137 0.265989 0.263737 0.26445 0.264867 0.253384 0.262116 0.256255 0.255149 0.256444 0.253056 0.252915 0.258906 0.255834 0.265708 0.249913 0.250294 0.251723 0.251912 0.27688 0.314486 0.299335 0.338204 0.359402 0.378856 0.38037 0.380453 0.38069 0.380882 0.376775 0.376088 0.375951 0.374336 0.369958 0.335434 0.250023 0.219098 0.214816 0.216811 0.215598 0.215771 0.216736 0.215877 0.214033 0.204244 0.19115 0.189562 0.187039 0.187085 0.18738 0.187035 0.187532 0.186945 0.187594 0.188147 0.188208 0.187679 0.187647 0.188703 0.189218 0.189291 0.188774 0.189741 0.189327 0.190399 0.190385 0.190127 0.190613 0.190707 0.191842 0.191693 0.189814 0.187541 0.187399 0.187359 0.188512 0.188379 0.19058 0.19224 0.19316 0.192991 0.193172 0.194004 0.190811 0.185927 0.18597 0.186813 0.186962 0.186567 0.184379 0.18329 0.181704 0.181768 0.180686 0.180757 0.182285 0.183066 0.181796 0.182686 0.183682 0.182422 0.182572 0.182726 0.185001 0.183753 0.185486 0.187429 0.187508 0.188452 0.190518 0.191475 0.190459 0.19219 0.191996 0.19155 0.194068 0.195931 0.196525 0.198047 0.202089 0.202296 0.203022 0.20391 0.202433 0.203331 0.204133 0.204682 0.208192 0.212391 0.215568 0.216988 0.217635 0.220325 0.221825 0.220661 0.22123 0.221594
0.286757 0.28131 0.28013 0.281207 0.280602 0.280667 0.278907 0.274824 0.288847 0.287656 0.289102 0.278645 0.282731 0.282536 0.281695 0.281816 0.279588 0.282025 0.276418 0.282758 0.280118 0.278536 0.270053 0.27729 0.271668 0.276225 0.268996 0.269799 0.265569 0.264018 0.259272 0.265426 0.269114 0.263362 0.265731 0.261771 0.26209 0.257514 0.262645 0.258821 0.262438 0.257703 0.263231 0.258074 0.255756 0.252473 0.249831 0.247733 0.249338 0.243121 0.244056 0.250382 0.253358 0.257209 0.243369 0.241028 0.244214 0.249387 0.254317 0.314917 0.328094 0.329861 0.349942 0.367407 0.36734 0.367374 0.367366 0.364178 0.364036 0.363273 0.361791 0.347543 0.268929 0.219881 0.209486 0.209548 0.210239 0.210162 0.210231 0.2091 0.209031 0.205691 0.192586 0.185163 0.182025 0.181248 0.181194 0.182297 0.182248 0.182201 0.182204 0.182161 0.182168 0.182177 0.182815 0.182877 0.183229 0.183007 0.184038 0.184013 0.184231 0.184258 0.184962 0.185428 0.185848 0.185692 0.185491 0.185678 0.187025 0.187507 0.187412 0.187803 0.186893 0.185213 0.183486 0.183646 0.185307 0.187794 0.187529 0.188186 0.189718 0.187331 0.18068 0.181348 0.181388 0.181627 0.181189 0.17881 0.178668 0.177216 0.176204 0.175876 0.175794 0.17596 0.17569 0.177768 0.176187 0.177493 0.179491 0.178409 0.17826 0.178704 0.178957 0.178968 0.180557 0.183385 0.183264 0.183691 0.184616 0.186487 0.186188 0.186488 0.187735 0.186059 0.18856 0.190176 0.190853 0.191486 0.196521 0.196721 0.197428 0.198843 0.198358 0.197625 0.199865 0.202217 0.20963 0.210393 0.213442 0.21407 0.215517 0.214327 0.214819 0.213632 0.215666 0.216226
0.286931 0.271637 0.275921 0.273931 0.273988 0.274001 0.274414 0.274535 0.274859 0.27371 0.27503 0.285389 0.272132 0.267441 0.273384 0.270768 0.272312 0.276781 0.274579 0.272973 0.263319 0.261936 0.263614 0.271726 0.261178 0.26422 0.260127 0.254557 0.256508 0.260095 0.25792 0.26295 0.241955 0.26036 0.257834 0.256703 0.244693 0.251794 0.25455 0.24997 0.252925 0.250933 0.251326 0.248731 0.246952 0.240768 0.244505 0.236208 0.23588 0.238303 0.242477 0.233886 0.237028 0.238659 0.237271 0.238106 0.23753 0.24337 0.250718 0.307716 0.320222 0.320625 0.332139 0.357763 0.357652 0.35731 0.35453 0.353918 0.353828 0.336319 0.290978 0.227963 0.202713 0.204224 0.204141 0.20256 0.201779 0.203346 0.203743 0.201751 0.193761 0.179305 0.177323 0.176608 0.175708 0.176498 0.177289 0.176349 0.176254 0.176301 0.176398 0.177434 0.176457 0.176466 0.176149 0.178037 0.177396 0.177273 0.17823 0.179471 0.179073 0.179099 0.179175 0.18066 0.180318 0.180964 0.181143 0.181747 0.182073 0.182447 0.182966 0.18391 0.184293 0.185526 0.18121 0.178871 0.180112 0.183287 0.18284 0.183903 0.182424 0.175945 0.175978 0.176249 0.176146 0.17581 0.17524 0.173963 0.172593 0.171461 0.170521 0.170248 0.170262 0.170754 0.171346 0.171466 0.172352 0.171814 0.175044 0.173131 0.17437 0.174085 0.173565 0.174532 0.175695 0.178208 0.177898 0.178312 0.179788 0.181032 0.181414 0.181464 0.18234 0.182883 0.181398 0.185197 0.186389 0.187297 0.189525 0.193663 0.19328 0.193926 0.193796 0.193621 0.194332 0.20276 0.207183 0.207881 0.208191 0.209 0.208926 0.20935 0.208987 0.209868 0.209761 0.209109
0.2675 0.26555 0.263756 0.263327 0.269041 0.264467 0.266318 0.266149 0.267859 0.267076 0.276928 0.263192 0.262723 0.264788 0.264758 0.268062 0.266901 0.267266 0.265363 0.25808 0.262961 0.266798 0.256307 0.260155 0.254974 0.255774 0.25414 0.253686 0.253801 0.256822 0.251759 0.247551 0.254877 0.253063 0.241621 0.245926 0.240329 0.249469 0.24375 0.242543 0.245143 0.230844 0.243359 0.243194 0.239152 0.231426 0.234698 0.233128 0.234375 0.229269 0.232505 0.242231 0.236636 0.240566 0.238247 0.229918 0.236246 0.230594 0.24041 0.296625 0.309487 0.314601 0.3188 0.348048 0.34524 0.340288 0.340284 0.332739 0.283363 0.218929 0.199364 0.198088 0.197409 0.197372 0.197293 0.198631 0.197552 0.197342 0.194853 0.180364 0.17236 0.171569 0.171009 0.170815 0.170989 0.170571 0.17157 0.171658 0.170562 0.171247 0.17093 0.171026 0.171808 0.171133 0.171782 0.172433 0.173224 0.173241 0.17326 0.174239 0.174217 0.174744 0.17532 0.174482 0.175519 0.175644 0.176367 0.17636 0.177819 0.177543 0.17823 0.178417 0.17943 0.180584 0.180229 0.177816 0.175724 0.177943 0.177507 0.177577 0.17127 0.171712 0.171146 0.172007 0.17117 0.170382 0.167018 0.165772 0.165542 0.164807 0.165967 0.166023 0.165851 0.166052 0.166072 0.166234 0.167697 0.166013 0.169805 0.169056 0.169007 0.169426 0.168128 0.169766 0.170898 0.172689 0.175235 0.174142 0.175205 0.176414 0.177255 0.176552 0.178155 0.178872 0.177616 0.178908 0.180633 0.181515 0.183539 0.18818 0.188946 0.188767 0.188688 0.189231 0.190449 0.201041 0.202766 0.202344 0.20327 0.202615 0.201675 0.20358 0.203129 0.203503 0.203591 0.205333
0.260742 0.261583 0.26153 0.262234 0.260217 0.257132 0.26179 0.259985 0.262673 0.260651 0.258081 0.253154 0.256973 0.261204 0.257977 0.258416 0.25609 0.258895 0.255159 0.250703 0.248744 0.249135 0.249486 0.2503 0.256924 0.242439 0.243914 0.247534 0.245779 0.247354 0.241707 0.241841 0.243932 0.24045 0.243137 0.239492 0.233734 0.23341 0.237559 0.220333 0.226839 0.23343 0.223593 0.21971 0.232418 0.227959 0.224633 0.223961 0.227777 0.221736 0.222647 0.221502 0.223762 0.226247 0.224354 0.225549 0.225318 0.225225 0.228169 0.277275 0.297236 0.30248 0.300419 0.330876 0.330641 0.323913 0.298503 0.22631 0.194408 0.190449 0.191118 0.191345 0.191486 0.19185 0.191462 0.191698 0.189805 0.182231 0.169334 0.166385 0.164771 0.165156 0.165099 0.164734 0.165214 0.164941 0.165646 0.165199 0.165952 0.165997 0.166355 0.166448 0.167076 0.167173 0.167716 0.167595 0.167875 0.167625 0.168398 0.168551 0.169506 0.170418 0.170489 0.17114 0.170949 0.17187 0.171239 0.172433 0.172829 0.173316 0.173851 0.173898 0.174082 0.17547 0.174858 0.175718 0.171767 0.171918 0.17127 0.166785 0.165916 0.165987 0.166061 0.163857 0.161968 0.16178 0.161102 0.160874 0.161322 0.161369 0.16133 0.160755 0.160812 0.161096 0.160844 0.161496 0.161747 0.16137 0.16456 0.162928 0.164414 0.164821 0.165051 0.16515 0.166068 0.166312 0.168922 0.168948 0.170163 0.170563 0.171516 0.172429 0.171885 0.173541 0.172868 0.172932 0.175525 0.176612 0.177475 0.182401 0.18356 0.183616 0.183261 0.183186 0.187803 0.195782 0.197041 0.197469 0.196782 0.19736 0.197194 0.19736 0.197343 0.197706 0.19911 0.199957
0.253827 0.253359 0.252805 0.253126 0.253771 0.251365 0.252202 0.254678 0.250846 0.252375 0.255218 0.254716 0.248762 0.252921 0.250687 0.247925 0.25056 0.250237 0.246072 0.243399 0.241943 0.248343 0.240038 0.238564 0.245452 0.241146 0.244082 0.245866 0.243006 0.23534 0.237277 0.239789 0.231502 0.22993 0.230522 0.227645 0.23106 0.233113 0.227318 0.225875 0.233767 0.222966 0.227097 0.223405 0.219285 0.222901 0.219319 0.218318 0.22011 0.223254 0.216738 0.219193 0.215867 0.222629 0.220702 0.21331 0.215823 0.220897 0.219206 0.269493 0.288635 0.288535 0.291687 0.308996 0.308427 0.247553 0.196449 0.185847 0.185844 0.185456 0.186193 0.183951 0.184909 0.184703 0.184671 0.182527 0.166746 0.163098 0.160317 0.159954 0.159809 0.159407 0.160129 0.160248 0.160973 0.160622 0.160919 0.160959 0.161347 0.161822 0.161393 0.161397 0.161705 0.161756 0.162543 0.162597 0.163733 0.16323 0.163895 0.164475 0.164713 0.164736 0.165797 0.166214 0.167107 0.166232 0.167476 0.166864 0.168242 0.168586 0.169537 0.168848 0.169675 0.170678 0.17242 0.171654 0.168073 0.167137 0.161822 0.161278 0.161691 0.160414 0.158009 0.157734 0.157678 0.156364 0.157314 0.157136 0.156482 0.156527 0.156445 0.155841 0.156113 0.156389 0.156493 0.156776 0.156537 0.156608 0.158524 0.15948 0.160091 0.159782 0.160093 0.160364 0.16152 0.162726 0.164468 0.164626 0.164788 0.165796 0.167253 0.167741 0.1685 0.168465 0.167899 0.168406 0.169989 0.17216 0.171076 0.176084 0.178329 0.178428 0.179116 0.179946 0.182675 0.190745 0.191019 0.191751 0.1914 0.191825 0.191436 0.192053 0.192127 0.192252 0.193708 0.197236
0.254038 0.24729 0.246573 0.246173 0.244627 0.246896 0.240415 0.243488 0.246909 0.240297 0.241615 0.247934 0.244169 0.246935 0.241096 0.244045 0.241765 0.239975 0.239368 0.240331 0.241688 0.234604 0.233554 0.231043 0.23083 0.227434 0.230207 0.226184 0.227073 0.22745 0.228046 0.228861 0.228267 0.225284 0.222825 0.217856 0.222881 0.220019 0.211629 0.225386 0.216461 0.218007 0.212507 0.216821 0.213288 0.211502 0.213068 0.216711 0.20728 0.211607 0.210692 0.206571 0.210734 0.202742 0.209947 0.207536 0.208712 0.208543 0.211536 0.233264 0.280776 0.281058 0.261494 0.24056 0.205142 0.179579 0.179195 0.179317 0.178181 0.179778 0.178983 0.178863 0.178367 0.178251 0.176167 0.160333 0.156663 0.155091 0.155492 0.155014 0.154958 0.15528 0.154891 0.154882 0.155419 0.155622 0.155659 0.156117 0.156493 0.156452 0.156706 0.156291 0.156925 0.1571 0.15778 0.158294 0.158936 0.158992 0.159722 0.159782 0.159677 0.161083 0.160814 0.161595 0.16263 0.162619 0.16282 0.163484 0.163647 0.163351 0.164652 0.164108 0.166508 0.16702 0.167702 0.167462 0.163101 0.158023 0.156145 0.158143 0.15669 0.154521 0.153829 0.154448 0.15355 0.152949 0.15142 0.151458 0.151244 0.151625 0.151375 0.150491 0.151093 0.1517 0.151078 0.151437 0.151926 0.15127 0.152107 0.154867 0.15435 0.156396 0.155289 0.155593 0.156587 0.156772 0.158933 0.160587 0.160015 0.16082 0.163741 0.164517 0.163702 0.163797 0.162988 0.163782 0.163499 0.16682 0.166982 0.169453 0.173764 0.173904 0.174005 0.175247 0.17943 0.184857 0.185912 0.184688 0.185886 0.186607 0.186362 0.186651 0.186768 0.187865 0.190215 0.194134
0.245586 0.239647 0.241367 0.241277 0.239989 0.239009 0.236838 0.23532 0.234368 0.238074 0.237088 0.239769 0.236542 0.237276 0.232928 0.233041 0.230623 0.231678 0.236614 0.230513 0.227459 0.225385 0.237584 0.223277 0.226128 0.226261 0.224351 0.222576 0.220644 0.234961 0.213477 0.219804 0.220767 0.215302 0.222496 0.215931 0.212154 0.215543 0.218931 0.224053 0.213079 0.208806 0.206068 0.209802 0.206375 0.213485 0.211877 0.210686 0.20597 0.205119 0.204725 0.204293 0.202145 0.197873 0.210963 0.196347 0.193934 0.198475 0.202648 0.227042 0.253953 0.209617 0.185023 0.175624 0.173818 0.173606 0.17356 0.173515 0.172455 0.172986 0.17303 0.172588 0.171172 0.165932 0.152517 0.151883 0.149299 0.149402 0.149669 0.150344 0.150005 0.149992 0.149981 0.150216 0.149924 0.150853 0.15093 0.151619 0.151089 0.152106 0.151336 0.152438 0.151427 0.15241 0.15189 0.153568 0.153662 0.153595 0.154383 0.154564 0.155071 0.154605 0.156459 0.156484 0.156471 0.157233 0.158038 0.158438 0.158596 0.159041 0.159774 0.161529 0.163613 0.163824 0.164119 0.16409 0.155244 0.151255 0.152823 0.151982 0.149834 0.149078 0.147588 0.146712 0.146125 0.144516 0.144219 0.144787 0.145029 0.144864 0.144988 0.145939 0.145864 0.146492 0.146918 0.1471 0.146296 0.146443 0.147667 0.150302 0.150876 0.150833 0.150668 0.151876 0.15201 0.152396 0.153619 0.156264 0.155249 0.155446 0.159156 0.15903 0.158699 0.15879 0.15834 0.157808 0.159129 0.160878 0.162887 0.165117 0.16799 0.168801 0.16928 0.169679 0.174288 0.180021 0.179809 0.180498 0.179996 0.181122 0.180799 0.181637 0.181923 0.184107 0.188459 0.189632
0.234559 0.232075 0.232321 0.232154 0.223989 0.232125 0.226447 0.228176 0.223524 0.229315 0.224851 0.232531 0.230516 0.226948 0.226394 0.224617 0.22457 0.2215 0.223674 0.225604 0.222683 0.219693 0.217691 0.217203 0.216314 0.213285 0.213466 0.212034 0.211862 0.213997 0.213591 0.213071 0.212516 0.207422 0.214398 0.204061 0.21216 0.198603 0.205862 0.208632 0.206361 0.205617 0.201763 0.202908 0.200744 0.198148 0.1954 0.199031 0.197049 0.195193 0.197477 0.198769 0.187392 0.191037 0.188967 0.19067 0.188886 0.185323 0.174397 0.175402 0.175578 0.16519 0.168025 0.167894 0.168359 0.16764 0.166291 0.166368 0.165933 0.166173 0.165466 0.162236 0.151905 0.146512 0.144831 0.144849 0.144395 0.14414 0.145109 0.144581 0.145395 0.144674 0.144821 0.145522 0.144726 0.145785 0.146254 0.146567 0.146763 0.146881 0.146884 0.147557 0.147011 0.147688 0.147973 0.148929 0.149532 0.148836 0.149719 0.150564 0.150543 0.149893 0.151257 0.151636 0.152333 0.153348 0.153694 0.153529 0.155064 0.156523 0.157589 0.161741 0.161549 0.162031 0.160656 0.153346 0.149241 0.146838 0.144911 0.142231 0.141217 0.140561 0.139709 0.139851 0.139915 0.13883 0.140609 0.140761 0.139881 0.139481 0.141195 0.140322 0.141285 0.142173 0.141946 0.142561 0.142061 0.141802 0.141867 0.145182 0.146098 0.146175 0.146015 0.147105 0.14824 0.147849 0.150083 0.151395 0.151139 0.151774 0.153873 0.154155 0.153793 0.154489 0.153606 0.153456 0.155022 0.155248 0.157195 0.162136 0.163408 0.164071 0.164576 0.166156 0.170131 0.175153 0.174412 0.175286 0.174882 0.175061 0.175494 0.176099 0.178001 0.181832 0.182168 0.186109
0.228397 0.230897 0.225497 0.224647 0.217831 0.223009 0.221175 0.220557 0.219263 0.219179 0.218781 0.21747 0.220475 0.220889 0.221028 0.215531 0.2189 0.214461 0.214035 0.211955 0.211898 0.217879 0.212352 0.208534 0.208109 0.210005 0.207904 0.206046 0.205723 0.203413 0.206227 0.20311 0.20632 0.203218 0.199581 0.205015 0.204384 0.190674 0.190723 0.199654 0.197961 0.197901 0.195175 0.194545 0.197822 0.199709 0.198896 0.198551 0.190115 0.191169 0.189684 0.189282 0.181959 0.183913 0.177451 0.178796 0.169506 0.167481 0.161854 0.160721 0.161509 0.161838 0.16125 0.161508 0.161078 0.161148 0.160838 0.159573 0.159498 0.157129 0.149448 0.142307 0.139413 0.139504 0.139864 0.139537 0.139785 0.139806 0.139637 0.139432 0.140221 0.140057 0.139894 0.140153 0.140261 0.140828 0.1409 0.140822 0.141928 0.141356 0.142427 0.142392 0.14255 0.143282 0.14329 0.143949 0.144342 0.144317 0.144676 0.145647 0.146314 0.146449 0.146355 0.14764 0.1482 0.148533 0.149824 0.15039 0.15226 0.155892 0.157347 0.159187 0.15655 0.156442 0.15258 0.143736 0.138224 0.136661 0.136288 0.135687 0.135702 0.135142 0.134931 0.135106 0.135014 0.134001 0.134491 0.134559 0.135903 0.137944 0.13675 0.135903 0.137106 0.136961 0.137398 0.137219 0.137197 0.137411 0.138327 0.139208 0.142114 0.141761 0.141995 0.142504 0.141927 0.143653 0.144293 0.146423 0.146877 0.147806 0.149956 0.149838 0.14988 0.150083 0.149187 0.149279 0.150795 0.152082 0.15381 0.158161 0.159076 0.159362 0.159692 0.162336 0.165749 0.170813 0.169376 0.169662 0.169712 0.169805 0.171391 0.173228 0.176284 0.175837 0.17689 0.17714
0.21745 0.216539 0.215636 0.21607 0.215999 0.215425 0.210032 0.212394 0.21192 0.216025 0.208824 0.208952 0.210936 0.231144 0.210285 0.209584 0.208506 0.207819 0.208364 0.205663 0.203469 0.203804 0.199227 0.204294 0.202056 0.201385 0.198406 0.199531 0.198651 0.200842 0.195211 0.197712 0.19995 0.199436 0.192 0.19425 0.201951 0.19075 0.190043 0.192604 0.190368 0.189974 0.193253 0.187517 0.188596 0.191358 0.181537 0.1883 0.182006 0.187277 0.184126 0.179939 0.173786 0.173781 0.165114 0.158799 0.155724 0.15466 0.155605 0.154769 0.155384 0.154739 0.154801 0.154644 0.154488 0.154483 0.154295 0.153368 0.146447 0.138013 0.136578 0.134591 0.134899 0.134802 0.135077 0.135168 0.135038 0.134652 0.135413 0.135214 0.134869 0.135117 0.135514 0.135728 0.135647 0.136418 0.136525 0.136892 0.137445 0.138074 0.137817 0.138264 0.138638 0.138719 0.138763 0.138662 0.13967 0.139683 0.140806 0.141302 0.141467 0.141486 0.142689 0.142971 0.143808 0.144907 0.146193 0.14874 0.1514 0.151472 0.152324 0.152474 0.151737 0.151706 0.13859 0.132588 0.131741 0.1316 0.131944 0.131288 0.130261 0.131318 0.131113 0.131021 0.130635 0.129952 0.13009 0.130081 0.129255 0.130258 0.130929 0.132425 0.133589 0.133785 0.133497 0.133473 0.132778 0.132872 0.134583 0.134985 0.136179 0.137341 0.137115 0.137909 0.138782 0.13951 0.140317 0.141508 0.142477 0.142997 0.144848 0.145113 0.145685 0.144778 0.144444 0.145105 0.146572 0.146976 0.150369 0.153162 0.15397 0.154861 0.155027 0.157238 0.162893 0.16424 0.163855 0.164518 0.16476 0.165201 0.169149 0.169722 0.170145 0.169516 0.169555 0.171402
0.210017 0.208645 0.208303 0.208042 0.20722 0.204296 0.206952 0.206712 0.202765 0.202691 0.202697 0.200579 0.198472 0.198311 0.197375 0.20573 0.207281 0.204943 0.200471 0.199969 0.192571 0.197249 0.194153 0.197761 0.194129 0.194033 0.193575 0.192097 0.190846 0.19589 0.190666 0.189762 0.18839 0.18881 0.193855 0.192169 0.194086 0.1886 0.180078 0.18397 0.184492 0.184655 0.184532 0.180473 0.186105 0.183862 0.178775 0.181199 0.173242 0.17841 0.1655 0.170746 0.15275 0.153651 0.149558 0.147986 0.149507 0.148659 0.14986 0.149411 0.149324 0.148093 0.148763 0.148683 0.148641 0.148493 0.148276 0.138863 0.13214 0.129822 0.130403 0.129663 0.129675 0.129689 0.129668 0.129721 0.129846 0.130188 0.130066 0.130303 0.130434 0.130745 0.1302 0.131157 0.131115 0.130896 0.131856 0.132283 0.13246 0.132211 0.132998 0.133037 0.133221 0.134084 0.13402 0.134064 0.134503 0.136087 0.135493 0.136115 0.137704 0.137722 0.138957 0.139515 0.140682 0.141708 0.144131 0.145091 0.14641 0.146515 0.146013 0.146516 0.144944 0.137282 0.129152 0.127651 0.127799 0.128166 0.127565 0.127182 0.126405 0.125845 0.125969 0.125161 0.125145 0.12524 0.125121 0.125292 0.12579 0.125498 0.125821 0.126219 0.127125 0.12659 0.12913 0.12994 0.130753 0.131244 0.130323 0.130675 0.131066 0.132988 0.132732 0.133426 0.134124 0.13563 0.136155 0.136793 0.138607 0.138231 0.140093 0.140018 0.140056 0.139914 0.140032 0.14255 0.143417 0.143661 0.147016 0.149272 0.150054 0.15047 0.150631 0.151801 0.157712 0.15879 0.159053 0.159919 0.161541 0.163547 0.164435 0.164162 0.163778 0.163131 0.163773 0.16533
0.222986 0.203073 0.20117 0.20048 0.199761 0.19963 0.198995 0.192856 0.170053 0.180212 0.194028 0.19159 0.192834 0.190989 0.192814 0.192273 0.192884 0.197968 0.192223 0.191383 0.184601 0.185383 0.195267 0.186955 0.190405 0.18868 0.186185 0.188366 0.182565 0.188635 0.181091 0.180997 0.187417 0.183247 0.185307 0.181856 0.181817 0.174668 0.174187 0.174586 0.17282 0.177489 0.175207 0.178445 0.174323 0.174672 0.171819 0.167231 0.165818 0.155993 0.146667 0.146665 0.143992 0.143163 0.143239 0.143353 0.143296 0.143344 0.14298 0.143206 0.143054 0.14325 0.142652 0.142713 0.141463 0.139697 0.128014 0.125772 0.125536 0.124887 0.124965 0.124976 0.125023 0.125002 0.125224 0.124792 0.125569 0.125208 0.125298 0.125285 0.125343 0.126057 0.126083 0.12649 0.126725 0.126307 0.126786 0.12737 0.127679 0.127956 0.128233 0.128478 0.129241 0.129212 0.129461 0.129641 0.130651 0.131387 0.131883 0.132 0.132982 0.133931 0.134882 0.135109 0.136719 0.139954 0.140084 0.140976 0.140177 0.140968 0.140795 0.139862 0.136926 0.127072 0.123684 0.122199 0.122169 0.121137 0.121075 0.121016 0.120611 0.120104 0.120119 0.120136 0.120399 0.120802 0.121104 0.120747 0.120566 0.121397 0.122579 0.124637 0.124118 0.124823 0.126264 0.126172 0.126677 0.126381 0.126367 0.126286 0.126488 0.127991 0.128727 0.129151 0.130775 0.1317 0.132771 0.133142 0.134046 0.134177 0.135798 0.1353 0.135514 0.134631 0.137871 0.137423 0.137582 0.139527 0.143552 0.144802 0.145163 0.14535 0.146797 0.149868 0.153419 0.154353 0.154211 0.154289 0.155673 0.156159 0.157485 0.157655 0.157792 0.157934 0.157531 0.160239
0.194222 0.194182 0.193935 0.192462 0.192436 0.188875 0.156768 0.122526 0.117179 0.130143 0.184095 0.185328 0.18337 0.181526 0.183324 0.186608 0.18478 0.17786 0.183768 0.183442 0.184805 0.176083 0.178694 0.184623 0.178064 0.179549 0.177556 0.176969 0.177102 0.176967 0.176666 0.175012 0.173908 0.175047 0.173376 0.176823 0.177529 0.176819 0.171859 0.169879 0.166692 0.16102 0.169736 0.161148 0.165892 0.162533 0.164757 0.159025 0.143774 0.141486 0.137996 0.13793 0.138435 0.137971 0.138246 0.137687 0.136429 0.137313 0.137329 0.13648 0.137001 0.136924 0.134647 0.128938 0.123634 0.121434 0.120071 0.120242 0.120115 0.120056 0.120431 0.11951 0.119455 0.119402 0.120582 0.120099 0.119717 0.120168 0.120754 0.121274 0.12103 0.12122 0.121179 0.122136 0.121997 0.122558 0.122788 0.122885 0.123017 0.123417 0.123452 0.124053 0.124623 0.124595 0.124635 0.126039 0.125849 0.126725 0.126704 0.128081 0.128695 0.129577 0.130327 0.132243 0.134162 0.133819 0.133977 0.13507 0.134499 0.133329 0.133327 0.130527 0.123427 0.119859 0.11866 0.117061 0.116464 0.116736 0.116209 0.116251 0.116061 0.116374 0.116322 0.11587 0.115419 0.115707 0.115796 0.116624 0.116684 0.119365 0.119397 0.120205 0.119671 0.12146 0.121571 0.121178 0.121766 0.12293 0.121128 0.121927 0.122594 0.123063 0.124584 0.126145 0.127237 0.128774 0.128007 0.127853 0.129337 0.130213 0.130957 0.131057 0.130648 0.132671 0.131892 0.132487 0.133807 0.136853 0.139289 0.139874 0.13974 0.140058 0.142351 0.146317 0.148633 0.148353 0.148562 0.148776 0.148645 0.149321 0.149022 0.150443 0.151275 0.150953 0.151759 0.154441
0.189164 0.187764 0.180709 0.184852 0.176784 0.161422 0.113425 0.108744 0.10791 0.111744 0.145919 0.172774 0.178547 0.172166 0.177233 0.181026 0.176175 0.17728 0.177062 0.185753 0.173696 0.177657 0.169902 0.175877 0.169104 0.175075 0.16826 0.173671 0.169206 0.172747 0.167612 0.168377 0.170548 0.168216 0.170783 0.170612 0.159734 0.163256 0.159592 0.15873 0.161314 0.159681 0.161198 0.159119 0.158601 0.158281 0.137555 0.137608 0.133044 0.132911 0.132845 0.132491 0.132107 0.132339 0.132057 0.131713 0.132208 0.131611 0.13137 0.130681 0.129738 0.123462 0.115875 0.114975 0.114975 0.114239 0.115269 0.115691 0.11451 0.114839 0.115105 0.115692 0.114518 0.115236 0.115956 0.115651 0.115316 0.115174 0.115674 0.116239 0.116485 0.11718 0.116692 0.117198 0.117673 0.11722 0.117697 0.117728 0.118303 0.118399 0.119073 0.119492 0.120009 0.120718 0.121269 0.121277 0.122022 0.122545 0.122813 0.123691 0.124762 0.126092 0.126974 0.128884 0.128584 0.129119 0.128726 0.128912 0.129067 0.12438 0.123863 0.118855 0.115707 0.113619 0.112752 0.110858 0.110379 0.110898 0.110904 0.110397 0.10973 0.110578 0.111461 0.111025 0.110655 0.111641 0.113307 0.114526 0.114164 0.114645 0.114999 0.115776 0.116298 0.116498 0.118095 0.117685 0.118153 0.118592 0.117182 0.116097 0.118399 0.118849 0.120836 0.121556 0.1229 0.125067 0.124492 0.12369 0.124659 0.125437 0.125923 0.126282 0.126776 0.127769 0.127448 0.128747 0.130977 0.134044 0.136956 0.136129 0.136698 0.137339 0.14045 0.141571 0.142665 0.143164 0.142997 0.1428 0.142942 0.143558 0.143135 0.144334 0.144593 0.144856 0.146073 0.15008
0.179958 0.173228 0.178356 0.162804 0.163456 0.123357 0.10535 0.103929 0.103742 0.104977 0.113876 0.141082 0.169083 0.170136 0.166963 0.165529 0.165892 0.166864 0.170451 0.159679 0.157965 0.166674 0.162839 0.161614 0.162517 0.1632 0.159875 0.164796 0.161357 0.162306 0.158413 0.162011 0.162058 0.160194 0.15492 0.164946 0.151325 0.151742 0.159507 0.150054 0.153821 0.155558 0.150688 0.148194 0.136273 0.12969 0.128528 0.127214 0.127178 0.127082 0.126491 0.126896 0.126869 0.126132 0.126419 0.125253 0.126256 0.125744 0.124029 0.120863 0.112045 0.109816 0.109567 0.110554 0.109629 0.109631 0.109727 0.110812 0.110356 0.109994 0.110065 0.110198 0.110487 0.110562 0.110884 0.110899 0.110546 0.111211 0.111291 0.111373 0.111302 0.112278 0.11224 0.112419 0.112598 0.113179 0.113515 0.113759 0.113912 0.113974 0.114838 0.115333 0.116076 0.116635 0.116795 0.117449 0.118504 0.118545 0.119388 0.119924 0.120307 0.122417 0.122342 0.122884 0.122996 0.123171 0.123255 0.123094 0.123336 0.119075 0.117621 0.115212 0.111321 0.109437 0.108448 0.106441 0.104837 0.104685 0.105247 0.104728 0.105293 0.107532 0.107204 0.108334 0.107885 0.108554 0.108916 0.109218 0.109646 0.110325 0.110572 0.111288 0.11182 0.112417 0.112581 0.112997 0.114164 0.114492 0.115574 0.113406 0.112741 0.114896 0.115552 0.118 0.119513 0.121094 0.12051 0.119613 0.119978 0.121388 0.122266 0.121759 0.123183 0.122903 0.124338 0.125842 0.127004 0.131448 0.131574 0.131735 0.13222 0.1337 0.135027 0.135976 0.136129 0.13696 0.137475 0.137092 0.136549 0.136526 0.137736 0.13785 0.138033 0.138512 0.140951 0.142682
0.172862 0.172168 0.165097 0.157802 0.15384 0.11031 0.100377 0.0990142 0.0992701 0.100116 0.101208 0.106406 0.119083 0.144657 0.160451 0.159351 0.158902 0.157019 0.158631 0.160212 0.156667 0.156701 0.156769 0.160307 0.156703 0.156175 0.1602 0.159889 0.160914 0.15907 0.154031 0.154979 0.148966 0.157786 0.15281 0.147936 0.144306 0.145278 0.148622 0.152745 0.146527 0.142926 0.140529 0.131081 0.124695 0.121396 0.121357 0.121231 0.121525 0.121523 0.120749 0.120721 0.120309 0.120286 0.120801 0.119295 0.117525 0.111362 0.105295 0.104428 0.104156 0.104954 0.104419 0.105041 0.105665 0.105341 0.105315 0.105113 0.105209 0.105483 0.105847 0.105798 0.105809 0.106029 0.106427 0.106176 0.106665 0.106091 0.106316 0.106897 0.107479 0.108269 0.108203 0.107961 0.108192 0.108484 0.109132 0.108864 0.109425 0.109455 0.110313 0.110966 0.11162 0.112452 0.112724 0.113322 0.11339 0.114641 0.115745 0.116408 0.117072 0.116436 0.11799 0.117652 0.117316 0.11775 0.117889 0.117794 0.117492 0.114645 0.110643 0.106817 0.104533 0.103138 0.102337 0.101418 0.101865 0.100503 0.101992 0.102325 0.102244 0.102343 0.10283 0.102962 0.103572 0.103589 0.104472 0.104374 0.105023 0.105346 0.106239 0.107105 0.107795 0.108338 0.108316 0.108685 0.109745 0.11018 0.110048 0.108807 0.108889 0.109123 0.110414 0.113847 0.116837 0.116365 0.116589 0.116273 0.116412 0.118342 0.118034 0.118488 0.118672 0.118768 0.12115 0.121712 0.125299 0.126117 0.127125 0.127831 0.128359 0.128246 0.129581 0.130523 0.130268 0.13125 0.131404 0.130849 0.130792 0.130396 0.130469 0.131416 0.13187 0.133141 0.135294 0.135766
0.165043 0.159754 0.152297 0.151304 0.133877 0.101617 0.0969317 0.0949109 0.0944432 0.0949877 0.0950293 0.094866 0.0966255 0.104283 0.11475 0.126781 0.152008 0.154107 0.152922 0.15069 0.152794 0.147624 0.149998 0.14826 0.15046 0.148006 0.148262 0.149538 0.151568 0.148819 0.148943 0.148405 0.14689 0.143475 0.137848 0.140419 0.142125 0.141759 0.144186 0.136383 0.134423 0.11769 0.120253 0.115707 0.116468 0.115627 0.115677 0.115786 0.115696 0.115781 0.114925 0.114757 0.114819 0.114484 0.111102 0.103934 0.100448 0.100411 0.0997777 0.100313 0.0996546 0.10005 0.100333 0.100419 0.10042 0.100792 0.100796 0.101 0.101205 0.101042 0.100852 0.101884 0.101554 0.10168 0.101778 0.101764 0.101695 0.101853 0.102409 0.102399 0.102646 0.103346 0.103765 0.104241 0.104406 0.104346 0.104513 0.104625 0.104822 0.105587 0.106042 0.106724 0.107209 0.107554 0.108522 0.109266 0.110124 0.110614 0.112183 0.111288 0.112207 0.111683 0.111528 0.111487 0.111817 0.111438 0.112508 0.111451 0.110055 0.103607 0.101075 0.0991682 0.0989092 0.0967761 0.0971727 0.0969169 0.0969751 0.0969779 0.097039 0.0974431 0.0979915 0.0981144 0.0982675 0.0985078 0.0989497 0.099736 0.0998681 0.10063 0.100767 0.101019 0.101646 0.102189 0.103394 0.103427 0.104064 0.104561 0.105118 0.105851 0.10604 0.104448 0.104411 0.104376 0.105929 0.109219 0.1109 0.111545 0.112685 0.111514 0.112198 0.114221 0.113607 0.113722 0.114772 0.11638 0.116594 0.118271 0.120219 0.120915 0.12103 0.121207 0.122651 0.122866 0.123114 0.123719 0.124477 0.122963 0.12512 0.124469 0.124204 0.124478 0.124665 0.124946 0.125738 0.12848 0.129676 0.129767
0.155099 0.157026 0.155307 0.144291 0.126223 0.100364 0.0937121 0.0911234 0.0905905 0.0904017 0.0901024 0.0900323 0.0903038 0.0906331 0.0916964 0.0992884 0.112372 0.143392 0.142208 0.145539 0.137648 0.140732 0.143003 0.141565 0.141331 0.144467 0.140347 0.14801 0.140989 0.140275 0.13533 0.140687 0.140565 0.134869 0.134759 0.138016 0.135926 0.134503 0.127969 0.117433 0.114084 0.111264 0.111879 0.111398 0.111277 0.110829 0.110384 0.110243 0.110048 0.109447 0.109366 0.108961 0.108148 0.1009 0.0951319 0.0956391 0.0951121 0.0951044 0.0949076 0.0953927 0.0953348 0.0959311 0.0957669 0.0956314 0.0961494 0.0963424 0.0959933 0.0962973 0.0960864 0.0965827 0.0966998 0.0972251 0.0973715 0.0973562 0.0973691 0.0975457 0.0972895 0.0978749 0.0975122 0.0984247 0.0984165 0.0989242 0.0991618 0.0993191 0.100019 0.100395 0.100636 0.100608 0.100851 0.101393 0.101801 0.102942 0.103053 0.103789 0.105096 0.10578 0.106248 0.10585 0.105887 0.106223 0.106615 0.106031 0.106045 0.106793 0.106511 0.106013 0.106303 0.102415 0.0968698 0.0956684 0.094006 0.0931047 0.0924758 0.0924459 0.0924987 0.0921721 0.0927715 0.0927739 0.0931588 0.0931913 0.0937156 0.0938057 0.0937882 0.0939632 0.0947948 0.094837 0.0953998 0.0956096 0.0963407 0.0968008 0.0968526 0.0975635 0.0983319 0.0989934 0.099932 0.100572 0.100748 0.101585 0.101491 0.100904 0.0999046 0.100229 0.101163 0.103841 0.106663 0.108304 0.10779 0.107168 0.108571 0.108842 0.108837 0.111089 0.111788 0.112353 0.111749 0.114527 0.114825 0.115015 0.115292 0.115937 0.116475 0.116848 0.117394 0.117831 0.118188 0.118577 0.118375 0.11826 0.118744 0.118351 0.119127 0.118625 0.120581 0.121888 0.122256 0.122685
0.146266 0.144928 0.13897 0.138309 0.134488 0.0972488 0.0926108 0.0878804 0.0866652 0.08616 0.0860909 0.0857811 0.085663 0.0856281 0.0859452 0.086371 0.0894809 0.0943271 0.0992976 0.104553 0.115833 0.126716 0.1351 0.13538 0.134359 0.132148 0.134323 0.132574 0.13483 0.135207 0.127023 0.133301 0.132527 0.125061 0.127857 0.128914 0.126501 0.111953 0.109351 0.106336 0.106788 0.106089 0.105341 0.105433 0.105292 0.104918 0.104964 0.103811 0.103705 0.103679 0.102717 0.101496 0.0951463 0.0915638 0.0907451 0.0907092 0.0906748 0.0906157 0.0906361 0.0905018 0.0910184 0.0911464 0.0909641 0.0916396 0.0914078 0.0922408 0.0919595 0.0917053 0.0914783 0.0916931 0.0922458 0.0925143 0.0928356 0.0928988 0.0931184 0.0928988 0.0936121 0.0935498 0.0935143 0.0939714 0.0942742 0.0951988 0.0952187 0.0952395 0.0957528 0.0959306 0.0961093 0.0960044 0.0967541 0.0974012 0.0979199 0.0983102 0.0991154 0.099637 0.100806 0.100425 0.100328 0.100983 0.101122 0.10064 0.101169 0.101156 0.100858 0.101209 0.101587 0.0993245 0.0943153 0.092182 0.0898934 0.0892902 0.0883247 0.087334 0.0874595 0.0872488 0.0877401 0.0876875 0.0882595 0.0884693 0.0883687 0.0889713 0.0893156 0.0891151 0.0895665 0.0896552 0.0903968 0.0906192 0.0911563 0.0914606 0.0919757 0.0920491 0.0924116 0.0931945 0.0939278 0.0945329 0.0950358 0.095751 0.0969147 0.0973998 0.0970737 0.0964076 0.0962948 0.096026 0.0958117 0.0966535 0.0987916 0.0999322 0.100469 0.101909 0.103645 0.104195 0.106525 0.107428 0.107114 0.107679 0.107902 0.108182 0.108972 0.108858 0.110057 0.110245 0.110784 0.110951 0.11139 0.112049 0.112362 0.112678 0.112295 0.111859 0.112835 0.113518 0.113117 0.112173 0.115294 0.116241 0.115689 0.117001
0.141929 0.130489 0.134971 0.13124 0.131032 0.0957143 0.0910849 0.0856178 0.0836827 0.0821938 0.0819735 0.0822188 0.0816948 0.0813794 0.0814513 0.0812946 0.0815237 0.0814736 0.0828532 0.0833404 0.0850748 0.0898812 0.0943747 0.0998999 0.108556 0.120839 0.124735 0.126759 0.124191 0.127175 0.123989 0.125816 0.121361 0.122063 0.120334 0.107804 0.104565 0.10206 0.101611 0.101266 0.100548 0.100183 0.0995454 0.100058 0.099949 0.0992444 0.0988412 0.0990622 0.0979421 0.0963775 0.0915124 0.0866535 0.0857216 0.0859828 0.0859724 0.085889 0.0862283 0.0 0.0 0.0865099 0.0 0.0865058 0.0867775 0.0 0.0 0.0869316 0.0875039 0.087262 0.0875152 0.0872755 0.0884686 0.0882555 0.0883149 0.0885973 0.0886832 0.0889674 0.0887346 0.0894891 0.0894799 0.0899155 0.0902039 0.0905672 0.0910052 0.0910004 0.0912922 0.0913877 0.0920755 0.0920988 0.0926651 0.0928626 0.0936771 0.0944433 0.0951364 0.095658 0.0950959 0.0953728 0.0954042 0.0953625 0.0949519 0.095356 0.0954898 0.0961179 0.0952671 0.0955273 0.0915692 0.0886227 0.0866882 0.0850255 0.0840052 0.0833066 0.082831 0.0831716 0.0832415 0.0832384 0.0836074 0.0835571 0.0834832 0.0839798 0.0841559 0.0845068 0.0846611 0.0851141 0.0853209 0.0855292 0.0856894 0.0863229 0.0869088 0.0872979 0.0876392 0.0879576 0.0886015 0.0884509 0.0894728 0.0900738 0.0909269 0.0919075 0.092192 0.0931786 0.093193 0.0914324 0.0898967 0.0879846 0.0876018 0.0872957 0.0874183 0.0874426 0.0880478 0.0890845 0.0919661 0.0977075 0.100961 0.101568 0.101647 0.101729 0.102244 0.103196 0.103465 0.103508 0.104395 0.104394 0.104447 0.104886 0.105457 0.105596 0.106328 0.106449 0.107293 0.106517 0.106594 0.107294 0.106704 0.108554 0.109112 0.109388 0.110137 0.109611
0.134877 0.133563 0.132453 0.130658 0.124821 0.0964171 0.0848454 0.0839066 0.0818434 0.0788077 0.0782303 0.0776809 0.0776476 0.0774943 0.0770513 0.076976 0.0769029 0.0768076 0.0769567 0.0767687 0.0779847 0.0787412 0.0790399 0.0790749 0.0814217 0.0860731 0.0895646 0.0980649 0.115011 0.115 0.116475 0.117998 0.116131 0.105631 0.0973922 0.097173 0.0956233 0.0955528 0.0954845 0.0945633 0.094666 0.094557 0.0942842 0.0942031 0.093532 0.0929109 0.0926234 0.0916996 0.0900697 0.0844046 0.0824289 0.081471 0.081388 0.0814243 0.0816975 0.0814771 0.0817056 0.0 0.0 0.0824445 0.0 0.0 0.0 0.0 0.0829603 0.0831041 0.0834368 0.0828784 0.0829079 0.0831964 0.0834155 0.0841044 0.0840203 0.0841246 0.0845112 0.0848048 0.084982 0.0849959 0.0854325 0.0854248 0.0862143 0.0861848 0.0868587 0.0871118 0.0870612 0.0871052 0.0875012 0.0878981 0.0886705 0.0893032 0.0898898 0.0905945 0.0900821 0.0900155 0.0900669 0.0905174 0.0 0.0895469 0.0903281 0.0897746 0.0902297 0.0905452 0.0894083 0.0841925 0.0823528 0.0815453 0.0798705 0.0788529 0.0788215 0.0786031 0.0788552 0.0784274 0.078611 0.0788897 0.0789581 0.0791216 0.0790041 0.0798284 0.0799721 0.0799053 0.0806166 0.0805759 0.0811019 0.0813939 0.081381 0.0815581 0.0825156 0.0825782 0.0832565 0.0832988 0.0839339 0.0846185 0.0850452 0.0856161 0.0865449 0.0876901 0.088079 0.0890641 0.0873191 0.082672 0.0824708 0.082295 0.0828596 0.0829738 0.0824215 0.0830889 0.0829462 0.0831404 0.0835047 0.08332 0.0875063 0.0947069 0.096584 0.0960352 0.0966448 0.097234 0.0970297 0.0982544 0.0982979 0.0988531 0.0989995 0.0990758 0.0993009 0.100333 0.100004 0.101094 0.101504 0.101208 0.101084 0.100766 0.100696 0.102501 0.102487 0.103415 0.103704 0.103451
0.128278 0.126867 0.121027 0.125169 0.121672 0.11452 0.085998 0.0809768 0.079578 0.0776509 0.074641 0.0736335 0.0731856 0.0730873 0.0733371 0.0731043 0.0728738 0.0725999 0.0727186 0.0729077 0.0731669 0.0741136 0.0740775 0.0744998 0.0746951 0.0757346 0.0762277 0.0781312 0.081986 0.0823187 0.0893856 0.093792 0.0919923 0.0922781 0.0897639 0.0901454 0.0900772 0.0898758 0.0898119 0.0896149 0.0889026 0.0886652 0.088093 0.0875457 0.0866866 0.0836323 0.0799553 0.0773816 0.0772751 0.0779981 0.0772454 0.0773668 0.0771542 0.076943 0.0769119 0.0774178 0.0776121 0.0 0.0 0.0 0.0 0.0780866 0.0780866 0.0783549 0.0788021 0.078805 0.0787644 0.0788805 0.0792866 0.0790708 0.0790562 0.0794648 0.0798741 0.0801508 0.0801617 0.0804844 0.0804081 0.0810655 0.0814127 0.0818051 0.0819095 0.0823477 0.0823205 0.0828712 0.0833338 0.0833533 0.0841282 0.0841713 0.0848146 0.0852144 0.0847272 0.085173 0.0850869 0.0853124 0.0868707 0.0844336 0.0848835 0.083891 0.0850754 0.0859721 0.0851374 0.0833037 0.0786488 0.0768154 0.0761602 0.0757279 0.0747406 0.0739982 0.073857 0.0741391 0.0740218 0.0740834 0.0744353 0.0745879 0.0746971 0.0751192 0.075186 0.0753208 0.0756574 0.0757945 0.0763123 0.0766753 0.0768612 0.0769367 0.077304 0.0776953 0.0781107 0.0782816 0.0787003 0.0789641 0.0798123 0.080192 0.0808653 0.0813614 0.0822864 0.083484 0.0838526 0.0842009 0.0783576 0.0772636 0.0776809 0.0782134 0.0782515 0.0785853 0.0791477 0.0783994 0.0784677 0.0788555 0.0786556 0.0785026 0.0788062 0.0807521 0.0888359 0.0910056 0.0914231 0.0917065 0.0916725 0.0924428 0.0930108 0.0930081 0.0932608 0.0937698 0.0939135 0.094568 0.0948334 0.0947546 0.0950025 0.0952071 0.0939727 0.0948796 0.0963978 0.0968717 0.0971622 0.0973385 0.0975176 0.098005
0.123103 0.119435 0.11862 0.11513 0.115059 0.11157 0.0904378 0.077207 0.0750714 0.0742386 0.0730812 0.0699157 0.0694486 0.0690062 0.0695258 0.0692186 0.0690878 0.0689808 0.0682903 0.0686429 0.0692344 0.0697398 0.0703323 0.0699332 0.0703984 0.0705631 0.0712237 0.0718203 0.0723532 0.0716434 0.0717077 0.072223 0.0741716 0.0801351 0.082846 0.0835922 0.0842752 0.0839793 0.0833451 0.0825434 0.0801718 0.0781447 0.0751029 0.0728089 0.0723849 0.0726196 0.0722413 0.0722457 0.0722092 0.0727661 0.0727319 0.0723398 0.0727729 0.0728903 0.0727977 0.0728539 0.0733541 0.0 0.0 0.0 0.0742041 0.0740347 0.0739085 0.0744566 0.0744375 0.0743983 0.0744442 0.0744699 0.0746436 0.0748812 0.0750775 0.0750855 0.0757034 0.07565 0.0760173 0.0764692 0.076628 0.0769763 0.0769267 0.0777801 0.077669 0.0779572 0.0779524 0.0787246 0.0790568 0.0795367 0.080122 0.0797853 0.0800785 0.07989 0.079954 0.0800816 0.080126 0.0801083 0.07942 0.0801589 0.0797448 0.0797301 0.079863 0.0801435 0.077088 0.0735916 0.0725724 0.0716166 0.0712073 0.0701895 0.0698234 0.0701302 0.0699336 0.0698008 0.0700472 0.0703996 0.0705007 0.0706239 0.0706217 0.0710625 0.0710834 0.0715265 0.0714864 0.0715948 0.072126 0.0724688 0.0726443 0.0727788 0.0733369 0.0731784 0.0737608 0.0741758 0.0744867 0.0749898 0.0753889 0.0761288 0.0764258 0.0772337 0.0778106 0.0786021 0.0796088 0.0786194 0.0730126 0.0730427 0.0729254 0.0731507 0.0732926 0.075252 0.0 0.0740506 0.0741149 0.0 0.0750213 0.0745767 0.0743479 0.0747229 0.0763282 0.0857002 0.0861373 0.0857564 0.0856797 0.086298 0.0868114 0.0875671 0.0873271 0.0877851 0.0879196 0.088733 0.0884367 0.0887105 0.0887244 0.0887185 0.088561 0.0898574 0.0904105 0.0905923 0.0912408 0.0915171 0.0917742 0.0919231
0.120833 0.105866 0.111479 0.110863 0.107254 0.108667 0.104144 0.0800111 0.0732511 0.0698599 0.068956 0.0689218 0.0658647 0.0653449 0.0650334 0.0651343 0.0654207 0.065013 0.0 0.0651437 0.0648853 0.065667 0.0657778 0.0658291 0.0660442 0.066301 0.0668019 0.0669192 0.0674824 0.0668552 0.0667955 0.0671404 0.0672649 0.0678132 0.067739 0.0676866 0.068298 0.0684288 0.0685608 0.068554 0.0678281 0.0677845 0.0678024 0.0677018 0.0676825 0.0677044 0.0678074 0.0678318 0.067977 0.0680038 0.067972 0.0683791 0.0685285 0.0689373 0.0689494 0.0684066 0.0689771 0.0688535 0.0691874 0.0694625 0.0693618 0.0696981 0.06952 0.0696797 0.0701175 0.0701005 0.0702428 0.0701285 0.0707276 0.0706743 0.0709185 0.0710646 0.0712707 0.0717148 0.0720212 0.0720317 0.0723591 0.0727663 0.0731741 0.073543 0.0737348 0.0739864 0.0742585 0.0748474 0.0749035 0.0749208 0.074524 0.0748784 0.0748583 0.0748783 0.0750372 0.0746241 0.0747449 0.0764072 0.0747318 0.0751116 0.0751167 0.0751225 0.0744769 0.0708083 0.0686813 0.0674836 0.0664443 0.0665128 0.0655141 0.0656827 0.0656938 0.0656858 0.0656391 0.0658108 0.0657457 0.0658597 0.0661131 0.066427 0.0665635 0.0665028 0.0670377 0.0671773 0.0672186 0.0675984 0.0677809 0.0682227 0.0684076 0.0690112 0.0689999 0.0694075 0.069538 0.0699884 0.0705799 0.0708743 0.0710507 0.0716874 0.0720667 0.0732268 0.0741299 0.0748756 0.0754236 0.0740516 0.0686716 0.0683989 0.0684686 0.068339 0.0683715 0.0701354 0.0704342 0.0 0.0 0.0700117 0.0708434 0.0697978 0.0697437 0.0700154 0.0703502 0.0759047 0.0805177 0.0805244 0.0810628 0.081584 0.0813124 0.0815326 0.0819193 0.0826573 0.0820657 0.0822553 0.0832085 0.0833219 0.082922 0.0828742 0.0834695 0.0837785 0.0845677 0.0848418 0.0847857 0.0856901 0.0860357 0.0859242
0.106934 0.103305 0.104939 0.102601 0.10488 0.104874 0.0979203 0.0815623 0.068671 0.0662848 0.0661327 0.064224 0.0628432 0.0617762 0.06106 0.06102 0.061193 0.0611369 0.0612357 0.0 0.0610934 0.0617502 0.0617969 0.0617117 0.0619137 0.0621358 0.062416 0.0628299 0.0627897 0.0623535 0.0622979 0.0625842 0.0624937 0.0629521 0.063034 0.06291 0.0630135 0.0631936 0.0632807 0.0631812 0.0632334 0.0631742 0.0634726 0.0631349 0.0634543 0.0634189 0.0637402 0.0635574 0.0634882 0.0637378 0.0639509 0.0642768 0.0643238 0.0646888 0.0646444 0.0646011 0.0641677 0.0 0.0647192 0.0651636 0.0651622 0.0651245 0.0655897 0.0655908 0.0658715 0.0658928 0.0660264 0.0663835 0.0664813 0.0662829 0.0666791 0.0668533 0.0672508 0.0672779 0.0678065 0.0682985 0.0682905 0.0686539 0.0692219 0.0692343 0.0696181 0.0698542 0.0697388 0.069828 0.0698992 0.0698598 0.0698397 0.069709 0.0698568 0.0699497 0.0698765 0.0701745 0.0695466 0.0692714 0.0700717 0.07078 0.0719896 0.0673054 0.0644193 0.0633502 0.0623556 0.0618622 0.0615547 0.0614146 0.0615349 0.0615446 0.0614807 0.061102 0.0615777 0.0617387 0.0617519 0.0617287 0.0618549 0.0620934 0.0623886 0.0623873 0.0628146 0.0629454 0.0632074 0.0634146 0.0639023 0.0637579 0.0644343 0.0646835 0.064766 0.065055 0.0652519 0.0656743 0.0661917 0.0664864 0.0670632 0.0675296 0.0678105 0.06873 0.0695208 0.0703702 0.0709781 0.0686766 0.0644938 0.0637489 0.0642278 0.0640496 0.0641365 0.0633193 0.0652025 0.0657674 0.0659565 0.066015 0.0660942 0.0652267 0.0652705 0.0651449 0.0655343 0.0676591 0.0750896 0.0749807 0.0755996 0.0755331 0.0756983 0.0759807 0.076477 0.0768227 0.0769403 0.0772335 0.0772786 0.077635 0.0771236 0.0771551 0.0785275 0.0787205 0.0787018 0.0788409 0.0790603 0.0796732 0.0793499 0.0805965
0.100238 0.0975995 0.0983561 0.0962081 0.0956191 0.0936686 0.0932897 0.0936223 0.0698462 0.0644055 0.062579 0.0615173 0.0598472 0.0584891 0.0576395 0.0574399 0.0569553 0.0572616 0.056996 0.0572686 0.0575599 0.0576915 0.0576462 0.0575846 0.057809 0.057626 0.0582784 0.0583994 0.05838 0.0581852 0.0580981 0.0582068 0.0585107 0.0584277 0.0583638 0.0585829 0.0585216 0.0588307 0.0587719 0.0591004 0.0589739 0.0587786 0.0590051 0.058935 0.059181 0.0591656 0.0591688 0.059243 0.0592309 0.059656 0.0599423 0.0597936 0.0601165 0.0604052 0.0603988 0.0604455 0.060493 0.0604371 0.0606256 0.0608669 0.0609352 0.0610043 0.061352 0.0615615 0.0617542 0.0619651 0.0619337 0.0621111 0.0620292 0.0621213 0.0623528 0.0628796 0.0633375 0.06364 0.0636659 0.0640909 0.0641007 0.0649598 0.0649535 0.0648958 0.064683 0.0654749 0.0649517 0.0648618 0.0651534 0.0650648 0.0648037 0.0651143 0.0649408 0.0647334 0.0653054 0.0649952 0.0649453 0.0651382 0.0653145 0.0660973 0.0621716 0.0595619 0.0582856 0.0576331 0.0575526 0.0571435 0.0569254 0.0574355 0.0570453 0.0570889 0.0571504 0.05723 0.0570847 0.0576685 0.057594 0.0576937 0.0577074 0.0580516 0.0582405 0.0584302 0.058395 0.0589514 0.0590222 0.0591809 0.0597233 0.0597971 0.0601678 0.0602436 0.0607039 0.0609563 0.0612448 0.0618138 0.0620703 0.062363 0.0626921 0.063215 0.063967 0.0649312 0.065635 0.066271 0.0660499 0.063514 0.0606424 0.0597711 0.0590756 0.0596297 0.0596577 0.059458 0.0597356 0.0 0.0595543 0.0596777 0.0599621 0.0603547 0.0606254 0.0607029 0.0607465 0.0626592 0.0697587 0.0700486 0.0698949 0.0701177 0.0703965 0.0707672 0.0714634 0.0711399 0.0713746 0.0719357 0.0713287 0.0714798 0.0714704 0.0720419 0.0723268 0.0727958 0.0733952 0.0730333 0.0738388 0.0741921 0.0743286 0.0746871
0.101309 0.0913502 0.0888048 0.0933484 0.0907272 0.0866102 0.0891314 0.0868049 0.0782541 0.0624626 0.0585273 0.0584964 0.0570095 0.0555783 0.0548708 0.0538994 0.0533153 0.0533498 0.0531861 0.0534226 0.0536268 0.0536829 0.0538228 0.053782 0.0538087 0.0538037 0.0538165 0.054127 0.0541092 0.0539613 0.0539955 0.0541131 0.0538382 0.0540401 0.0538174 0.0541686 0.0543898 0.0543833 0.0546553 0.0548956 0.054501 0.0546456 0.0547749 0.0546773 0.0547272 0.0547782 0.0548951 0.0550454 0.0550992 0.0552674 0.0558903 0.0557197 0.0558093 0.0558349 0.0562822 0.0563257 0.0560789 0.0562211 0.0565256 0.0567984 0.0565873 0.0570391 0.0569911 0.0574117 0.0573812 0.0575773 0.0579029 0.0580356 0.0579272 0.058174 0.0583892 0.0584599 0.0591594 0.0595211 0.0596096 0.060069 0.060223 0.0600556 0.0598728 0.0601573 0.0601365 0.0603577 0.0603058 0.0601419 0.0603004 0.0602823 0.0602488 0.0603766 0.0601993 0.0600387 0.0603773 0.0601211 0.0598655 0.0605597 0.0606431 0.0561733 0.0547448 0.0542018 0.0536753 0.0531331 0.0528006 0.0529676 0.0530225 0.0530135 0.0530373 0.0529811 0.0529738 0.0533377 0.0533799 0.053455 0.0537566 0.0536234 0.0537973 0.053972 0.0540668 0.0546466 0.0543232 0.0546788 0.0550677 0.0551181 0.0553797 0.0555775 0.0561323 0.0562514 0.0564362 0.0568813 0.0573115 0.0574351 0.0579491 0.0583348 0.058592 0.0590455 0.0599396 0.0606081 0.0612623 0.0616091 0.0611102 0.0582638 0.0564428 0.0557145 0.0551826 0.0552071 0.0549219 0.0550633 0.0552882 0.0555476 0.055431 0.0553978 0.0558263 0.0558455 0.0558989 0.0560034 0.0565883 0.0592916 0.0644345 0.0649187 0.0645931 0.0652479 0.0651911 0.0655519 0.0658653 0.0659809 0.0658146 0.0662014 0.0662895 0.0657589 0.066421 0.0667333 0.0673177 0.0672813 0.0673647 0.0678391 0.0679437 0.0678975 0.0681927 0.06895
0.0865188 0.0858888 0.0830632 0.0824288 0.0821584 0.082876 0.0795963 0.0813015 0.0786604 0.0621942 0.0553384 0.0540681 0.054041 0.0526395 0.050996 0.050314 0.0497429 0.0492513 0.0492231 0.0493649 0.0495844 0.0496056 0.0495668 0.0498349 0.049829 0.0497481 0.0497143 0.0500166 0.0499699 0.0498485 0.049941 0.0500496 0.0500078 0.0501035 0.0503514 0.0502524 0.0502755 0.0502696 0.0502194 0.0504568 0.0505142 0.0504973 0.0503912 0.0506019 0.0503627 0.0503349 0.0507584 0.0509273 0.0509021 0.0510427 0.0515435 0.0513112 0.0515438 0.0519566 0.0521007 0.0519765 0.0519129 0.0520891 0.0523407 0.0521301 0.0524427 0.0528005 0.0528755 0.0528616 0.0533553 0.0532235 0.0535394 0.0536472 0.0537854 0.0541177 0.0544059 0.0547094 0.0551325 0.055184 0.0554593 0.0555118 0.05555 0.0552913 0.0552562 0.0554597 0.0554703 0.0552137 0.0552699 0.0553118 0.0551757 0.0553375 0.0551727 0.055276 0.055469 0.0552313 0.055009 0.055144 0.056796 0.0538542 0.0508829 0.0489973 0.0494169 0.0490191 0.048815 0.0487601 0.0487354 0.048488 0.0487321 0.0489618 0.0487307 0.0489615 0.0490887 0.0491271 0.0490916 0.0493099 0.0494543 0.0496591 0.0498943 0.0498619 0.0499643 0.0503509 0.0504548 0.0505147 0.0509188 0.0511446 0.051192 0.0515392 0.0517378 0.0520123 0.0523626 0.0528338 0.0530816 0.0533156 0.0538056 0.054162 0.0544598 0.0553594 0.0559606 0.0565636 0.0564314 0.0564205 0.056441 0.0536296 0.0521276 0.0520128 0.051748 0.0509249 0.0508124 0.0 0.0508175 0.0 0.0509488 0.0511759 0.0508422 0.0513764 0.0509534 0.0517808 0.0524585 0.0560869 0.0595408 0.0592381 0.0591354 0.0598318 0.0601627 0.0599884 0.0604157 0.0605527 0.0608306 0.0606316 0.0605419 0.0607944 0.0611889 0.0613995 0.0615032 0.0621075 0.0622312 0.0623256 0.0624529 0.0628958 0.0629959 0.0637113
0.0794675 0.0782682 0.0797998 0.0765197 0.0743585 0.0761095 0.0736295 0.0749506 0.0692685 0.0682129 0.0551373 0.0504654 0.0495728 0.0500318 0.0482235 0.0473411 0.0461087 0.045883 0.0456025 0.0454365 0.0455113 0.0455589 0.0454953 0.0457555 0.0457361 0.045648 0.045631 0.0457968 0.0459913 0.0460054 0.0457419 0.0458836 0.045887 0.0459471 0.046147 0.046098 0.04605 0.0461693 0.0461926 0.0461338 0.0462144 0.046351 0.0461985 0.0463783 0.0463932 0.0463815 0.0465773 0.0465535 0.0465305 0.0470724 0.0471196 0.0475662 0.0473675 0.0476915 0.0476729 0.0478197 0.0479534 0.0480603 0.048346 0.0480293 0.0485628 0.0483982 0.0486041 0.0484682 0.0489488 0.0493341 0.0493641 0.0496955 0.0496993 0.0502777 0.0506652 0.0504791 0.0504166 0.0503274 0.0506347 0.0506284 0.0507182 0.0507265 0.0506671 0.0506627 0.0506725 0.0503142 0.0506798 0.0507182 0.0504432 0.0504689 0.0503449 0.0500303 0.0507397 0.0503032 0.0505631 0.0521473 0.0485185 0.0453948 0.0449466 0.0453586 0.0449794 0.0443002 0.0444131 0.0444446 0.0444901 0.0445907 0.0447328 0.044971 0.0448408 0.044834 0.0451147 0.0451362 0.0451446 0.0454134 0.0456143 0.0456244 0.0454708 0.0457284 0.0460276 0.0462319 0.0464368 0.0465054 0.0467118 0.0469876 0.0470996 0.0472811 0.0477104 0.0476191 0.0482289 0.0482767 0.0489439 0.0493651 0.049581 0.0499632 0.0507876 0.0511727 0.0517798 0.0516159 0.0519636 0.0519813 0.0518895 0.0490462 0.0 0.0475755 0.0 0.0 0.0 0.0 0.0 0.0 0.0 0.0 0.0466804 0.0 0.0472436 0.0479614 0.048976 0.0526155 0.0541167 0.0542456 0.0542496 0.0545507 0.0546988 0.0547075 0.0545339 0.0550122 0.0550681 0.055168 0.0550566 0.055757 0.0558483 0.0559412 0.0562929 0.0564753 0.0567456 0.0565876 0.0569909 0.0573968 0.0575746 0.0584762
0.0735564 0.073383 0.0720432 0.0691231 0.070533 0.0685032 0.068308 0.0683365 0.0667273 0.0643839 0.0587667 0.0482438 0.0458626 0.0454657 0.0453419 0.0441887 0.0432326 0.0424985 0.0420498 0.0416544 0.0417479 0.0418293 0.0417583 0.0417268 0.0416582 0.0416289 0.0417154 0.0418535 0.0419416 0.0419037 0.0418667 0.0417929 0.0417328 0.0418129 0.0419318 0.0418241 0.0418942 0.0421418 0.0422512 0.0420339 0.0421199 0.0422821 0.0423192 0.0423069 0.0422453 0.04231 0.042413 0.0423914 0.0425585 0.0426762 0.0429447 0.0432888 0.043258 0.0434156 0.0434237 0.0436823 0.0437916 0.0436018 0.0437997 0.0439607 0.0439724 0.0445709 0.0443842 0.0446096 0.0449475 0.04551 0.0460355 0.0455028 0.0460416 0.0458462 0.0459004 0.0456688 0.0457986 0.0457795 0.0458356 0.0458299 0.0458247 0.0458323 0.0459275 0.0458241 0.0459325 0.0459294 0.0458894 0.045912 0.0456865 0.045859 0.0454106 0.0455715 0.0458074 0.0462052 0.0468147 0.0446533 0.042082 0.0420836 0.041315 0.0406834 0.0402882 0.0403037 0.0404314 0.0403978 0.040489 0.0404314 0.0406851 0.0409392 0.0407709 0.0410135 0.0410824 0.0412265 0.0413088 0.0412422 0.0416245 0.0415464 0.0416931 0.0417407 0.0420506 0.0419373 0.0423608 0.0424732 0.042761 0.0427998 0.0430642 0.0432794 0.0433704 0.0437497 0.0439299 0.0443613 0.0449189 0.0451772 0.0456495 0.0460354 0.046435 0.0469488 0.0466605 0.0472647 0.0470786 0.0469184 0.0466582 0.0444591 0.0 0.0 0.0 0.0 0.0 0.0 0.0 0.0 0.0 0.0 0.0 0.0 0.0434764 0.0439393 0.0447231 0.0485733 0.0488418 0.0493296 0.0492691 0.0494148 0.0493182 0.0496082 0.0499903 0.0499237 0.0497549 0.0498583 0.0503254 0.0501992 0.0505538 0.0506509 0.0507105 0.0513968 0.0514341 0.0512115 0.0515258 0.0521569 0.0521348 0.0529027
0.0661309 0.0629626 0.0630621 0.062146 0.061482 0.0617997 0.0616943 0.0620724 0.0598581 0.0566441 0.0578979 0.0476188 0.0430509 0.0412693 0.0405756 0.041012 0.0401948 0.03974 0.0389053 0.0385245 0.0380417 0.037734 0.0379351 0.0380907 0.0378673 0.0378522 0.0376888 0.0379969 0.037996 0.0379616 0.0377224 0.0377701 0.0378872 0.0378453 0.0378954 0.0377186 0.0377363 0.0379596 0.0379675 0.037908 0.0379402 0.0381319 0.0381428 0.0381885 0.0381215 0.038112 0.0379222 0.0382309 0.038359 0.0386572 0.0387752 0.0390178 0.0387758 0.0391774 0.0392186 0.039542 0.0397307 0.039537 0.0396929 0.0398831 0.0398599 0.0401297 0.040265 0.0406031 0.0414248 0.0417072 0.0414396 0.0413411 0.0413891 0.0413028 0.041318 0.0412887 0.0409121 0.0411082 0.0409905 0.0411313 0.0410032 0.0410102 0.0409951 0.0409804 0.0409548 0.0410754 0.0412076 0.0412056 0.0410918 0.0411466 0.041112 0.0408425 0.04277 0.0416606 0.0395203 0.0386693 0.0376504 0.0369009 0.0363309 0.0361648 0.0361223 0.0361249 0.0364083 0.0364117 0.0364042 0.0364082 0.0365697 0.0367091 0.0369612 0.0370678 0.0369503 0.0371251 0.0373229 0.0374762 0.0377198 0.0375146 0.037793 0.0378584 0.0379355 0.0381481 0.0381364 0.038474 0.0386098 0.0387912 0.0391084 0.0391335 0.039317 0.0396141 0.0398669 0.0401882 0.0405218 0.0409919 0.0413049 0.0418451 0.0420586 0.0420693 0.0421148 0.0420705 0.0420269 0.0418254 0.0416585 0.0400384 0.0392126 0.0 0.0 0.0 0.0 0.0 0.0 0.0 0.0 0.0 0.0 0.0 0.0393803 0.0398208 0.0407117 0.0438274 0.0439197 0.044394 0.0443855 0.0442277 0.0444758 0.0445171 0.0447917 0.0445918 0.0447647 0.0446597 0.0450105 0.0452465 0.0456481 0.0457591 0.045379 0.0458916 0.0461833 0.0461354 0.0464541 0.0468459 0.0469914 0.0477075
0.0592825 0.058847 0.0553964 0.0550449 0.055127 0.054937 0.0537213 0.0537042 0.0519632 0.0544987 0.0521179 0.0482979 0.0409544 0.0376812 0.0366678 0.0359066 0.0363377 0.0360454 0.0357755 0.0353319 0.0349005 0.0345738 0.0342795 0.0341611 0.0339107 0.0338971 0.0338946 0.0339338 0.0338206 0.0337391 0.0338012 0.0338131 0.0337648 0.0337681 0.033762 0.0336857 0.0336406 0.0338498 0.0338163 0.0338545 0.0339843 0.0340035 0.0340234 0.0339631 0.033853 0.0338749 0.0341999 0.0342027 0.0342666 0.0343914 0.0345268 0.0347531 0.0349095 0.0347346 0.035103 0.0352507 0.0355092 0.0354068 0.0354956 0.0356149 0.035845 0.0360754 0.0365366 0.036948 0.0372394 0.0369604 0.0368721 0.0365642 0.0366971 0.0367203 0.0367239 0.0367078 0.0366422 0.036427 0.0366321 0.0362677 0.0363536 0.0363398 0.0364963 0.0363033 0.0363106 0.0363282 0.036366 0.0363643 0.0363828 0.0364216 0.0365607 0.0375491 0.03653 0.0351017 0.033304 0.0325455 0.032057 0.032238 0.0321996 0.0322214 0.0319637 0.031956 0.0323684 0.0324913 0.0324546 0.0324483 0.0325821 0.0327464 0.032761 0.032936 0.0331114 0.0332872 0.0334334 0.03352 0.0335569 0.0335242 0.0337623 0.0339007 0.0339093 0.0339785 0.0340382 0.0341485 0.03444 0.0345414 0.0348141 0.0349971 0.0351305 0.0354957 0.0356406 0.035927 0.0365261 0.0367741 0.0372344 0.0371316 0.0374426 0.0373311 0.0368972 0.0368169 0.0370909 0.0368503 0.037025 0.0356923 0.0 0.0 0.0 0.0 0.0 0.0 0.0 0.0 0.0 0.0348144 0.0 0.0352048 0.0352689 0.0356821 0.036548 0.0389965 0.0392122 0.0392648 0.0391744 0.0394146 0.0391199 0.0393936 0.0394414 0.0393661 0.0396856 0.039789 0.0399664 0.0403847 0.0403882 0.0404345 0.0404924 0.0405096 0.0407585 0.0411141 0.0411878 0.0414839 0.0416659 0.0420289
0.0515342 0.0480352 0.0480224 0.0483992 0.047954 0.048 0.0463623 0.0481318 0.045932 0.0451511 0.044813 0.0440016 0.0404278 0.0352693 0.0335939 0.0321145 0.0317204 0.0314006 0.0315444 0.0315077 0.031246 0.0313016 0.0309521 0.03055 0.0303206 0.0301013 0.030018 0.0300163 0.029863 0.029854 0.02981 0.0296773 0.0296348 0.0295932 0.0295969 0.0295299 0.0296151 0.0297187 0.0296359 0.0296606 0.0297569 0.029836 0.0298002 0.0298006 0.0297395 0.0297676 0.0300529 0.0300377 0.0301027 0.0301592 0.0303665 0.0303445 0.0307202 0.0308314 0.030943 0.0310903 0.0313525 0.0311128 0.0313317 0.0315245 0.0315327 0.0318055 0.0319728 0.032035 0.0322207 0.0322835 0.0322501 0.0320852 0.0322195 0.0322311 0.0319268 0.031904 0.0320484 0.0318507 0.0319167 0.0319304 0.0318127 0.0319235 0.0318591 0.0318389 0.0320207 0.0317817 0.0318325 0.031717 0.0317157 0.0327409 0.0319333 0.0307664 0.0295121 0.0285737 0.0283548 0.0281011 0.028137 0.0280766 0.028306 0.0282549 0.0282217 0.0282764 0.0282875 0.0284305 0.0285124 0.0286296 0.0285716 0.0287597 0.0288603 0.0290315 0.0292206 0.0293223 0.0294243 0.0294212 0.0295591 0.0294864 0.0297482 0.0298257 0.0298861 0.0299645 0.0300081 0.0302458 0.0303432 0.0304235 0.03061 0.0309293 0.0311083 0.0312701 0.0314503 0.0317283 0.0322632 0.0324456 0.0326022 0.0325384 0.0324751 0.0322972 0.0321285 0.0322707 0.0320942 0.0324863 0.0323377 0.0313275 0.0309837 0.0 0.0 0.0308267 0.0 0.0 0.0 0.0 0.0 0.0 0.0 0.0 0.0 0.0314437 0.0324109 0.0341826 0.0342005 0.0342284 0.0341578 0.0341964 0.0344444 0.0343492 0.0342275 0.0344972 0.034641 0.0346768 0.0349599 0.0350802 0.0350828 0.0353886 0.0354668 0.0354909 0.035562 0.0360213 0.0361598 0.0362163 0.0365609 0.0371486
0.0429068 0.0415901 0.0414671 0.0414489 0.0412727 0.0414077 0.0396963 0.0405158 0.0383781 0.0384414 0.0370161 0.0338013 0.0308241 0.0305085 0.0299907 0.0292637 0.0279997 0.0274581 0.0271836 0.0269572 0.0269422 0.0268968 0.0268832 0.0268549 0.0265793 0.0265449 0.0263798 0.0261074 0.0259907 0.0258053 0.0257981 0.0256684 0.025501 0.0255036 0.0255529 0.0255105 0.0256146 0.0255964 0.0255711 0.0255541 0.0255529 0.0256287 0.0256209 0.0256823 0.0256374 0.0257607 0.0256634 0.0258485 0.0259882 0.0259912 0.0261088 0.0262724 0.0265579 0.0265473 0.0266662 0.0268613 0.0269505 0.0268883 0.0270919 0.0271897 0.0272423 0.0273483 0.0271515 0.0273945 0.0272743 0.0273891 0.0274966 0.0276347 0.0276293 0.0275712 0.027506 0.0275393 0.0273688 0.0274178 0.0273613 0.0274637 0.0273095 0.0274125 0.0272211 0.027317 0.0273754 0.0271696 0.0272511 0.027416 0.0274225 0.0254505 0.0246041 0.0242489 0.0241052 0.0240223 0.0242113 0.02394 0.024205 0.0242361 0.0245922 0.0245105 0.0245952 0.0244459 0.0243648 0.0244048 0.0244979 0.0246291 0.0246396 0.0248621 0.0249185 0.0250356 0.0251682 0.0253087 0.0254343 0.0253711 0.0254823 0.0256695 0.0256754 0.02578 0.0256199 0.0258768 0.026028 0.0261721 0.0262787 0.0264389 0.0265237 0.0266392 0.0269148 0.0270162 0.0271942 0.027616 0.0279246 0.0277849 0.0276455 0.0274837 0.0276804 0.0275118 0.0276868 0.0275344 0.0278023 0.0279413 0.0276374 0.026821 0.0 0.0 0.0 0.0 0.0 0.0 0.0 0.0 0.0 0.0 0.0 0.0266047 0.0267149 0.0271821 0.0281389 0.0293155 0.0292066 0.0293779 0.0292548 0.0294436 0.0293998 0.0294268 0.0294625 0.0296477 0.0297323 0.0300219 0.0300773 0.0301021 0.0301829 0.0302332 0.030308 0.0305579 0.0306983 0.0306892 0.0308953 0.0313177 0.0315668 0.032033
0.0380091 0.0343289 0.0349223 0.0343659 0.0345388 0.0352114 0.0333766 0.0335327 0.0309851 0.0292398 0.0264625 0.0256736 0.0252237 0.0252232 0.0251773 0.025014 0.024878 0.0236886 0.0230652 0.0227705 0.0225489 0.0224392 0.0225061 0.0224043 0.0221928 0.0222355 0.0221295 0.0220696 0.021965 0.0218418 0.0217064 0.0216427 0.0215152 0.0214593 0.0201479 0.0195985 0.021295 0.0215691 0.0213937 0.0214308 0.0214427 0.0215575 0.0215318 0.0215256 0.0215583 0.0216298 0.021708 0.0216843 0.0217951 0.021804 0.0220175 0.0220144 0.0222921 0.022264 0.0223829 0.0226484 0.0226468 0.0226264 0.0227273 0.0227711 0.0227771 0.022777 0.0227392 0.0227334 0.0227532 0.0227861 0.0227875 0.0228335 0.0229623 0.0229644 0.0230556 0.0229758 0.0229406 0.0227915 0.0228329 0.0228238 0.0227071 0.0226731 0.0228294 0.0224854 0.0227498 0.0226849 0.0224809 0.0212257 0.0203888 0.0201221 0.0201154 0.0201088 0.020039 0.0201151 0.0200963 0.020027 0.020262 0.0202881 0.0204917 0.0202648 0.0203421 0.020426 0.0204276 0.0203788 0.0204379 0.0206113 0.0207659 0.0208256 0.0210124 0.0211614 0.0212345 0.0213206 0.0212928 0.021354 0.0214536 0.0216296 0.0216282 0.0216969 0.0217024 0.0217844 0.0218922 0.0220258 0.0220898 0.0222368 0.022327 0.0225386 0.0226487 0.0227848 0.0230041 0.0231667 0.0231639 0.0230338 0.0228338 0.0 0.0229905 0.0230152 0.0230212 0.0 0.0232459 0.0231829 0.0231075 0.0 0.0 0.0 0.0 0.0 0.0 0.0 0.0 0.0 0.0 0.0 0.0 0.0 0.0226246 0.0229321 0.0236242 0.0243248 0.0243438 0.0243766 0.0245535 0.0245421 0.0244593 0.0245145 0.0245835 0.0247387 0.0248883 0.024881 0.025072 0.0250794 0.0251469 0.0253807 0.0252249 0.0254275 0.0255051 0.0256967 0.0259294 0.0261569 0.0264324 0.0268702
0.0292499 0.0282659 0.0283769 0.0286446 0.0283359 0.0283622 0.0275409 0.0261544 0.02238 0.0209422 0.0205711 0.020223 0.0202808 0.0203124 0.0203126 0.0201172 0.0200922 0.0200678 0.0196953 0.018807 0.0183745 0.0182121 0.0180977 0.0180209 0.0180024 0.0179896 0.0179459 0.0178713 0.0177188 0.0176716 0.0175309 0.017443 0.0170899 0.0161756 0.0141238 0.0142691 0.0146067 0.0174875 0.0174496 0.017324 0.017432 0.0174315 0.0174055 0.0174937 0.0174683 0.0175157 0.017522 0.0175597 0.0176079 0.0176873 0.0176793 0.0178468 0.0179887 0.0180742 0.018201 0.0182046 0.0182959 0.0182743 0.0182735 0.0183295 0.0183241 0.0183908 0.018232 0.0183145 0.018346 0.0183469 0.0182558 0.0183955 0.0182638 0.0183681 0.0183649 0.0184234 0.0185332 0.0185614 0.0184104 0.0184389 0.018355 0.0183582 0.0182849 0.0179354 0.0172177 0.0168328 0.0163459 0.0162479 0.0160784 0.01617 0.016231 0.0161438 0.0161591 0.0161592 0.0162156 0.0162825 0.0160834 0.0163603 0.0164889 0.0164847 0.0164193 0.0163642 0.0165549 0.0165666 0.0166809 0.0167288 0.016869 0.0169582 0.0170476 0.0172243 0.0172271 0.0172505 0.017269 0.0174005 0.017404 0.0174642 0.0174681 0.017498 0.0175024 0.0177072 0.0177994 0.0178251 0.0179539 0.018047 0.0181764 0.0182856 0.0183591 0.0185256 0.0184248 0.018417 0.0184558 0.0184331 0.0183591 0.018497 0.0185011 0.0185107 0.018593 0.018655 0.0 0.0187546 0.0186885 0.0181666 0.0 0.0 0.0 0.0 0.0179706 0.0 0.0 0.0 0.0 0.0179452 0.0180449 0.01814 0.0183928 0.0185679 0.0192214 0.0195509 0.0195767 0.0196136 0.0196404 0.0196732 0.0196167 0.0197721 0.0198172 0.0199743 0.019989 0.019967 0.0199934 0.0201322 0.0202399 0.020263 0.0202598 0.0205251 0.0205877 0.0207747 0.0209358 0.0211518 0.021396 0.0218578
0.0230727 0.021522 0.0219482 0.0211984 0.0212514 0.0205674 0.0180904 0.0161073 0.0157168 0.0154255 0.0154933 0.0154638 0.015451 0.0153658 0.0153418 0.0153143 0.015267 0.0152565 0.0152022 0.0150599 0.014573 0.0141077 0.0139081 0.0138454 0.0137513 0.0137016 0.0136124 0.0135476 0.0135073 0.0134394 0.0134277 0.0129753 0.0109838 0.0108362 0.0 0.0 0.0111283 0.0128012 0.0132982 0.0133052 0.013269 0.0133002 0.0132922 0.0133397 0.0132771 0.0133132 0.0133771 0.0134175 0.0134149 0.0134872 0.0135361 0.0135892 0.0137169 0.0138643 0.0139923 0.0138696 0.0138217 0.0138914 0.0138908 0.013867 0.0138629 0.013906 0.0139022 0.0139026 0.0138914 0.0139039 0.0138227 0.0139058 0.0138289 0.0138576 0.013824 0.0139115 0.0138158 0.0137592 0.0135507 0.0130849 0.0126506 0.0123841 0.0124181 0.0123703 0.0123576 0.0123685 0.0122626 0.0122425 0.0122381 0.012382 0.0123154 0.0123075 0.0123035 0.0122958 0.0123271 0.0123546 0.0124212 0.0124373 0.0124768 0.0125594 0.012568 0.0127716 0.0128078 0.0126763 0.0127088 0.0128467 0.0129262 0.0129357 0.012879 0.013115 0.0131327 0.0131896 0.0132076 0.0131946 0.0133144 0.0133407 0.0134258 0.013429 0.0134519 0.0134985 0.013604 0.0136744 0.0137491 0.0138592 0.0139186 0.0139705 0.01405 0.0139534 0.0139786 0.0139725 0.0139196 0.0139376 0.014003 0.0139587 0.0140679 0.0141342 0.0141378 0.0140945 0.0141657 0.0141268 0.0141237 0.0 0.0 0.0 0.0 0.0 0.0 0.0 0.0 0.0 0.0 0.0 0.0137716 0.0137006 0.0139609 0.0141621 0.0147239 0.014771 0.0147985 0.0149227 0.014899 0.0148676 0.0149331 0.0149789 0.0150253 0.0151449 0.0151721 0.015212 0.0152199 0.0152444 0.015302 0.0153519 0.0153779 0.0155351 0.0155581 0.0157986 0.01595 0.0161844 0.0164693 0.0169079
0.0159042 0.0150422 0.0149189 0.0134969 0.013002 0.0115373 0.0110981 0.0107279 0.0106281 0.0106129 0.010598 0.0105499 0.0105273 0.0105301 0.0104469 0.0105003 0.0104706 0.010469 0.0104344 0.0103228 0.0102753 0.0101977 0.00985616 0.00962289 0.0095498 0.009543 0.00941299 0.00932458 0.00931598 0.00924743 0.00918195 0.00786318 0.00745828 0.0 0.0 0.0 0.0 0.00820779 0.00904982 0.00918772 0.00915469 0.00917341 0.00916249 0.00917072 0.009171 0.00920392 0.00920183 0.00922694 0.00926299 0.00932618 0.00935978 0.00942858 0.00946512 0.00950179 0.00956282 0.00952969 0.00952634 0.00947738 0.00949317 0.00947949 0.0094767 0.00945792 0.00950915 0.00948255 0.00953398 0.00952911 0.00950019 0.00951434 0.00946955 0.00937121 0.00910933 0.00864643 0.00842249 0.00835157 0.00840143 0.00833607 0.00835658 0.00833161 0.00832815 0.00835426 0.00834024 0.00835577 0.00837406 0.00842457 0.00834386 0.00841326 0.00841576 0.00847727 0.00847455 0.00847993 0.00852558 0.00854183 0.00859031 0.00853168 0.00859371 0.00864777 0.00875016 0.00875616 0.00870595 0.00876035 0.00876123 0.00883726 0.00887853 0.00890113 0.00892382 0.00906465 0.00906341 0.00913204 0.00912296 0.00911666 0.00918832 0.00921715 0.00924611 0.00927519 0.00932321 0.00934987 0.0093928 0.00945471 0.00951409 0.00956827 0.00955531 0.00952362 0.00958905 0.00954956 0.00946975 0.00956536 0.0 0.00960611 0.0 0.00960437 0.00966594 0.00967635 0.00968696 0.0 0.0 0.00974709 0.0 0.0 0.0 0.0 0.0 0.0 0.0 0.0 0.0 0.0 0.0 0.00939624 0.00949499 0.00952837 0.00965531 0.00979372 0.0100865 0.0101271 0.0101625 0.0101459 0.0101791 0.010221 0.0102688 0.0102782 0.0102934 0.0103283 0.0103497 0.0103492 0.0103907 0.0104131 0.010405 0.0105231 0.010583 0.010604 0.0106957 0.0108638 0.0109566 0.011129 0.0114324 0.0119664
0.00873669 0.00813191 0.00731015 0.00617686 0.00594569 0.00590736 0.0057604 0.00577788 0.00576793 0.00578563 0.00575158 0.00575431 0.00574198 0.00570553 0.00568904 0.00569091 0.00567023 0.00563313 0.00564456 0.00559882 0.00558495 0.00553065 0.00550214 0.00545583 0.0052898 0.00523808 0.00514619 0.00515178 0.00508728 0.00506182 0.00501864 0.00411609 0.0 0.0 0.0 0.0 0.0 0.00420105 0.00465607 0.00465595 0.00459524 0.00475952 0.00489709 0.0050021 0.0050244 0.0050571 0.00505447 0.0050652 0.00507601 0.00510015 0.00511995 0.0051766 0.0052024 0.00525032 0.00520129 0.00520379 0.00518434 0.00517819 0.00516772 0.00516173 0.00514701 0.0051705 0.00517205 0.00520298 0.00518268 0.00510678 0.00495481 0.00476344 0.0045634 0.00453476 0.00449446 0.00453032 0.00451062 0.00452022 0.00451378 0.0045147 0.00452297 0.0045342 0.00453232 0.0045568 0.00455938 0.00455762 0.00457491 0.00458199 0.0045862 0.00458167 0.00462249 0.00463997 0.00463118 0.00462388 0.00463709 0.00464888 0.00467532 0.00466088 0.00471517 0.00472713 0.00476543 0.00475116 0.00480857 0.00480315 0.00477877 0.00482902 0.00485592 0.00487849 0.00491574 0.00493842 0.00496701 0.00496786 0.00497168 0.00499899 0.00502051 0.00505089 0.00503299 0.00508841 0.00511461 0.00510863 0.00515405 0.00519223 0.00519821 0.00516023 0.00514727 0.00513437 0.0 0.0 0.00516668 0.0 0.00516955 0.0 0.0 0.0051782 0.00523387 0.00527642 0.00523496 0.00525855 0.0052734 0.0 0.00526648 0.0 0.0 0.0 0.0 0.0 0.0 0.0 0.0 0.0 0.0 0.0 0.00517894 0.00523004 0.00525292 0.00534188 0.0055031 0.00551922 0.00547994 0.00548132 0.00553854 0.00554027 0.00558892 0.00558344 0.00557658 0.00562134 0.00562693 0.00564179 0.00565227 0.00565989 0.00568138 0.00570461 0.00575709 0.00581752 0.0058614 0.00593781 0.00601612 0.00614411 0.00636521 0.00693638
