0.586557 0.579833 0.572997 0.565479 0.558895 0.547387 0.535905 0.53262 0.527532 0.517536 0.509624 0.501758 0.494138 0.486557 0.479802 0.471993 0.462415 0.456609 0.44866 0.441951 0.435079 0.426549 0.421052 0.414849 0.404105 0.398726 0.390801 0.385496 0.377101 0.370406 0.363809 0.356933 0.34943 0.34284 0.336059 0.329237 0.322514 0.314759 0.3085 0.302441 0.296694 0.288384 0.281956 0.276302 0.269724 0.262232 0.256756 0.250306 0.243673 0.237373 0.22948 0.220124 0.170167 0.147054 0.136463 0.146611 0.185848 0.189942 0.182698 0.175127 0.168807 0.162444 0.156176 0.150028 0.143651 0.1369 0.131314 0.126154 0.119265 0.113268 0.107326 0.101278 0.0954295 0.0892866 0.0835308 0.0775385 0.0718487 0.0656308 0.0595794 0.0537175 0.0479507 0.0419356 0.0360328 0.0301293 0.0241575 0.0182721 0.0123959 0.00648596 0.000588228 -0.00527258 -0.0111889 -0.0170858 -0.0229788 -0.0289535 -0.0347612 -0.0406487 -0.0465458 -0.0520965 -0.0550177 -0.0525216 -0.049253 -0.0498128 -0.0530007 -0.0566771 -0.0603563 -0.0634858 -0.0670361 -0.0712352 -0.0776536 -0.0812141 -0.0832149 -0.0843753 -0.0870646 -0.0900825 -0.0925907 -0.0955611 -0.0993397 0.0 0.0 -0.109999 0.0 0.0 0.0 0.0 0.0 0.0 0.0 0.0 0.0 0.0 0.0 0.0 0.0 0.0 0.0 0.0 0.0 0.0 0.0 0.0 0.0 0.0 0.0 0.0 0.0 0.0 0.0 0.0 0.0 0.0 0.0 0.0 0.0 0.0 0.0 0.0 0.0 -0.246886 -0.250614 -0.2536 -0.258953 -0.265526 -0.268852 -0.274465 -0.278117 -0.282491 -0.286055 -0.291521 -0.296291 -0.298812 -0.307471 -0.311356 -0.316266 -0.323617 -0.330252 -0.33037
0.569635 0.600623 0.624629 0.623376 0.623988 0.616913 0.615047 0.608204 0.601941 0.591652 0.587746 0.584318 0.577056 0.577148 0.568562 0.567495 0.560057 0.553468 0.55218 0.543548 0.542476 0.541597 0.537925 0.532104 0.53118 0.524319 0.519194 0.518498 0.517184 0.51041 0.510025 0.505621 0.500969 0.500356 0.496274 0.494885 0.492618 0.48725 0.485192 0.483947 0.481028 0.477591 0.473196 0.474305 0.471177 0.466826 0.463198 0.464437 0.461275 0.456894 0.456049 0.454598 0.450081 0.449796 0.446359 0.445304 0.44268 0.442522 0.437816 0.437327 0.436147 0.431651 0.43119 0.430562 0.428632 0.427673 0.423142 0.42508 0.422663 0.422261 0.419512 0.41686 0.41683 0.414891 0.413744 0.411734 0.410167 0.409043 0.406969 0.405773 0.405106 0.403576 0.401009 0.400798 0.398333 0.397961 0.398205 0.396021 0.395408 0.392542 0.394116 0.391262 0.391371 0.388443 0.388304 0.385475 0.384392 0.38549 0.381548 0.382137 0.382209 0.379851 0.378369 0.380029 0.377601 0.377008 0.376771 0.373226 0.375442 0.37217 0.372131 0.372536 0.37155 0.36856 0.368721 0.370377 0.376067 0.379317 0.381264 0.38585 0.387904 0.392601 0.396433 0.399925 0.406858 0.411345 0.415846 0.419216 0.424185 0.42767 0.435142 0.440602 0.445902 0.451131 0.454606 0.464035 0.468522 0.475601 0.480214 0.486535 0.493057 0.499333 0.509825 0.51365 0.526613 0.529499 0.53975 0.548777 0.561248 0.567734 0.578927 0.588084 0.598808 0.612369 0.624799 0.636366 0.642895 0.651541 0.673222 0.682772 0.699196 0.714673 0.733219 0.73828 0.756475 0.770878 0.782206 0.788329 0.789316 0.788192 0.787997 0.789292 0.786146 0.787178 0.784869 0.788431
0.555194 0.567162 0.606219 0.6114 0.611819 0.60668 0.60484 0.598648 0.5923 0.585706 0.580768 0.579648 0.569514 0.564915 0.560336 0.558925 0.554475 0.549687 0.543848 0.54125 0.534116 0.532984 0.528035 0.524886 0.522821 0.517665 0.513949 0.512818 0.509402 0.504501 0.50165 0.497582 0.496965 0.492754 0.489528 0.487108 0.484791 0.481436 0.479235 0.475649 0.473826 0.469747 0.467428 0.465471 0.464135 0.461942 0.456893 0.454466 0.454568 0.453726 0.45012 0.449299 0.44468 0.442671 0.442574 0.439116 0.43757 0.435172 0.434078 0.430752 0.429505 0.429387 0.425575 0.424442 0.423834 0.42117 0.420836 0.416387 0.416156 0.416362 0.413915 0.412934 0.408531 0.408939 0.407553 0.407118 0.405233 0.402671 0.40063 0.399367 0.39931 0.397205 0.397162 0.394985 0.394613 0.39245 0.390721 0.389684 0.387797 0.389169 0.386524 0.3844 0.384336 0.38308 0.383114 0.381185 0.382259 0.379315 0.377575 0.376184 0.375226 0.375047 0.37453 0.372391 0.371972 0.370702 0.369866 0.369723 0.369672 0.367738 0.367012 0.36569 0.365922 0.365817 0.365029 0.365022 0.368555 0.373304 0.377202 0.381629 0.385723 0.388534 0.392996 0.393927 0.400231 0.404992 0.409594 0.412823 0.41806 0.424876 0.43058 0.434215 0.438909 0.446057 0.448171 0.454572 0.461167 0.47163 0.474685 0.48117 0.485135 0.497891 0.500934 0.51173 0.518685 0.526195 0.531438 0.540145 0.552242 0.558891 0.569729 0.582555 0.592848 0.599886 0.614253 0.626528 0.640095 0.646023 0.662 0.678926 0.687476 0.703876 0.719703 0.73081 0.744125 0.759568 0.77045 0.776208 0.775913 0.778353 0.778533 0.77699 0.777367 0.775192 0.774482 0.776253
0.540865 0.546146 0.579458 0.602406 0.606769 0.600175 0.596655 0.593599 0.582607 0.581112 0.576333 0.57033 0.565241 0.557869 0.552297 0.549668 0.542816 0.541195 0.535447 0.534387 0.528418 0.524142 0.522339 0.518362 0.515367 0.513174 0.507333 0.504739 0.501639 0.497425 0.495662 0.493132 0.489924 0.487597 0.487965 0.478066 0.477082 0.473783 0.47334 0.469639 0.467158 0.462372 0.461378 0.458939 0.457369 0.452729 0.451869 0.448455 0.447276 0.446277 0.442646 0.441158 0.439766 0.435831 0.435397 0.432166 0.431581 0.429052 0.425514 0.424025 0.425004 0.422346 0.42046 0.419006 0.417054 0.416718 0.413684 0.411589 0.410686 0.409453 0.406539 0.403886 0.403775 0.403755 0.401717 0.398927 0.399182 0.398769 0.39617 0.394337 0.392765 0.3928 0.390988 0.38893 0.387469 0.387783 0.387682 0.385061 0.383456 0.38329 0.382962 0.378596 0.380134 0.378897 0.378172 0.378802 0.374887 0.373336 0.372382 0.370254 0.370576 0.370399 0.36854 0.368037 0.365852 0.366627 0.365973 0.366085 0.365359 0.361595 0.361048 0.359408 0.360904 0.360799 0.359515 0.359338 0.364424 0.368673 0.370642 0.373809 0.37945 0.379919 0.385839 0.390583 0.396191 0.398405 0.40063 0.407218 0.411517 0.415318 0.421783 0.427754 0.432029 0.437605 0.443971 0.450615 0.452982 0.461039 0.469896 0.473521 0.481044 0.4898 0.494435 0.503069 0.511212 0.518167 0.522111 0.537368 0.543536 0.555042 0.561092 0.572578 0.582531 0.595667 0.608498 0.616547 0.630073 0.642414 0.651981 0.669786 0.681203 0.698322 0.710807 0.722806 0.732986 0.748007 0.758007 0.764568 0.764995 0.766417 0.767315 0.769032 0.766988 0.766204 0.76218 0.767269
0.530035 0.533276 0.54831 0.585802 0.597709 0.592366 0.585634 0.583859 0.573483 0.571658 0.567656 0.56201 0.5577 0.550355 0.544958 0.541672 0.536493 0.532552 0.52941 0.526545 0.524043 0.521039 0.515035 0.512671 0.509034 0.504813 0.500698 0.495574 0.495864 0.492401 0.487077 0.486466 0.482373 0.480851 0.477982 0.473514 0.471865 0.468957 0.468521 0.464202 0.460999 0.459332 0.455398 0.452913 0.449937 0.44731 0.445455 0.443863 0.44119 0.439117 0.437307 0.43509 0.433386 0.431106 0.426411 0.425995 0.426257 0.423518 0.420206 0.420744 0.416117 0.415505 0.415652 0.413139 0.410469 0.408725 0.406989 0.407425 0.403959 0.403079 0.401044 0.400512 0.397495 0.397144 0.394226 0.394968 0.392646 0.392489 0.390845 0.387881 0.389237 0.383135 0.385664 0.384883 0.382533 0.383008 0.379013 0.380081 0.377342 0.375935 0.376109 0.374217 0.374155 0.371114 0.371229 0.371102 0.369736 0.369704 0.368764 0.365757 0.364497 0.365484 0.362824 0.360584 0.363001 0.36069 0.360461 0.359739 0.358191 0.358146 0.357275 0.356493 0.356633 0.35478 0.354265 0.353506 0.360094 0.364192 0.365377 0.367573 0.373707 0.377429 0.381665 0.386751 0.389839 0.3921 0.39756 0.402279 0.405585 0.411341 0.417115 0.421557 0.428122 0.431923 0.43692 0.441512 0.45094 0.456163 0.462082 0.466156 0.473726 0.48268 0.48792 0.495734 0.502551 0.510246 0.51754 0.526827 0.534775 0.541125 0.556506 0.563775 0.576834 0.587696 0.599545 0.610917 0.619737 0.632398 0.645623 0.657854 0.669607 0.686798 0.696904 0.710626 0.722913 0.737259 0.749729 0.756368 0.755479 0.754333 0.753986 0.752322 0.755524 0.758833 0.751515 0.756262
0.521053 0.52179 0.525584 0.549326 0.58135 0.586612 0.579288 0.57485 0.566543 0.561289 0.559766 0.555587 0.547215 0.541967 0.539313 0.533765 0.531489 0.524876 0.523148 0.516922 0.516248 0.5155 0.506961 0.504891 0.499705 0.498006 0.495139 0.490097 0.488444 0.487225 0.483666 0.480964 0.474169 0.474349 0.470272 0.467633 0.464258 0.462233 0.459805 0.456142 0.453992 0.450691 0.449398 0.445627 0.445603 0.442273 0.438958 0.438303 0.434269 0.431983 0.430205 0.429758 0.426351 0.426005 0.421633 0.420649 0.419591 0.416652 0.413723 0.414994 0.412905 0.410498 0.408101 0.40645 0.404808 0.403749 0.401878 0.401653 0.397916 0.39607 0.394396 0.394037 0.39205 0.390725 0.391286 0.388668 0.387528 0.3837 0.385022 0.382596 0.380829 0.381354 0.381069 0.378179 0.377173 0.376335 0.375096 0.373782 0.372555 0.370355 0.369874 0.370051 0.368114 0.368548 0.366866 0.363967 0.361154 0.361284 0.362237 0.360828 0.360486 0.359333 0.358595 0.357453 0.35697 0.35494 0.353733 0.354085 0.353052 0.351043 0.352805 0.350806 0.350942 0.351003 0.348364 0.348436 0.356395 0.357141 0.361755 0.364655 0.367565 0.370732 0.375556 0.37825 0.382852 0.387879 0.391269 0.394506 0.401309 0.404656 0.40785 0.414288 0.418506 0.423402 0.430225 0.435406 0.43919 0.448568 0.454305 0.46123 0.46659 0.475397 0.479714 0.487482 0.494689 0.502845 0.509348 0.518145 0.529162 0.537011 0.544298 0.553978 0.566145 0.578437 0.589837 0.602381 0.611058 0.622237 0.636098 0.647618 0.660121 0.676348 0.689461 0.702966 0.711536 0.724616 0.736798 0.743156 0.744357 0.744273 0.745932 0.744913 0.745377 0.746287 0.743716 0.741668
0.512281 0.512574 0.515703 0.522425 0.555743 0.575036 0.571246 0.564408 0.557088 0.553958 0.550167 0.545548 0.540781 0.537304 0.530641 0.526868 0.523618 0.519967 0.516838 0.509791 0.505782 0.502043 0.498657 0.498204 0.492771 0.492179 0.4872 0.486636 0.48335 0.478344 0.475425 0.471118 0.469963 0.46602 0.465468 0.461557 0.456266 0.453949 0.454022 0.450256 0.449533 0.445468 0.443135 0.44057 0.437773 0.434663 0.432544 0.429379 0.427691 0.426745 0.424591 0.422042 0.419261 0.418599 0.416001 0.415601 0.410031 0.409973 0.409437 0.406325 0.406211 0.404087 0.401246 0.401157 0.398253 0.397695 0.395453 0.396924 0.391639 0.393043 0.389385 0.39032 0.387964 0.385455 0.38424 0.382549 0.382472 0.379992 0.37776 0.37706 0.376366 0.376401 0.373794 0.372477 0.371326 0.370663 0.371129 0.368392 0.367025 0.366305 0.363666 0.364562 0.362095 0.36212 0.362151 0.35978 0.358378 0.358024 0.356633 0.355969 0.35499 0.353936 0.352807 0.352728 0.352896 0.351622 0.350193 0.349252 0.348879 0.347707 0.345735 0.345459 0.345028 0.344119 0.343619 0.344416 0.348448 0.351926 0.354848 0.359881 0.362095 0.365046 0.369466 0.374303 0.375828 0.381744 0.387919 0.391753 0.392835 0.400599 0.405124 0.408524 0.414465 0.418874 0.422563 0.427901 0.437756 0.441578 0.447383 0.451896 0.459546 0.46911 0.473438 0.480584 0.488743 0.493711 0.50093 0.509498 0.52 0.527634 0.538616 0.545148 0.559691 0.571366 0.583497 0.591496 0.600278 0.612777 0.626074 0.636985 0.648944 0.665576 0.679063 0.690405 0.706269 0.715082 0.726134 0.730948 0.731366 0.730603 0.731382 0.733368 0.73383 0.732072 0.735123 0.734236
0.503542 0.500362 0.502513 0.507948 0.52372 0.557508 0.561591 0.555452 0.553604 0.546926 0.541443 0.535652 0.53213 0.531531 0.526301 0.520516 0.515499 0.51067 0.507429 0.505853 0.499193 0.498389 0.4953 0.490017 0.487702 0.484177 0.479608 0.478076 0.47558 0.472285 0.467708 0.466802 0.462746 0.459842 0.45671 0.455211 0.451947 0.448135 0.447562 0.442974 0.442184 0.43835 0.435736 0.435222 0.433033 0.430216 0.42573 0.42558 0.42232 0.42203 0.419352 0.415251 0.415149 0.412187 0.411626 0.40964 0.407107 0.402995 0.401834 0.402112 0.400968 0.398166 0.395373 0.395524 0.393066 0.392677 0.388651 0.388436 0.387752 0.385177 0.384033 0.382581 0.381689 0.379934 0.380161 0.37763 0.376133 0.375432 0.373395 0.371444 0.371078 0.370639 0.368233 0.368043 0.365728 0.364129 0.364115 0.363159 0.363076 0.361422 0.358826 0.358761 0.358228 0.357384 0.356152 0.35382 0.35244 0.352329 0.351513 0.35157 0.348948 0.349017 0.346879 0.348697 0.344751 0.345079 0.345096 0.343774 0.342536 0.340828 0.341976 0.341625 0.340488 0.338325 0.336086 0.338058 0.344245 0.34822 0.349821 0.354452 0.355912 0.361599 0.366263 0.366876 0.372919 0.374986 0.381056 0.385304 0.388925 0.393919 0.397167 0.400988 0.408271 0.412765 0.414544 0.421317 0.428593 0.436454 0.439665 0.447326 0.452346 0.463446 0.469886 0.472542 0.478699 0.486664 0.496685 0.501047 0.51186 0.521077 0.533671 0.53634 0.551047 0.561298 0.572814 0.582318 0.591693 0.603572 0.615823 0.626468 0.641615 0.655407 0.667676 0.679906 0.69451 0.702843 0.71446 0.722785 0.722953 0.719866 0.722146 0.722427 0.723642 0.724447 0.723407 0.722202
0.492671 0.491956 0.493072 0.497007 0.499941 0.530782 0.547353 0.545934 0.545267 0.537551 0.536422 0.531131 0.523576 0.522089 0.519637 0.511994 0.510799 0.505398 0.500426 0.497337 0.492973 0.489517 0.489545 0.484431 0.481187 0.477962 0.475395 0.470841 0.468788 0.465229 0.461529 0.461277 0.455296 0.453955 0.44857 0.447893 0.444527 0.444111 0.44014 0.437927 0.434777 0.432353 0.428284 0.425887 0.425552 0.422864 0.42121 0.418782 0.417858 0.414824 0.413135 0.411458 0.408379 0.407192 0.40296 0.402967 0.400088 0.395655 0.397954 0.395573 0.394293 0.392242 0.390667 0.388945 0.385049 0.385525 0.382348 0.382448 0.381622 0.379246 0.380767 0.377317 0.376207 0.374094 0.372532 0.371365 0.369272 0.369438 0.368756 0.367536 0.366556 0.365969 0.360655 0.360313 0.359977 0.359182 0.358003 0.357064 0.356983 0.355356 0.35389 0.353981 0.353068 0.351541 0.352191 0.347958 0.346756 0.346414 0.344213 0.34489 0.343399 0.344864 0.341906 0.342839 0.341057 0.336092 0.339451 0.339239 0.337866 0.336264 0.336613 0.333308 0.334758 0.332786 0.332222 0.333614 0.338369 0.343369 0.346584 0.347931 0.352806 0.355502 0.359303 0.362489 0.366077 0.371873 0.373995 0.378718 0.384005 0.387184 0.391241 0.394445 0.401051 0.405231 0.408319 0.417268 0.424027 0.427006 0.432377 0.439748 0.444761 0.453764 0.460568 0.467713 0.471457 0.477291 0.488098 0.495981 0.503492 0.513753 0.523086 0.534298 0.541688 0.553534 0.564694 0.571456 0.585678 0.594367 0.609327 0.616875 0.631847 0.646708 0.65706 0.666964 0.682543 0.690816 0.704531 0.708862 0.715435 0.709448 0.710457 0.711314 0.711685 0.712398 0.710798 0.71053
0.484115 0.483655 0.484016 0.4878 0.485157 0.500949 0.533065 0.541223 0.535873 0.534742 0.527501 0.520773 0.520978 0.515337 0.510202 0.507009 0.501518 0.497088 0.495148 0.491552 0.486545 0.482513 0.479212 0.47688 0.472981 0.471943 0.468868 0.464155 0.461822 0.457462 0.45571 0.451619 0.450131 0.446074 0.445395 0.441134 0.439856 0.438044 0.434453 0.431733 0.42996 0.427033 0.424586 0.421144 0.420195 0.417862 0.415464 0.413696 0.411089 0.41027 0.407685 0.403801 0.403628 0.402539 0.398996 0.395695 0.395557 0.393199 0.393154 0.388204 0.387409 0.386391 0.385304 0.382233 0.382158 0.380559 0.378125 0.376082 0.375194 0.375919 0.374585 0.371042 0.369494 0.368869 0.366265 0.367104 0.363749 0.362463 0.362556 0.361281 0.358334 0.358216 0.35818 0.355708 0.354921 0.354367 0.353972 0.350227 0.349614 0.349844 0.349166 0.347958 0.346146 0.345636 0.345359 0.341961 0.343297 0.342349 0.341254 0.337493 0.339461 0.335938 0.335932 0.336007 0.335783 0.334417 0.333515 0.33063 0.33249 0.331603 0.329114 0.330227 0.329815 0.327875 0.327857 0.327153 0.332747 0.337046 0.3379 0.34291 0.347623 0.350349 0.354007 0.357137 0.360355 0.365588 0.367286 0.372313 0.377276 0.383336 0.386704 0.388305 0.395029 0.399523 0.406904 0.410188 0.414886 0.421545 0.428302 0.432196 0.437121 0.447686 0.454138 0.459674 0.464839 0.470808 0.480331 0.489649 0.495694 0.50625 0.51621 0.526204 0.533625 0.54677 0.555365 0.564309 0.576145 0.584604 0.595962 0.61071 0.622157 0.637482 0.652061 0.66004 0.67038 0.678189 0.69368 0.698423 0.700849 0.698521 0.701866 0.701255 0.699838 0.702414 0.699218 0.701652
0.472293 0.474572 0.474446 0.475764 0.477004 0.482312 0.512289 0.527078 0.526828 0.525398 0.518204 0.513726 0.509112 0.504519 0.503017 0.498228 0.493539 0.490753 0.487514 0.485543 0.480309 0.476501 0.471077 0.470962 0.468295 0.464015 0.460529 0.457603 0.454151 0.453573 0.44861 0.448059 0.444824 0.440144 0.437327 0.435751 0.432809 0.430646 0.426813 0.423225 0.423625 0.419376 0.417355 0.415422 0.41312 0.410754 0.408095 0.407727 0.405319 0.403756 0.401824 0.397932 0.396931 0.393365 0.393138 0.39171 0.389006 0.389031 0.386346 0.384198 0.382965 0.380382 0.378638 0.375997 0.375699 0.373978 0.373769 0.372138 0.37089 0.368371 0.366687 0.364408 0.364464 0.361148 0.362418 0.360091 0.357395 0.356132 0.357574 0.356472 0.353426 0.355109 0.353349 0.350996 0.350147 0.348104 0.346742 0.346359 0.344932 0.344709 0.342019 0.342406 0.341449 0.340572 0.339851 0.339284 0.338348 0.335917 0.335065 0.335119 0.333527 0.334191 0.333584 0.332232 0.329683 0.329918 0.331209 0.328824 0.327872 0.325646 0.32711 0.324668 0.325391 0.323409 0.32339 0.323301 0.326912 0.331362 0.334614 0.337725 0.341298 0.344277 0.347644 0.350794 0.355922 0.360534 0.363793 0.365623 0.370878 0.376755 0.380747 0.385514 0.390904 0.39433 0.398913 0.404275 0.410493 0.41696 0.424136 0.42827 0.43495 0.441805 0.446225 0.45051 0.456505 0.46645 0.472957 0.480336 0.490136 0.497339 0.506581 0.515545 0.526172 0.537844 0.546055 0.556244 0.565924 0.575562 0.589304 0.598551 0.613245 0.626185 0.637442 0.656223 0.661898 0.672814 0.680925 0.686932 0.690905 0.687668 0.688411 0.689246 0.687457 0.68863 0.688613 0.689487
0.463853 0.465853 0.465256 0.464822 0.466199 0.467735 0.478969 0.51024 0.521076 0.51515 0.509562 0.507878 0.503496 0.499212 0.494563 0.491248 0.488413 0.481747 0.481025 0.476401 0.473178 0.469972 0.465255 0.463842 0.46023 0.455875 0.455039 0.450871 0.446114 0.445321 0.442341 0.439529 0.436429 0.434554 0.432389 0.428127 0.426744 0.423041 0.421232 0.417032 0.416374 0.415352 0.412092 0.408097 0.409353 0.405832 0.402847 0.401591 0.400046 0.398809 0.394156 0.393387 0.392031 0.388306 0.387712 0.385865 0.384842 0.381306 0.379857 0.379675 0.376315 0.373632 0.372067 0.373174 0.371772 0.369268 0.366476 0.365466 0.366383 0.363983 0.360631 0.358688 0.359924 0.356667 0.356587 0.354449 0.351065 0.351298 0.351241 0.351264 0.348935 0.348011 0.345767 0.345738 0.34483 0.343928 0.342148 0.340225 0.340296 0.338531 0.337507 0.336636 0.335475 0.33535 0.332578 0.333494 0.332795 0.331511 0.329274 0.329326 0.328056 0.326349 0.326637 0.326413 0.325753 0.322072 0.32393 0.323062 0.322347 0.321193 0.320931 0.319418 0.317686 0.317735 0.317863 0.317922 0.323469 0.325395 0.328663 0.332311 0.33775 0.33986 0.341606 0.347821 0.349513 0.353521 0.359029 0.361795 0.365988 0.37094 0.373069 0.378571 0.384014 0.389174 0.394349 0.397293 0.403925 0.409751 0.415521 0.421008 0.428397 0.432492 0.441055 0.447681 0.454027 0.458277 0.468226 0.472974 0.480628 0.489068 0.500276 0.508321 0.518074 0.528394 0.537834 0.544093 0.55605 0.569353 0.580243 0.591481 0.605842 0.616242 0.633403 0.64049 0.652178 0.660654 0.672817 0.676078 0.677099 0.677743 0.676602 0.677032 0.680766 0.680672 0.676574 0.677356
0.455518 0.454927 0.455501 0.455231 0.456353 0.456939 0.459373 0.474227 0.49486 0.505272 0.501921 0.497827 0.497026 0.490536 0.487943 0.483472 0.478417 0.474442 0.472526 0.468513 0.463691 0.461072 0.458769 0.454156 0.451885 0.448882 0.447015 0.443371 0.44034 0.437847 0.434625 0.43402 0.431421 0.427056 0.425895 0.423487 0.418504 0.41583 0.415089 0.412956 0.410762 0.406665 0.406189 0.403737 0.402252 0.400044 0.396893 0.396466 0.393045 0.390661 0.388727 0.387168 0.385181 0.383495 0.382548 0.379129 0.378783 0.37706 0.375199 0.373347 0.369685 0.370032 0.368641 0.368202 0.36501 0.360954 0.362352 0.359982 0.359142 0.357438 0.356394 0.353979 0.351644 0.351995 0.350179 0.350035 0.348303 0.346723 0.343773 0.343651 0.341943 0.341253 0.340785 0.339672 0.336973 0.336882 0.338026 0.33621 0.333387 0.334257 0.332817 0.332468 0.330893 0.329902 0.329495 0.326777 0.327681 0.326709 0.32263 0.324273 0.323459 0.322434 0.320978 0.32199 0.319964 0.320043 0.318243 0.31739 0.318355 0.316206 0.314569 0.314315 0.314066 0.313169 0.312131 0.313497 0.318217 0.321053 0.323753 0.326242 0.331 0.334966 0.338286 0.341908 0.346417 0.34816 0.350937 0.354528 0.35945 0.364531 0.365814 0.371876 0.380304 0.382138 0.387367 0.390108 0.397504 0.405142 0.409997 0.415016 0.419758 0.427551 0.432999 0.438688 0.445808 0.451169 0.461161 0.466048 0.475352 0.482449 0.490319 0.501134 0.508091 0.519498 0.530869 0.537544 0.549966 0.562581 0.569657 0.582052 0.595399 0.605384 0.613664 0.624789 0.639457 0.654711 0.658195 0.665367 0.66645 0.667546 0.664125 0.667086 0.666831 0.66666 0.665803 0.668432
0.447284 0.44617 0.445975 0.447679 0.446208 0.449126 0.449026 0.448255 0.455084 0.469404 0.47672 0.476391 0.475099 0.470238 0.469646 0.465568 0.45891 0.456359 0.45738 0.458926 0.455821 0.453692 0.44804 0.449111 0.444894 0.442092 0.438572 0.435436 0.434072 0.431844 0.428388 0.42597 0.423712 0.419938 0.416762 0.415128 0.413143 0.41117 0.408267 0.407188 0.405396 0.401808 0.398812 0.398139 0.3956 0.392568 0.391493 0.389707 0.38786 0.385592 0.384483 0.381876 0.379351 0.377052 0.377055 0.373842 0.371857 0.370524 0.370415 0.366239 0.365145 0.363773 0.361551 0.359267 0.360271 0.356361 0.356736 0.35448 0.353443 0.353551 0.350106 0.349728 0.347577 0.346927 0.344006 0.343581 0.342663 0.34168 0.338642 0.340086 0.337343 0.335813 0.335141 0.334972 0.333103 0.333653 0.331723 0.329443 0.329511 0.328092 0.326821 0.326761 0.325499 0.323815 0.323486 0.322238 0.321847 0.3194 0.319657 0.320133 0.316064 0.317615 0.31519 0.31732 0.31654 0.313416 0.313213 0.310808 0.3109 0.310996 0.311098 0.310065 0.308108 0.308011 0.308275 0.308331 0.312107 0.31532 0.31847 0.322201 0.324796 0.327042 0.332162 0.336003 0.338995 0.342929 0.345439 0.348245 0.355665 0.35864 0.362274 0.364551 0.370156 0.375489 0.382499 0.385841 0.389413 0.395389 0.403992 0.406599 0.413284 0.418465 0.425337 0.431649 0.437764 0.44339 0.451301 0.45763 0.46325 0.475047 0.483287 0.491996 0.500295 0.511642 0.520889 0.526629 0.539265 0.549872 0.56 0.570981 0.584454 0.594629 0.606928 0.619422 0.629498 0.636772 0.651644 0.657794 0.652402 0.654679 0.656145 0.656719 0.657833 0.655628 0.6557 0.656235
0.436084 0.438276 0.437189 0.439902 0.437045 0.439169 0.436705 0.435363 0.43418 0.434038 0.43964 0.43598 0.434392 0.431791 0.426573 0.424153 0.41708 0.415642 0.41727 0.429651 0.436423 0.438768 0.441116 0.440721 0.437666 0.43434 0.431318 0.430111 0.426041 0.422995 0.42068 0.420242 0.415307 0.411676 0.410347 0.407959 0.405442 0.404789 0.400731 0.400029 0.397349 0.395746 0.394437 0.391154 0.389159 0.387457 0.384706 0.382249 0.382132 0.380541 0.377691 0.37605 0.374277 0.372161 0.37132 0.369222 0.368117 0.364561 0.363262 0.360006 0.358583 0.358289 0.356179 0.354918 0.354434 0.351996 0.350126 0.347563 0.347945 0.346654 0.343762 0.343252 0.342539 0.340364 0.339942 0.338408 0.334367 0.336124 0.333979 0.333793 0.33124 0.332458 0.329707 0.329889 0.325614 0.32741 0.324748 0.324671 0.323762 0.32216 0.322027 0.321829 0.319474 0.31817 0.318125 0.31676 0.318119 0.315996 0.315063 0.312808 0.311325 0.311312 0.311374 0.310672 0.310673 0.308513 0.307405 0.305043 0.30751 0.305296 0.304766 0.30277 0.303298 0.302781 0.302339 0.302883 0.307781 0.310724 0.312762 0.316213 0.319813 0.32293 0.326127 0.329545 0.333395 0.336621 0.341339 0.3436 0.349118 0.352107 0.356167 0.359391 0.365813 0.368568 0.374666 0.378654 0.385567 0.388733 0.39618 0.400374 0.404584 0.41152 0.417693 0.425458 0.429743 0.43376 0.445033 0.449237 0.458199 0.466113 0.475709 0.481879 0.490887 0.50101 0.511458 0.521508 0.533769 0.540191 0.551439 0.563237 0.572819 0.583605 0.596479 0.607425 0.620245 0.630911 0.639046 0.642725 0.642886 0.643723 0.645533 0.647211 0.645416 0.646746 0.643399 0.644075
0.42751 0.427464 0.428593 0.42768 0.426995 0.426463 0.427029 0.426294 0.422166 0.420588 0.415124 0.414368 0.409879 0.409363 0.402829 0.399473 0.39821 0.398743 0.396429 0.39812 0.398462 0.403147 0.413792 0.418322 0.421787 0.422 0.421443 0.420756 0.418317 0.417724 0.414678 0.41228 0.407439 0.407456 0.404959 0.400866 0.400285 0.397897 0.396639 0.394695 0.391228 0.389168 0.388581 0.384665 0.381736 0.380902 0.380145 0.379467 0.375819 0.373428 0.372017 0.367849 0.368461 0.366385 0.36501 0.362814 0.362007 0.36038 0.356832 0.354395 0.353756 0.352161 0.351536 0.35023 0.347832 0.346128 0.34498 0.343152 0.342978 0.338968 0.339354 0.339197 0.337675 0.335747 0.334168 0.333691 0.329588 0.33056 0.329482 0.329231 0.326178 0.325253 0.323443 0.324101 0.323395 0.322968 0.320356 0.320212 0.318635 0.318295 0.314949 0.315507 0.315043 0.312121 0.312282 0.312174 0.310838 0.310739 0.309274 0.307746 0.307454 0.307441 0.304898 0.305031 0.303934 0.30435 0.302508 0.302865 0.3011 0.301947 0.299846 0.299329 0.297717 0.298928 0.298012 0.298064 0.302181 0.307064 0.308307 0.312795 0.314673 0.316903 0.320522 0.326015 0.327721 0.331508 0.334822 0.338562 0.342798 0.347532 0.350545 0.355304 0.35855 0.364379 0.368833 0.371631 0.378622 0.381587 0.390289 0.393845 0.399723 0.40394 0.409995 0.417473 0.421746 0.428776 0.435831 0.444317 0.453889 0.45714 0.466626 0.476496 0.48562 0.493643 0.501907 0.511411 0.521092 0.534299 0.543627 0.552491 0.564895 0.576412 0.584458 0.597494 0.608132 0.619028 0.627227 0.63322 0.635119 0.633193 0.632142 0.634805 0.634573 0.633256 0.633258 0.633926
0.419406 0.419359 0.419533 0.419569 0.418896 0.415022 0.414442 0.413656 0.410253 0.404529 0.403216 0.400431 0.396249 0.39554 0.391814 0.390285 0.38982 0.384879 0.384648 0.383307 0.381699 0.383309 0.383113 0.382439 0.385178 0.389862 0.395444 0.399153 0.401618 0.401254 0.402693 0.402209 0.401458 0.399342 0.397307 0.394735 0.392109 0.391414 0.389496 0.384853 0.384533 0.383265 0.381461 0.377485 0.377067 0.37332 0.370607 0.372325 0.370514 0.367287 0.363868 0.363987 0.360791 0.358011 0.357477 0.358303 0.355279 0.351926 0.351894 0.349032 0.347393 0.347382 0.343599 0.343938 0.342799 0.341802 0.339599 0.339018 0.336963 0.336596 0.333275 0.332449 0.33136 0.330074 0.329198 0.326243 0.326251 0.325391 0.324401 0.323282 0.321966 0.320185 0.320088 0.317511 0.316953 0.316803 0.31565 0.3143 0.312485 0.312621 0.312158 0.312638 0.308088 0.309249 0.307996 0.30648 0.305102 0.30487 0.303433 0.304083 0.301579 0.300961 0.299473 0.29967 0.298795 0.296916 0.297058 0.297138 0.297291 0.293946 0.29478 0.296496 0.293566 0.294011 0.294394 0.292419 0.298821 0.301315 0.304222 0.308489 0.310737 0.31333 0.31661 0.319085 0.321434 0.326505 0.330162 0.331725 0.336627 0.340793 0.345244 0.348278 0.352141 0.360244 0.363795 0.368179 0.372167 0.377879 0.383335 0.386274 0.392998 0.399536 0.403072 0.410131 0.413977 0.424456 0.428687 0.43708 0.441075 0.451457 0.457991 0.468711 0.478147 0.487964 0.492036 0.502889 0.51413 0.52492 0.534979 0.542484 0.55493 0.565595 0.575386 0.587681 0.597059 0.60697 0.617912 0.618763 0.622396 0.620293 0.621611 0.623727 0.62593 0.621712 0.621358 0.625244
0.411392 0.409797 0.408423 0.408041 0.405635 0.404431 0.400794 0.397871 0.396634 0.394574 0.390098 0.389246 0.381484 0.380937 0.37964 0.376839 0.376667 0.375541 0.375044 0.373253 0.372159 0.371555 0.368023 0.368327 0.366527 0.367257 0.364594 0.36534 0.366499 0.367595 0.37181 0.371698 0.375443 0.380066 0.383273 0.383183 0.382765 0.383163 0.382494 0.379686 0.37716 0.374378 0.373683 0.371324 0.370514 0.367976 0.366718 0.3632 0.363094 0.360731 0.360174 0.357896 0.357355 0.354895 0.352843 0.3506 0.349892 0.34687 0.346641 0.345027 0.341301 0.342284 0.340361 0.338511 0.336998 0.334567 0.332804 0.33283 0.332598 0.328939 0.330566 0.326589 0.326049 0.324855 0.321556 0.322878 0.321107 0.319341 0.318898 0.317866 0.316971 0.315686 0.315657 0.313788 0.313768 0.311118 0.310843 0.308466 0.308266 0.308136 0.306167 0.305321 0.304677 0.303577 0.302151 0.302112 0.299575 0.299083 0.299254 0.29719 0.297765 0.297554 0.295171 0.294243 0.294242 0.292926 0.292736 0.291824 0.29151 0.290936 0.290697 0.290793 0.288911 0.288619 0.288662 0.288843 0.292737 0.299951 0.300351 0.302679 0.306805 0.30696 0.310639 0.315059 0.317162 0.320006 0.323392 0.327121 0.330061 0.334345 0.338375 0.341749 0.347006 0.350739 0.357497 0.358245 0.364832 0.372982 0.375848 0.381684 0.385387 0.392201 0.396408 0.40225 0.410273 0.415887 0.420305 0.428262 0.437195 0.442559 0.453041 0.463012 0.469271 0.478281 0.486164 0.493802 0.505644 0.516636 0.524786 0.534067 0.544141 0.553633 0.566473 0.577495 0.587314 0.600983 0.605476 0.611243 0.61175 0.608575 0.611054 0.612922 0.611724 0.614389 0.612505 0.61203
0.400286 0.400796 0.395524 0.395019 0.394179 0.390536 0.389512 0.383645 0.382648 0.379888 0.376396 0.373396 0.369394 0.370762 0.371186 0.367294 0.367332 0.365558 0.363931 0.363592 0.361652 0.35959 0.359148 0.358112 0.35495 0.353004 0.351536 0.352208 0.352222 0.349986 0.349355 0.347539 0.348515 0.34705 0.348172 0.348376 0.353928 0.36007 0.364301 0.365243 0.366586 0.36603 0.365876 0.363042 0.363626 0.360878 0.359907 0.357834 0.356881 0.354434 0.351932 0.351527 0.350477 0.348393 0.345927 0.345682 0.344728 0.342806 0.339982 0.338206 0.336632 0.334027 0.334025 0.333769 0.331962 0.330746 0.328823 0.326712 0.324543 0.325163 0.32223 0.322407 0.320455 0.319932 0.318767 0.318253 0.316194 0.314592 0.313447 0.312113 0.310913 0.309524 0.309431 0.307858 0.30461 0.306079 0.306068 0.304964 0.301218 0.301025 0.302258 0.300137 0.29886 0.297393 0.298772 0.295311 0.295277 0.29402 0.295221 0.293326 0.291628 0.289804 0.291992 0.289336 0.289529 0.288691 0.288568 0.287285 0.287042 0.286932 0.285078 0.285171 0.282611 0.280897 0.269781 0.24724 0.209623 0.235107 0.262631 0.23415 0.200508 0.197354 0.306503 0.308947 0.314983 0.316664 0.317177 0.320309 0.32613 0.329741 0.331991 0.336279 0.339466 0.344042 0.350599 0.355139 0.359299 0.365709 0.36878 0.375093 0.378523 0.38738 0.389523 0.398092 0.403907 0.409345 0.415598 0.420413 0.42744 0.435024 0.444499 0.452538 0.460339 0.468636 0.477498 0.489674 0.495989 0.50374 0.514616 0.522163 0.534867 0.544374 0.556218 0.566413 0.57936 0.581491 0.5986 0.600038 0.598626 0.598381 0.600336 0.601758 0.599968 0.601481 0.599978 0.601237
0.391286 0.38915 0.384124 0.385252 0.380394 0.375356 0.374833 0.370234 0.3698 0.364367 0.363557 0.362755 0.362761 0.360848 0.359545 0.35951 0.357433 0.354313 0.353912 0.353453 0.35011 0.349606 0.348784 0.346267 0.346513 0.342778 0.342194 0.341357 0.339161 0.339191 0.336497 0.336544 0.334068 0.334132 0.333685 0.333634 0.332234 0.333232 0.333461 0.332795 0.334777 0.335798 0.337917 0.343896 0.34846 0.348918 0.348613 0.347034 0.3454 0.347038 0.346251 0.344385 0.343933 0.341253 0.340752 0.338153 0.337411 0.334828 0.333719 0.331406 0.331583 0.329031 0.328647 0.327062 0.32542 0.325055 0.323615 0.322372 0.320564 0.319396 0.318487 0.314858 0.315481 0.315095 0.314017 0.311551 0.309279 0.309736 0.308361 0.306991 0.303346 0.304517 0.30335 0.304213 0.300777 0.302028 0.299043 0.29853 0.29644 0.295176 0.295181 0.295065 0.294192 0.293387 0.292903 0.291916 0.289413 0.288434 0.288408 0.288133 0.287671 0.285821 0.2841 0.283397 0.284282 0.28327 0.282071 0.281637 0.280319 0.277608 0.263282 0.241838 0.188873 0.0 0.0 0.0 0.0 0.0 0.0 0.0 0.0 0.0 0.286801 0.3047 0.305634 0.309386 0.312701 0.316218 0.318785 0.323284 0.327602 0.331933 0.33435 0.338834 0.343652 0.349644 0.352045 0.358454 0.363139 0.368615 0.373204 0.37742 0.384695 0.386031 0.394382 0.402045 0.408042 0.416662 0.420035 0.430269 0.435706 0.44417 0.451355 0.459091 0.47197 0.479966 0.486612 0.496774 0.504402 0.513116 0.526027 0.537264 0.545229 0.555285 0.56837 0.576313 0.58669 0.587498 0.588051 0.587546 0.588859 0.590992 0.588434 0.591198 0.588784 0.588939
0.380224 0.374494 0.373747 0.373205 0.368914 0.366354 0.363151 0.362128 0.357709 0.356514 0.353501 0.353633 0.354423 0.348976 0.349719 0.348003 0.347141 0.34674 0.342604 0.343128 0.342177 0.339563 0.337927 0.335275 0.335393 0.332381 0.332006 0.329403 0.328663 0.32653 0.327783 0.326051 0.325855 0.322683 0.322822 0.321383 0.320904 0.321445 0.319906 0.319513 0.318244 0.317173 0.315228 0.316567 0.316274 0.318125 0.318661 0.315624 0.31586 0.320678 0.331261 0.334824 0.337514 0.334764 0.334462 0.33098 0.331754 0.330286 0.326828 0.326497 0.326173 0.324358 0.320619 0.32131 0.319079 0.318847 0.318619 0.315972 0.314015 0.312996 0.313908 0.311036 0.310032 0.308972 0.307606 0.30581 0.305447 0.304592 0.3025 0.301034 0.301805 0.298611 0.298275 0.297074 0.296497 0.295305 0.294613 0.29318 0.293178 0.292374 0.290395 0.290405 0.289426 0.287149 0.287108 0.286078 0.284681 0.284775 0.282702 0.284108 0.282725 0.280538 0.279907 0.280149 0.278532 0.275987 0.266299 0.249277 0.204524 0.0 0.0 0.0 0.0 0.0 0.0 0.0 0.0 0.0 0.0 0.0 0.0 0.0 0.214909 0.298829 0.302996 0.304983 0.307666 0.311299 0.313625 0.316839 0.319937 0.324554 0.328241 0.333828 0.336596 0.341392 0.348473 0.35248 0.356816 0.360851 0.364268 0.3715 0.376788 0.383362 0.386591 0.392887 0.400287 0.405161 0.413818 0.421673 0.426997 0.437975 0.443093 0.453877 0.461679 0.470409 0.477755 0.48687 0.497892 0.507789 0.51714 0.526009 0.535173 0.544178 0.558036 0.565687 0.57533 0.576776 0.576141 0.576236 0.576801 0.57797 0.577636 0.579818 0.577522 0.57847
0.36496 0.362538 0.359935 0.359479 0.35419 0.35614 0.349212 0.348863 0.346148 0.345305 0.345302 0.343581 0.341873 0.340558 0.338046 0.337007 0.33693 0.335846 0.334078 0.330237 0.329125 0.328023 0.325987 0.325534 0.324022 0.321957 0.320969 0.320239 0.318207 0.316872 0.318104 0.317907 0.315478 0.314801 0.314568 0.312417 0.311828 0.31106 0.310548 0.310353 0.306519 0.307575 0.30734 0.307112 0.306829 0.305322 0.3021 0.300856 0.300725 0.302012 0.301892 0.306255 0.315706 0.32313 0.324185 0.326408 0.323802 0.3231 0.322648 0.321103 0.319443 0.316874 0.317423 0.315233 0.313903 0.313676 0.31187 0.309887 0.309371 0.307582 0.30659 0.303109 0.304195 0.303887 0.30255 0.301338 0.30074 0.298262 0.297065 0.296176 0.294441 0.29435 0.292138 0.291569 0.291005 0.288623 0.289827 0.287271 0.28739 0.287756 0.285332 0.285341 0.284443 0.282759 0.28278 0.281346 0.278944 0.278976 0.278403 0.278199 0.27417 0.273669 0.268855 0.249083 0.2096 0.179107 0.0 0.0 0.0 0.0 0.0 0.0 0.0 0.0 0.0 0.0 0.0 0.0 0.0 0.0 0.0 0.0 0.0 0.292654 0.297776 0.299966 0.300998 0.305045 0.308611 0.31225 0.314361 0.318143 0.322491 0.326914 0.331781 0.3337 0.341745 0.345234 0.349726 0.353366 0.358942 0.363418 0.369152 0.376832 0.379931 0.386594 0.393777 0.398176 0.406716 0.414407 0.421999 0.430307 0.435255 0.446632 0.454963 0.461121 0.470646 0.477806 0.487523 0.497782 0.506811 0.514987 0.524403 0.535702 0.548063 0.556067 0.563658 0.565585 0.563746 0.565443 0.565291 0.565727 0.5674 0.568248 0.563995 0.566866
0.353397 0.349954 0.352293 0.346153 0.342754 0.343659 0.341671 0.338187 0.337669 0.337535 0.33503 0.333664 0.331684 0.332021 0.328072 0.326315 0.327237 0.324013 0.322722 0.321256 0.318937 0.317801 0.316122 0.315314 0.314577 0.312805 0.313741 0.31052 0.310186 0.31041 0.306368 0.307645 0.3071 0.306562 0.303722 0.302655 0.303661 0.302003 0.300657 0.300046 0.299262 0.299028 0.297051 0.297556 0.296257 0.294244 0.29266 0.292048 0.291742 0.291322 0.291209 0.28888 0.2913 0.291443 0.293809 0.300551 0.306453 0.310919 0.312874 0.311543 0.312371 0.310753 0.310396 0.310403 0.307728 0.308402 0.305621 0.304396 0.303236 0.302797 0.300992 0.30086 0.297874 0.298168 0.296978 0.294663 0.292768 0.293318 0.292027 0.2908 0.290886 0.289251 0.288453 0.286172 0.285085 0.285309 0.283753 0.28244 0.282378 0.282082 0.281017 0.279421 0.279374 0.277369 0.278697 0.277055 0.275536 0.273128 0.272329 0.264276 0.240812 0.17866 0.0 0.0 0.0 0.0 0.0 0.0 0.0 0.0 0.0 0.0 0.0 0.0 0.0 0.0 0.0 0.0 0.0 0.0 0.0 0.0 0.0 0.270725 0.292468 0.296231 0.297722 0.29904 0.303011 0.307233 0.310685 0.314147 0.316474 0.319897 0.324781 0.329255 0.333018 0.339154 0.344459 0.349053 0.352024 0.35853 0.364387 0.366795 0.375549 0.378781 0.384408 0.392986 0.399023 0.404836 0.414839 0.421314 0.428674 0.437228 0.443966 0.452147 0.459001 0.467735 0.477245 0.487161 0.496245 0.50232 0.514146 0.526326 0.536118 0.543639 0.552005 0.551761 0.55322 0.553752 0.553981 0.555669 0.55529 0.555424 0.552083 0.555084
0.343202 0.340334 0.336426 0.335507 0.335462 0.33135 0.33083 0.328472 0.327724 0.327413 0.326375 0.323207 0.321153 0.320574 0.319274 0.31853 0.315125 0.312462 0.312296 0.312137 0.309812 0.309429 0.306885 0.305978 0.306163 0.303532 0.303853 0.303101 0.301939 0.300129 0.299583 0.299462 0.298693 0.296622 0.296525 0.295959 0.294628 0.293781 0.291519 0.29057 0.290871 0.292065 0.290368 0.287971 0.286409 0.284738 0.284606 0.283479 0.282653 0.282775 0.281315 0.282682 0.282526 0.282258 0.280881 0.282031 0.282014 0.281942 0.283515 0.287783 0.291175 0.295621 0.297789 0.2985 0.298281 0.298942 0.300541 0.298935 0.296809 0.297604 0.294964 0.294661 0.294129 0.291445 0.292729 0.290113 0.289948 0.286235 0.286952 0.285577 0.284148 0.283945 0.282757 0.281107 0.28109 0.280088 0.27909 0.279084 0.278791 0.276756 0.277227 0.275722 0.274745 0.273423 0.271173 0.267354 0.249512 0.189876 0.0 0.0 0.0 0.0 0.0 0.0 0.0 0.0 0.0 0.0 0.0 0.0 0.0 0.0 0.0 0.0 0.0 0.0 0.0 0.0 0.0 0.0 0.0 0.0 0.0 0.190695 0.287427 0.290228 0.290921 0.295326 0.298918 0.299105 0.304541 0.308635 0.311679 0.315855 0.317857 0.323535 0.327748 0.332331 0.337224 0.342429 0.344148 0.353186 0.354694 0.361333 0.366919 0.371093 0.377373 0.38469 0.390416 0.396462 0.407326 0.414922 0.421102 0.427848 0.436245 0.443285 0.451802 0.459382 0.467476 0.477237 0.48576 0.492676 0.502846 0.515736 0.526721 0.535242 0.534985 0.537189 0.538858 0.542879 0.541256 0.543031 0.542225 0.546005 0.541564 0.542889
0.333383 0.328274 0.327309 0.324597 0.322503 0.323559 0.321606 0.31792 0.317734 0.317075 0.314628 0.314825 0.311565 0.310527 0.308962 0.308657 0.305925 0.304155 0.303462 0.301536 0.30098 0.298368 0.296358 0.295948 0.295369 0.294799 0.294236 0.295614 0.293661 0.291426 0.291947 0.290373 0.289799 0.289408 0.288035 0.28609 0.285722 0.284259 0.283905 0.283559 0.283393 0.281671 0.280478 0.277386 0.277191 0.27752 0.275722 0.275487 0.27543 0.276127 0.275103 0.274947 0.274911 0.274824 0.272045 0.272886 0.273444 0.272288 0.272054 0.270909 0.271371 0.270751 0.270822 0.27004 0.269891 0.273458 0.284222 0.290018 0.290736 0.290317 0.289617 0.288124 0.286692 0.285436 0.285324 0.283108 0.283289 0.28 0.281043 0.281065 0.280351 0.279071 0.278022 0.276579 0.277075 0.276266 0.273069 0.273121 0.27346 0.271242 0.269938 0.265564 0.255387 0.234967 0.192404 0.0 0.0 0.0 0.0 0.0 0.0 0.0 0.0 0.0 0.0 0.0 0.0 0.0 0.0 0.0 0.0 0.0 0.0 0.0 0.0 0.0 0.0 0.0 0.0 0.0 0.0 0.0 0.0 0.0 0.28051 0.283592 0.28789 0.289036 0.290015 0.295781 0.297815 0.300664 0.305658 0.309453 0.311006 0.316788 0.320908 0.327474 0.329884 0.336017 0.339962 0.343281 0.351035 0.353746 0.360898 0.365272 0.372991 0.375123 0.382943 0.392193 0.397779 0.405675 0.412012 0.418372 0.427878 0.433289 0.443387 0.449914 0.458954 0.465833 0.475056 0.487286 0.497297 0.504189 0.511707 0.520452 0.519776 0.521687 0.525654 0.528681 0.530463 0.529847 0.531233 0.532813 0.530589 0.531826
0.321246 0.319346 0.315797 0.315283 0.311645 0.314571 0.311309 0.310945 0.308533 0.30713 0.305797 0.30459 0.302692 0.300632 0.29998 0.297302 0.295915 0.296277 0.295023 0.292392 0.290352 0.289188 0.289416 0.288441 0.287303 0.286978 0.286717 0.284917 0.284787 0.284548 0.283575 0.280671 0.280457 0.278883 0.278456 0.276558 0.276146 0.27489 0.274945 0.275516 0.272697 0.271357 0.269404 0.270283 0.269022 0.268782 0.268605 0.268265 0.268268 0.267319 0.26767 0.268082 0.26614 0.265776 0.265586 0.264896 0.265108 0.263307 0.263249 0.262915 0.261076 0.26064 0.26032 0.260228 0.260141 0.260225 0.259085 0.262191 0.269204 0.276385 0.280499 0.28049 0.281711 0.280539 0.278926 0.278876 0.277606 0.276506 0.276803 0.274653 0.274066 0.274095 0.27435 0.271771 0.271866 0.271019 0.270008 0.267721 0.261876 0.244404 0.206178 0.166673 0.0 0.0 0.0 0.0 0.0 0.0 0.0 0.0 0.0 0.0 0.0 0.0 0.0 0.0 0.0 0.0 0.0 0.0 0.0 0.0 0.0 0.0 0.0 0.0 0.0 0.0 0.0 0.0 0.0 0.0 0.0 0.0 0.257354 0.278051 0.282421 0.283259 0.286185 0.289176 0.292684 0.29468 0.299392 0.302819 0.307781 0.311457 0.313448 0.321111 0.322219 0.326455 0.332465 0.336901 0.342093 0.345764 0.352697 0.357256 0.36463 0.369854 0.374641 0.382366 0.389944 0.396802 0.402879 0.411453 0.41925 0.424308 0.433082 0.439749 0.448237 0.457568 0.464496 0.478947 0.491296 0.49396 0.503702 0.504309 0.505454 0.506379 0.511366 0.515496 0.514469 0.519461 0.518869 0.519999 0.51889 0.520753
0.311722 0.308825 0.307622 0.304866 0.302471 0.30418 0.300654 0.300074 0.298297 0.298192 0.296606 0.292861 0.293296 0.289863 0.290426 0.288723 0.288789 0.285803 0.285319 0.28377 0.28302 0.283406 0.281659 0.28071 0.278421 0.278219 0.277912 0.276549 0.27458 0.274241 0.273574 0.271744 0.27048 0.270727 0.268701 0.268517 0.26895 0.268888 0.266894 0.266459 0.263431 0.263121 0.260387 0.26158 0.261398 0.261332 0.261602 0.261381 0.26089 0.260625 0.258828 0.258958 0.257941 0.257698 0.257514 0.257116 0.256777 0.256662 0.255457 0.255297 0.25372 0.252639 0.252657 0.251531 0.250847 0.251204 0.251401 0.251219 0.25126 0.251359 0.253368 0.258378 0.264587 0.270089 0.270964 0.272604 0.272506 0.272411 0.271341 0.270111 0.270081 0.26875 0.26666 0.266696 0.263961 0.248612 0.230819 0.183281 0.0 0.0 0.0 0.0 0.0 0.0 0.0 0.0 0.0 0.0 0.0 0.0 0.0 0.0 0.0 0.0 0.0 0.0 0.0 0.0 0.0 0.0 0.0 0.0 0.0 0.0 0.0 0.0 0.0 0.0 0.0 0.0 0.0 0.0 0.0 0.0 0.186152 0.271665 0.276923 0.277246 0.280049 0.282531 0.286508 0.290165 0.293006 0.297897 0.300815 0.305234 0.308948 0.313282 0.316356 0.321548 0.325091 0.33098 0.337441 0.340307 0.34814 0.350201 0.357795 0.36424 0.369421 0.37602 0.382809 0.38794 0.395842 0.402422 0.411727 0.417684 0.424059 0.432606 0.438413 0.447755 0.457585 0.468246 0.475309 0.484621 0.48616 0.491766 0.489796 0.494357 0.496132 0.499759 0.501164 0.502122 0.504304 0.506675 0.506689 0.508509
0.302147 0.298869 0.297415 0.295971 0.291719 0.293675 0.292316 0.292201 0.287555 0.286619 0.286474 0.283937 0.282973 0.282073 0.280738 0.280299 0.279369 0.278614 0.276542 0.275363 0.275957 0.272594 0.272653 0.271784 0.269279 0.26684 0.267039 0.266042 0.264561 0.264017 0.264297 0.262949 0.261501 0.262507 0.26102 0.260734 0.260617 0.257962 0.257156 0.254843 0.255347 0.253698 0.254429 0.255488 0.253965 0.253795 0.253362 0.252665 0.252833 0.252094 0.252272 0.250846 0.249962 0.250155 0.249817 0.249162 0.248245 0.246905 0.247067 0.246165 0.245908 0.244107 0.244766 0.244202 0.244494 0.243671 0.244238 0.244329 0.243517 0.243242 0.243343 0.243182 0.243343 0.244944 0.247451 0.251983 0.257792 0.261795 0.26394 0.265131 0.262073 0.256574 0.245235 0.206854 0.169438 0.0 0.0 0.0 0.0 0.0 0.0 0.0 0.0 0.0 0.0 0.0 0.0 0.0 0.0 0.0 0.0 0.0 0.0 0.0 0.0 0.0 0.0 0.0 0.0 0.0 0.0 0.0 0.0 0.0 0.0 0.0 0.0 0.0 0.0 0.0 0.0 0.0 0.0 0.0 0.134453 0.266475 0.27 0.273428 0.273534 0.276064 0.279571 0.283464 0.285807 0.291175 0.295048 0.297151 0.304394 0.30733 0.31017 0.314428 0.318267 0.323258 0.328482 0.336221 0.336914 0.344091 0.34982 0.354695 0.36079 0.367997 0.374627 0.379802 0.387299 0.39334 0.401987 0.407802 0.417221 0.421655 0.427986 0.438767 0.450914 0.456894 0.464289 0.47227 0.471933 0.47456 0.475977 0.481377 0.482771 0.483842 0.488016 0.489567 0.487133 0.491866 0.48984 0.493986
0.291037 0.29 0.289467 0.286626 0.284955 0.2828 0.283618 0.280497 0.279086 0.278504 0.277002 0.275238 0.273757 0.271688 0.271962 0.269481 0.270958 0.268821 0.266695 0.266412 0.265973 0.265704 0.263402 0.263041 0.26076 0.26004 0.260129 0.258197 0.256755 0.254788 0.255225 0.254339 0.254256 0.253755 0.252625 0.251291 0.25044 0.249015 0.248443 0.247824 0.248319 0.247396 0.246268 0.247041 0.24703 0.246393 0.245972 0.245818 0.244464 0.243587 0.244235 0.243421 0.243345 0.241025 0.241638 0.240479 0.23969 0.239376 0.23938 0.237509 0.23773 0.237693 0.236827 0.236121 0.237554 0.236908 0.235901 0.237812 0.236812 0.236441 0.236748 0.237475 0.236334 0.237015 0.236608 0.236775 0.23679 0.236652 0.226033 0.218118 0.181564 0.0 0.0 0.0 0.0 0.0 0.0 0.0 0.0 0.0 0.0 0.0 0.0 0.0 0.0 0.0 0.0 0.0 0.0 0.0 0.0 0.0 0.0 0.0 0.0 0.0 0.0 0.0 0.0 0.0 0.0 0.0 0.0 0.0 0.0 0.0 0.0 0.0 0.0 0.0 0.0 0.0 0.0 0.0 0.0 0.2502 0.264895 0.266825 0.26913 0.269869 0.273868 0.278036 0.279849 0.282249 0.288553 0.29129 0.296778 0.300909 0.302255 0.306568 0.312376 0.317301 0.321605 0.326296 0.329038 0.33615 0.341634 0.346072 0.352711 0.360493 0.365309 0.376077 0.378316 0.385175 0.393079 0.398325 0.406873 0.412705 0.42185 0.432268 0.43986 0.446236 0.452911 0.454351 0.458522 0.460973 0.461098 0.464944 0.466078 0.470071 0.47118 0.473729 0.472721 0.476069 0.476898 0.479452
0.280944 0.280099 0.27953 0.277462 0.277446 0.274434 0.273576 0.27246 0.271512 0.268815 0.265812 0.267285 0.265153 0.263191 0.263145 0.262259 0.259642 0.259986 0.257706 0.257381 0.257115 0.25434 0.252991 0.253795 0.25314 0.251137 0.250915 0.2507 0.248931 0.248678 0.247082 0.24622 0.247023 0.245915 0.244557 0.242948 0.242534 0.241611 0.241261 0.241689 0.239446 0.240554 0.240277 0.239442 0.239279 0.23784 0.237944 0.237848 0.237654 0.235625 0.235492 0.235161 0.233812 0.233643 0.23455 0.233573 0.23362 0.231787 0.231741 0.230376 0.230287 0.23183 0.230121 0.231263 0.230274 0.230254 0.229171 0.229971 0.229961 0.229701 0.230103 0.230559 0.230258 0.230872 0.229817 0.228157 0.216774 0.175967 0.0 0.0 0.0 0.0 0.0 0.0 0.0 0.0 0.0 0.0 0.0 0.0 0.0 0.0 0.0 0.0 0.0 0.0 0.122635 0.117736 0.117192 0.118879 0.0 0.0 0.0 0.0 0.0 0.0 0.0 0.0 0.0 0.0 0.0 0.0 0.0 0.0 0.0 0.0 0.0 0.0 0.0 0.0 0.0 0.0 0.0 0.0 0.0 0.184779 0.257848 0.262389 0.2652 0.265153 0.26757 0.270661 0.274531 0.279182 0.280095 0.28595 0.289144 0.293121 0.297472 0.301526 0.306006 0.309571 0.314027 0.320051 0.324124 0.327539 0.33294 0.340747 0.346914 0.351801 0.358269 0.364551 0.372473 0.377286 0.383898 0.388648 0.39751 0.402884 0.413907 0.422282 0.429002 0.434905 0.439882 0.442182 0.443916 0.447204 0.449235 0.451068 0.453662 0.453177 0.458207 0.459191 0.460402 0.46415 0.462268 0.465185
0.273544 0.270354 0.269752 0.269051 0.265165 0.265999 0.266522 0.265121 0.262014 0.259545 0.259007 0.256716 0.256453 0.254648 0.253987 0.25354 0.252071 0.251434 0.249009 0.248388 0.247008 0.245994 0.245703 0.245367 0.245089 0.243342 0.242875 0.242667 0.244139 0.242474 0.240312 0.239524 0.238743 0.23802 0.237252 0.236794 0.235687 0.234587 0.233394 0.233162 0.233035 0.233113 0.232596 0.231083 0.231877 0.230426 0.23048 0.22939 0.229453 0.228324 0.227997 0.227028 0.227956 0.226896 0.226489 0.226135 0.225586 0.224695 0.223311 0.223123 0.222988 0.223254 0.22392 0.224192 0.224566 0.223458 0.223443 0.224272 0.223917 0.223169 0.224057 0.224552 0.221639 0.21344 0.189087 0.154219 0.0 0.0 0.0 0.0 0.0 0.0 0.0 0.0 0.0 0.0 0.0 0.0 0.0 0.0 0.0 0.0 0.0 0.0 0.111286 0.113961 0.114069 0.11339 0.114242 0.11475 0.0 0.0 0.0 0.0 0.0 0.0 0.0 0.0 0.0 0.0 0.0 0.0 0.0 0.0 0.0 0.0 0.0 0.0 0.0 0.0 0.0 0.0 0.0 0.0 0.0 0.127547 0.251293 0.25542 0.260006 0.260559 0.261068 0.26588 0.268154 0.271837 0.27573 0.279836 0.284605 0.286175 0.290717 0.294167 0.299238 0.302663 0.30852 0.311619 0.316549 0.320989 0.326255 0.332247 0.338765 0.345813 0.347905 0.355349 0.363072 0.367814 0.374208 0.379144 0.387425 0.396708 0.407356 0.413986 0.418278 0.42434 0.425069 0.425757 0.429144 0.432395 0.433125 0.434229 0.439453 0.440224 0.442466 0.442165 0.446736 0.44981 0.444821 0.453227
0.264485 0.261227 0.259825 0.258637 0.258171 0.25542 0.255072 0.25407 0.251658 0.251029 0.250609 0.248581 0.248177 0.24642 0.247387 0.244294 0.245372 0.243201 0.24289 0.24029 0.239297 0.238162 0.239323 0.236712 0.236743 0.236679 0.236077 0.236025 0.235732 0.234014 0.234277 0.232919 0.231569 0.23062 0.22958 0.227565 0.227177 0.226795 0.225732 0.22634 0.223432 0.224978 0.224671 0.224418 0.224171 0.224805 0.223836 0.222872 0.222401 0.22242 0.220888 0.22048 0.220318 0.219239 0.2202 0.218258 0.218016 0.217584 0.217108 0.217458 0.217376 0.217345 0.217947 0.217537 0.218675 0.217692 0.218644 0.217668 0.21766 0.215967 0.207626 0.183724 0.153956 0.0 0.0 0.0 0.0 0.0 0.0 0.0 0.0 0.0 0.0 0.0 0.0 0.0 0.0 0.0 0.0 0.0 0.0 0.0 0.0 0.0 0.0 0.11117 0.110169 0.110468 0.110384 0.110639 0.0 0.0 0.0 0.0 0.0 0.0 0.0 0.0 0.0 0.0 0.0 0.0 0.0 0.0 0.0 0.0 0.0 0.0 0.0 0.0 0.0 0.0 0.0 0.0 0.0 0.0 0.23893 0.248633 0.253538 0.254027 0.256031 0.258919 0.261815 0.265111 0.268806 0.274271 0.277355 0.280351 0.283798 0.288138 0.291217 0.296516 0.300651 0.30598 0.310735 0.314768 0.319406 0.326824 0.330708 0.337574 0.341147 0.348599 0.353943 0.358712 0.365935 0.372637 0.378217 0.388709 0.39439 0.401446 0.404472 0.408819 0.412534 0.413353 0.414384 0.41578 0.419613 0.423112 0.424605 0.425401 0.428646 0.430282 0.430147 0.431143 0.431844 0.436446
0.25475 0.251083 0.252064 0.249268 0.248769 0.245847 0.245711 0.245184 0.243234 0.242575 0.242219 0.240493 0.23917 0.237513 0.238214 0.236916 0.236456 0.234492 0.234242 0.233754 0.232303 0.230618 0.228894 0.231146 0.22847 0.230535 0.229901 0.227348 0.225431 0.226454 0.224936 0.222706 0.222499 0.222201 0.220713 0.219997 0.217807 0.218202 0.217934 0.217432 0.217221 0.217158 0.215769 0.216714 0.216522 0.216335 0.216295 0.215738 0.216369 0.215348 0.213953 0.213415 0.213164 0.21169 0.212156 0.212059 0.211353 0.212159 0.21033 0.211944 0.211865 0.21193 0.211622 0.212635 0.210923 0.210766 0.207604 0.198903 0.170713 0.141835 0.0 0.0 0.0 0.0 0.0 0.0 0.0 0.0 0.0 0.0 0.0 0.0 0.0 0.0 0.0 0.115619 0.11271 0.110646 0.0 0.0 0.0 0.0 0.0 0.0 0.0 0.107581 0.108388 0.107461 0.106582 0.107626 0.110549 0.0 0.0 0.0 0.0 0.0 0.0 0.0 0.0 0.0 0.0 0.0 0.0 0.0 0.0 0.0 0.0 0.0 0.0 0.0 0.0 0.0 0.0 0.0 0.0 0.0 0.19099 0.24386 0.246128 0.247456 0.249216 0.252217 0.255084 0.25986 0.263792 0.265071 0.270975 0.273559 0.276248 0.281618 0.285476 0.289823 0.295046 0.298178 0.302856 0.306445 0.312785 0.318568 0.322542 0.329083 0.334151 0.338514 0.346518 0.351694 0.355389 0.36356 0.374914 0.37853 0.384888 0.3883 0.393242 0.394543 0.396492 0.39919 0.399208 0.404636 0.405908 0.407292 0.411844 0.413357 0.415081 0.415232 0.418866 0.419985 0.419273 0.419863
0.244791 0.244189 0.24243 0.241843 0.241021 0.239096 0.238868 0.235904 0.235691 0.23299 0.233366 0.231787 0.231362 0.230992 0.229485 0.228654 0.226405 0.226112 0.225777 0.224313 0.223661 0.224148 0.222661 0.221699 0.222062 0.2221 0.22083 0.220317 0.218313 0.217206 0.215172 0.214874 0.214256 0.213177 0.212943 0.211737 0.211793 0.211621 0.211547 0.210643 0.210533 0.208853 0.208752 0.208518 0.208519 0.208155 0.20821 0.20767 0.20755 0.207433 0.207413 0.207581 0.207476 0.205352 0.205623 0.205301 0.206313 0.205309 0.206144 0.204781 0.206218 0.204587 0.203693 0.199872 0.186856 0.145707 0.0 0.0 0.0 0.0 0.0 0.0 0.0 0.0 0.0 0.0 0.0 0.0 0.0 0.0 0.0 0.0 0.0 0.107672 0.106024 0.106111 0.105287 0.10606 0.0 0.0 0.0 0.0 0.0 0.0 0.0 0.103579 0.104591 0.104647 0.106895 0.109373 0.10957 0.0 0.0 0.111038 0.106124 0.104683 0.105162 0.0 0.0 0.0 0.0 0.0 0.0 0.0 0.0 0.0 0.0 0.0 0.0 0.0 0.0 0.0 0.0 0.0 0.0 0.0 0.124297 0.23735 0.240063 0.241539 0.245051 0.247695 0.250532 0.253054 0.25688 0.259744 0.265258 0.268375 0.269786 0.273852 0.278069 0.282206 0.288591 0.290242 0.295678 0.300385 0.3045 0.310033 0.315912 0.319842 0.325241 0.331411 0.337696 0.344003 0.345715 0.358477 0.364477 0.368609 0.373801 0.379252 0.380739 0.382477 0.383609 0.387088 0.387007 0.389084 0.393712 0.394577 0.396508 0.399607 0.400509 0.401374 0.401525 0.405167 0.402094 0.4062
0.236437 0.235996 0.233393 0.232778 0.232781 0.231288 0.22971 0.2273 0.22747 0.225359 0.224285 0.223682 0.222623 0.222498 0.220991 0.221572 0.220172 0.218735 0.217076 0.216852 0.216772 0.216468 0.216444 0.216426 0.214126 0.212888 0.211702 0.209567 0.210128 0.208009 0.207807 0.205704 0.204743 0.205148 0.204833 0.204658 0.204805 0.204369 0.204886 0.204144 0.202145 0.20191 0.201814 0.201633 0.201591 0.200879 0.200621 0.20086 0.20079 0.200588 0.200884 0.200779 0.200187 0.200001 0.200086 0.200042 0.200491 0.199248 0.198856 0.197888 0.194606 0.175106 0.144663 0.0 0.0 0.0 0.0 0.0 0.0 0.0 0.0 0.0 0.0 0.0 0.0 0.0 0.0 0.0 0.0 0.0 0.0 0.0 0.0 0.103269 0.102465 0.103127 0.102147 0.10392 0.0 0.0 0.0 0.0 0.0 0.0 0.0 0.102705 0.106353 0.0 0.0 0.0 0.0 0.0 0.101458 0.101475 0.10096 0.100802 0.102023 0.104447 0.0 0.0 0.0 0.0 0.0 0.0 0.0 0.0 0.0 0.0 0.0 0.0 0.0 0.0 0.0 0.0 0.0 0.0 0.0 0.226595 0.234609 0.237973 0.238786 0.241851 0.243486 0.246118 0.249478 0.254828 0.258119 0.260203 0.263739 0.266744 0.271161 0.276089 0.280623 0.282272 0.287423 0.292362 0.296044 0.301697 0.307413 0.312874 0.317715 0.322573 0.329096 0.333261 0.343537 0.349303 0.354265 0.358144 0.360751 0.364849 0.36555 0.369266 0.370085 0.37337 0.374213 0.375021 0.378725 0.379232 0.382876 0.38481 0.3876 0.389891 0.389286 0.391085 0.391153 0.394581
0.227727 0.226431 0.225784 0.224274 0.22387 0.223516 0.22103 0.219646 0.21886 0.218218 0.216949 0.215779 0.216015 0.213733 0.213351 0.214323 0.21135 0.210585 0.210945 0.210683 0.210383 0.209687 0.208553 0.206314 0.20484 0.202842 0.202493 0.201131 0.200839 0.199225 0.200137 0.199022 0.199325 0.199147 0.199017 0.198321 0.198641 0.198043 0.196924 0.196512 0.196324 0.195177 0.19443 0.194824 0.194042 0.193527 0.193234 0.193556 0.193882 0.1936 0.193454 0.192876 0.193215 0.194209 0.193728 0.192904 0.19191 0.186279 0.169901 0.137326 0.0 0.0 0.0 0.0 0.0 0.0 0.0 0.0 0.0 0.0 0.0 0.0 0.0 0.0 0.0 0.0 0.0 0.0 0.0 0.0 0.0 0.0 0.0 0.0990391 0.100069 0.100108 0.100321 0.100923 0.102044 0.0 0.0 0.0 0.0 0.0 0.0 0.0 0.0 0.0 0.0 0.0 0.0 0.0 0.0974492 0.0989336 0.0980874 0.0980629 0.0992063 0.0991414 0.0 0.0 0.0 0.0 0.0 0.0 0.0 0.0 0.0 0.0 0.0 0.0 0.0 0.0 0.0 0.0 0.0 0.0 0.0 0.189748 0.227883 0.232241 0.232988 0.236271 0.23655 0.239893 0.245169 0.247744 0.250722 0.252877 0.257628 0.261163 0.264402 0.26941 0.273289 0.278149 0.282142 0.284473 0.290568 0.295266 0.301176 0.305952 0.309815 0.314315 0.320075 0.3255 0.33375 0.340155 0.342878 0.348387 0.349489 0.353692 0.354326 0.355195 0.356389 0.360026 0.362825 0.361892 0.364899 0.365612 0.368876 0.372158 0.372636 0.373307 0.37458 0.378104 0.376153 0.37966
0.219372 0.219185 0.216957 0.215806 0.215904 0.214944 0.214522 0.212384 0.211447 0.210078 0.208322 0.208111 0.206196 0.205561 0.205761 0.20505 0.205086 0.204431 0.203782 0.203704 0.202028 0.200792 0.196668 0.19584 0.195278 0.195196 0.194946 0.193626 0.193173 0.194356 0.193312 0.193302 0.193083 0.193083 0.19283 0.192326 0.191742 0.191504 0.190887 0.189893 0.189711 0.188855 0.187366 0.187199 0.186866 0.186791 0.187568 0.186103 0.188071 0.187545 0.187953 0.18773 0.184091 0.122135 0.177297 0.152468 0.126905 0.0 0.0 0.0 0.0 0.0 0.0 0.0 0.0 0.0 0.0 0.0 0.0 0.0 0.0 0.0 0.0 0.102924 0.0990073 0.0999564 0.101032 0.0 0.0 0.0 0.0 0.0 0.0 0.0935072 0.0974403 0.0978554 0.0978107 0.0983116 0.0991906 0.0 0.0 0.0 0.0 0.100251 0.099042 0.0 0.0 0.0 0.0 0.0 0.0 0.0 0.093469 0.0952878 0.0958918 0.0962456 0.0963489 0.0962436 0.0 0.0 0.0 0.0 0.0 0.0 0.0 0.0 0.0 0.0 0.0 0.0 0.0 0.0 0.0 0.0 0.0 0.0 0.0 0.126299 0.221345 0.225448 0.22685 0.230674 0.230987 0.233978 0.23545 0.240667 0.243558 0.247054 0.25056 0.253608 0.257946 0.261913 0.264867 0.270311 0.274659 0.277864 0.282067 0.286757 0.292537 0.297217 0.301483 0.306713 0.310927 0.319821 0.324116 0.330074 0.332978 0.336937 0.338568 0.34082 0.340256 0.342314 0.344561 0.345816 0.346995 0.350333 0.351757 0.35227 0.354157 0.358615 0.359119 0.361579 0.362104 0.364014 0.363804 0.363778
0.210094 0.209702 0.208581 0.20807 0.206104 0.20681 0.204688 0.204118 0.204025 0.202101 0.200613 0.200198 0.198896 0.199555 0.198563 0.197706 0.197617 0.19711 0.196567 0.195104 0.192304 0.190397 0.189589 0.188956 0.188664 0.188251 0.188303 0.187775 0.188712 0.187153 0.187931 0.187673 0.18663 0.186714 0.186305 0.184492 0.184466 0.183493 0.183434 0.183008 0.183329 0.182046 0.182004 0.180607 0.180573 0.179844 0.179818 0.180576 0.180475 0.180377 0.180734 0.17601 0.163797 0.0 0.0 0.0 0.0 0.0 0.0 0.0 0.0 0.0 0.0 0.0 0.0 0.0 0.0 0.0 0.0 0.0 0.0 0.0922996 0.0955387 0.095766 0.095384 0.0957356 0.096251 0.0 0.0 0.0 0.0 0.0 0.0 0.0 0.096345 0.0969103 0.0982084 0.0 0.0 0.0 0.0938585 0.093617 0.0936205 0.093381 0.0939557 0.0970117 0.0 0.0 0.0 0.0 0.0 0.0 0.0 0.0924255 0.092808 0.093436 0.0948798 0.0966106 0.0 0.0 0.0 0.0 0.0 0.0 0.0 0.0 0.0 0.0 0.0 0.0 0.0 0.0 0.0 0.0 0.0 0.0 0.0 0.0 0.212638 0.219575 0.222209 0.222835 0.224042 0.227273 0.231048 0.233637 0.237968 0.240782 0.244184 0.247885 0.250729 0.254452 0.256861 0.262391 0.265986 0.269759 0.273794 0.278926 0.28445 0.288197 0.29292 0.298579 0.306433 0.310457 0.314372 0.320151 0.321747 0.32327 0.326491 0.326816 0.327952 0.330453 0.331019 0.333334 0.334984 0.337113 0.339981 0.341841 0.34209 0.342861 0.345656 0.347994 0.349573 0.349615 0.349879 0.349934
0.202675 0.202212 0.199455 0.199925 0.199231 0.197377 0.197445 0.196148 0.196309 0.194736 0.19437 0.192401 0.191595 0.191907 0.190784 0.191597 0.19106 0.189466 0.187798 0.185037 0.184652 0.183661 0.183246 0.182228 0.181946 0.182439 0.181964 0.181697 0.181717 0.18049 0.180238 0.180111 0.178821 0.179026 0.177868 0.178001 0.177656 0.177797 0.17726 0.177129 0.175681 0.175398 0.17508 0.175124 0.174933 0.17343 0.173007 0.167452 0.167319 0.155295 0.126788 0.0 0.0 0.0 0.0 0.0 0.0 0.0 0.0 0.0 0.0 0.0 0.0 0.0 0.0 0.0 0.0 0.0 0.0 0.0 0.0 0.0 0.0925478 0.0919793 0.093069 0.0928971 0.0931998 0.0 0.0 0.0 0.0 0.0 0.0 0.0 0.0 0.0 0.0 0.0 0.0 0.0 0.0890682 0.0910017 0.0908079 0.0912458 0.0914482 0.0915728 0.0 0.0 0.0 0.0 0.0 0.0 0.0 0.0917789 0.0920709 0.0 0.0 0.0 0.0 0.0 0.0 0.0 0.0 0.0 0.0 0.0 0.0 0.0 0.0 0.0 0.0 0.0 0.0 0.0 0.0 0.0 0.0 0.0 0.192451 0.213303 0.216931 0.2171 0.219267 0.221561 0.224262 0.227331 0.230689 0.233496 0.236432 0.240139 0.244298 0.247025 0.250805 0.255724 0.258001 0.261375 0.266173 0.272278 0.275613 0.279931 0.283011 0.291128 0.297241 0.300694 0.304284 0.307116 0.310655 0.312782 0.314472 0.31556 0.316659 0.317973 0.318518 0.32158 0.323011 0.324082 0.324339 0.328945 0.329762 0.330381 0.332422 0.332146 0.333043 0.336579 0.334365 0.34111
0.193987 0.192205 0.19108 0.190973 0.190506 0.189441 0.187981 0.187654 0.187372 0.186655 0.186264 0.185838 0.1847 0.184924 0.183281 0.18284 0.182562 0.180031 0.178224 0.177175 0.177516 0.17644 0.17671 0.176119 0.176358 0.175816 0.175946 0.174317 0.174965 0.173387 0.17334 0.172322 0.172284 0.171899 0.171948 0.171377 0.171084 0.170057 0.170238 0.16926 0.170146 0.168982 0.169758 0.168797 0.167724 0.166116 0.156485 0.0 0.0 0.0 0.0 0.0 0.0 0.0 0.0 0.0 0.0 0.0 0.0 0.0 0.0 0.0 0.0 0.0 0.0957811 0.0 0.0 0.0 0.0 0.0 0.0 0.0 0.0897184 0.0897029 0.0896503 0.0896369 0.0903122 0.0 0.0 0.0 0.0 0.0 0.0 0.0927353 0.0 0.0 0.0 0.0 0.0 0.0 0.0 0.0876876 0.0878817 0.0878476 0.087509 0.0888132 0.0 0.0 0.0 0.0 0.0 0.0 0.0 0.0 0.0 0.0 0.0 0.0 0.0 0.0 0.0 0.0 0.0 0.0 0.0 0.0 0.0 0.0 0.0 0.0 0.0 0.0 0.0 0.0 0.0 0.0 0.0 0.0 0.138447 0.206087 0.209446 0.212195 0.213251 0.215009 0.218204 0.221292 0.223343 0.226409 0.229756 0.234394 0.236947 0.240169 0.243169 0.247036 0.250136 0.257031 0.259845 0.263686 0.26801 0.271448 0.276194 0.283389 0.287698 0.293912 0.292429 0.295957 0.299381 0.300568 0.300856 0.303687 0.304232 0.306255 0.307137 0.308308 0.311483 0.313635 0.312043 0.314377 0.316405 0.316638 0.321143 0.321116 0.322104 0.324517 0.322774 0.323993
0.187188 0.185779 0.184691 0.183923 0.182263 0.181548 0.181034 0.180641 0.180448 0.178981 0.178838 0.17839 0.177831 0.176508 0.175885 0.174615 0.172508 0.171752 0.170772 0.170793 0.17078 0.169855 0.170118 0.169472 0.169819 0.170093 0.168778 0.168417 0.167833 0.167331 0.165926 0.166113 0.165248 0.165029 0.164324 0.164076 0.163794 0.163892 0.163918 0.164286 0.163831 0.164055 0.162448 0.160959 0.127176 0.109054 0.0 0.0 0.0 0.0 0.0 0.0 0.0 0.0 0.0 0.0 0.0 0.0 0.0 0.0 0.0 0.0933923 0.0898775 0.0883677 0.0889353 0.0910226 0.0 0.0 0.0 0.0 0.0 0.0 0.0852228 0.0867615 0.0873764 0.0874374 0.0895326 0.0 0.0 0.0909804 0.0879052 0.0870483 0.0865989 0.0867785 0.0 0.0 0.0 0.0 0.0 0.0 0.0 0.0854776 0.085259 0.0850044 0.0850831 0.0860864 0.0 0.0 0.0 0.0 0.0 0.0876568 0.0867451 0.0 0.0 0.0 0.0 0.0 0.0 0.0 0.0 0.0 0.0 0.0 0.0 0.0 0.0 0.0 0.0 0.0 0.0 0.0 0.0 0.0 0.0 0.0 0.0 0.0 0.0930815 0.197608 0.203469 0.205156 0.20614 0.208476 0.210818 0.214254 0.218224 0.220178 0.223154 0.226589 0.229245 0.231422 0.235904 0.240586 0.244755 0.245954 0.252073 0.255146 0.257852 0.264624 0.27187 0.274241 0.276699 0.279663 0.28447 0.285709 0.287417 0.2886 0.29075 0.289616 0.291826 0.293586 0.294589 0.297143 0.297859 0.300168 0.301213 0.302385 0.302947 0.303555 0.306663 0.307682 0.309024 0.310571 0.308919 0.31272
0.179939 0.178199 0.176658 0.175957 0.175526 0.174949 0.174829 0.173437 0.172652 0.172885 0.171774 0.170933 0.170134 0.169008 0.168743 0.166069 0.164927 0.16431 0.165216 0.164571 0.164449 0.163926 0.163592 0.163373 0.163158 0.161921 0.162596 0.160746 0.160588 0.160469 0.159515 0.158932 0.15941 0.158689 0.158046 0.157262 0.158481 0.157051 0.157804 0.158305 0.157324 0.153198 0.133018 0.107156 0.0 0.0 0.0 0.0 0.0 0.0 0.0 0.0 0.0 0.0 0.0 0.0 0.0 0.0 0.0 0.0 0.0 0.0852133 0.0852942 0.0853404 0.0854236 0.0865464 0.0 0.0 0.0 0.0 0.0 0.0 0.0 0.0868643 0.0 0.0 0.0 0.0 0.0 0.0836896 0.0836106 0.0833183 0.0833839 0.0840219 0.0 0.0 0.0 0.0 0.0 0.0 0.0 0.0818719 0.0839457 0.0846994 0.0 0.0 0.0 0.0 0.083732 0.0819906 0.0821077 0.0820471 0.0827022 0.0 0.0 0.0 0.0 0.0 0.0 0.0 0.0 0.0 0.0 0.0 0.0 0.0 0.0 0.0 0.0 0.0 0.0 0.0 0.0 0.0 0.0 0.0 0.0 0.0 0.0 0.184749 0.196724 0.199076 0.201291 0.203115 0.205234 0.208664 0.210943 0.212831 0.217375 0.21957 0.222064 0.225112 0.23028 0.232695 0.237378 0.24058 0.243501 0.248224 0.248974 0.25819 0.262043 0.265139 0.267256 0.270194 0.273144 0.27386 0.27676 0.277163 0.278276 0.278361 0.280901 0.282266 0.283456 0.282533 0.285492 0.285965 0.28895 0.290265 0.291892 0.291126 0.29375 0.296237 0.296965 0.297815 0.297387 0.298556
0.171922 0.170649 0.169602 0.168745 0.168258 0.166831 0.16719 0.165813 0.165166 0.164707 0.164108 0.164055 0.163251 0.162021 0.160044 0.158543 0.158696 0.158388 0.159049 0.157964 0.157706 0.157594 0.157095 0.157027 0.156325 0.15623 0.15529 0.155133 0.154204 0.153421 0.153171 0.152574 0.152158 0.151851 0.150915 0.151389 0.150778 0.151258 0.149078 0.134133 0.106447 0.0 0.0 0.0 0.0 0.0 0.0 0.0 0.0 0.0 0.0 0.0 0.0 0.0 0.0 0.0 0.0 0.0 0.0 0.0 0.0 0.0823019 0.0826224 0.0822867 0.0826785 0.0825527 0.0 0.0 0.0 0.0 0.0 0.0 0.0 0.0 0.0 0.0 0.0 0.0 0.0 0.0794543 0.0803438 0.0803375 0.0804355 0.0812582 0.0 0.0 0.0 0.0 0.0 0.0 0.0 0.0 0.0 0.0 0.0 0.0 0.0 0.0 0.0785639 0.0791933 0.0791338 0.0786611 0.0795004 0.0 0.0 0.0 0.0 0.0 0.0 0.0 0.0 0.0 0.0 0.0 0.0 0.0 0.0 0.0 0.0 0.0 0.0 0.0 0.0 0.0 0.0 0.0 0.0 0.0 0.0 0.135253 0.189634 0.192009 0.194948 0.196045 0.198125 0.200003 0.20353 0.205317 0.209772 0.212556 0.215243 0.219133 0.222472 0.225751 0.229322 0.233011 0.235301 0.239295 0.243549 0.248984 0.253798 0.255512 0.257767 0.260743 0.26128 0.262999 0.263624 0.264827 0.266826 0.267191 0.268781 0.270704 0.271059 0.271602 0.272729 0.275774 0.276959 0.276527 0.278923 0.28039 0.280743 0.284047 0.282817 0.286366 0.283504 0.284919
0.163901 0.163206 0.162763 0.162078 0.162031 0.160376 0.160163 0.159221 0.159019 0.158681 0.157547 0.15649 0.155509 0.153148 0.152562 0.1525 0.152476 0.152525 0.152371 0.151533 0.151251 0.150355 0.149945 0.149813 0.148831 0.148708 0.148862 0.148747 0.147954 0.146622 0.14635 0.146081 0.145783 0.145556 0.145197 0.144301 0.135429 0.0 0.0 0.0 0.0 0.0 0.0 0.0 0.0 0.0 0.0 0.0 0.0 0.0 0.0 0.0 0.0 0.0 0.0 0.0 0.0 0.0 0.0 0.0 0.0 0.0766881 0.0788664 0.0793436 0.0792882 0.0808672 0.0818132 0.0 0.0 0.0 0.0822075 0.0804942 0.0 0.0 0.0 0.0 0.0 0.0 0.0 0.0762824 0.0774061 0.0777659 0.0776609 0.0777562 0.0791155 0.0 0.0 0.0 0.0 0.0 0.0 0.0 0.0 0.0 0.0 0.0 0.0 0.0 0.0755567 0.0757644 0.0762058 0.0759162 0.0763261 0.0773027 0.0 0.0 0.0 0.0 0.0 0.0 0.0 0.0 0.0 0.0 0.0 0.0 0.0 0.0 0.0 0.0 0.0 0.0 0.0 0.0 0.0 0.0 0.0 0.0 0.0 0.0875098 0.16185 0.17693 0.186148 0.189592 0.191093 0.194485 0.197752 0.200048 0.202217 0.204833 0.207254 0.212154 0.214865 0.217822 0.221401 0.222342 0.22679 0.231116 0.237702 0.24083 0.243732 0.245792 0.247862 0.249053 0.251828 0.251495 0.252781 0.253629 0.255484 0.255868 0.257708 0.25835 0.259796 0.260559 0.262579 0.263325 0.265854 0.264321 0.266452 0.269085 0.268408 0.270819 0.271453 0.272693 0.271371 0.274671
0.156468 0.156515 0.154394 0.154687 0.153292 0.153052 0.152817 0.152383 0.151081 0.151799 0.149503 0.147853 0.147548 0.146446 0.146184 0.145559 0.145771 0.145455 0.145309 0.145166 0.144102 0.144365 0.144202 0.14345 0.143263 0.141764 0.141618 0.141444 0.14124 0.140582 0.140746 0.139769 0.139646 0.139299 0.137846 0.1378 0.0 0.0 0.0 0.0 0.0 0.0 0.0 0.0 0.0 0.0 0.0 0.0 0.0 0.0 0.0 0.0 0.0 0.0 0.0 0.0 0.0 0.0 0.0 0.0 0.0 0.073846 0.0777106 0.0790049 0.0777309 0.0 0.0 0.0762611 0.0764044 0.0754262 0.0760524 0.0754932 0.0766018 0.0 0.0 0.0 0.0 0.0 0.0 0.0 0.0746041 0.0749506 0.0755218 0.07667 0.078203 0.0 0.0 0.0776848 0.0741634 0.0745798 0.0745489 0.0 0.0 0.0 0.0 0.0 0.0 0.0 0.071446 0.073087 0.0734799 0.0734573 0.073916 0.0747603 0.0 0.0 0.0 0.0 0.0 0.0786316 0.0 0.0 0.0 0.0 0.0 0.0 0.0 0.0 0.0 0.0 0.0 0.0 0.0 0.0 0.0 0.0 0.0 0.0 0.0 0.0 0.132139 0.137359 0.144142 0.15897 0.176089 0.187264 0.190279 0.192619 0.194512 0.198233 0.200792 0.203621 0.20711 0.209631 0.213075 0.215843 0.218851 0.226585 0.22857 0.230629 0.234111 0.235534 0.236866 0.239328 0.240415 0.240983 0.241822 0.242306 0.244386 0.24472 0.246389 0.24717 0.248426 0.249591 0.251133 0.251815 0.252338 0.25411 0.254616 0.257315 0.256559 0.258269 0.259349 0.259252 0.260042 0.261452
0.150194 0.14815 0.147875 0.147507 0.14737 0.146296 0.146881 0.146271 0.14489 0.143936 0.141314 0.140568 0.140277 0.140888 0.140411 0.139908 0.13992 0.138755 0.13868 0.138513 0.136952 0.137747 0.138036 0.136997 0.136502 0.136232 0.135493 0.135389 0.134501 0.134405 0.133715 0.133752 0.132756 0.133741 0.131467 0.131769 0.100956 0.0 0.0 0.0 0.0 0.0 0.0 0.0 0.0 0.0 0.0 0.0 0.0 0.0 0.0 0.0 0.0 0.0 0.0 0.0 0.0 0.0 0.0 0.0 0.0 0.0 0.0 0.0 0.0 0.0 0.0 0.0713864 0.0722958 0.0730516 0.0724514 0.0733936 0.0735658 0.0 0.0 0.0 0.0 0.0 0.0 0.0 0.0735854 0.0 0.0 0.0 0.0 0.0 0.0707929 0.0711303 0.07153 0.0710378 0.0716544 0.0739338 0.0 0.0 0.0 0.0 0.0 0.0 0.0 0.0705254 0.0707184 0.072514 0.0 0.0 0.0 0.0 0.0733427 0.0706435 0.0700413 0.0706428 0.0716465 0.0 0.0 0.0 0.0 0.0 0.0 0.0 0.0 0.0 0.0 0.0 0.0 0.0 0.0 0.0 0.0 0.0 0.0 0.0 0.120087 0.126471 0.126669 0.126777 0.130129 0.139226 0.160198 0.178703 0.186518 0.19194 0.1934 0.197434 0.199159 0.201833 0.205584 0.207365 0.213999 0.217407 0.219881 0.222366 0.223818 0.226353 0.227824 0.228162 0.229617 0.230065 0.230488 0.231427 0.233233 0.234381 0.235504 0.23507 0.236113 0.238576 0.239285 0.239326 0.241853 0.242296 0.243554 0.244951 0.24694 0.247644 0.24764 0.249692 0.248627 0.250632
0.142534 0.14211 0.14191 0.140869 0.139866 0.140364 0.139495 0.139067 0.137 0.134788 0.134749 0.134528 0.134496 0.134683 0.134165 0.133437 0.132623 0.13313 0.132753 0.13183 0.131584 0.131372 0.131407 0.130655 0.130363 0.12959 0.129518 0.129056 0.128659 0.127812 0.127634 0.128184 0.127409 0.126699 0.126143 0.12529 0.115907 0.0 0.0 0.0 0.0 0.0 0.0 0.0 0.0 0.0 0.0 0.0 0.0 0.0 0.0 0.0 0.0 0.0 0.0 0.0 0.0 0.0 0.0 0.0 0.0 0.0 0.0 0.0 0.0 0.0 0.0 0.0 0.0702378 0.070016 0.0701207 0.0696047 0.0701846 0.0 0.0 0.0 0.0 0.0 0.0 0.0 0.0 0.0 0.0 0.0 0.0 0.0 0.0670215 0.0681729 0.0682907 0.0685274 0.0687943 0.0695938 0.0 0.0 0.0 0.0 0.0 0.0 0.0 0.0 0.0 0.0 0.0 0.0 0.0 0.0661695 0.0667143 0.0670528 0.0673922 0.0676734 0.0677778 0.0 0.0 0.0 0.0 0.0 0.0 0.0 0.0 0.0 0.0 0.0 0.0 0.0 0.0 0.0 0.0 0.0 0.0 0.0 0.0959407 0.121412 0.121482 0.12012 0.119925 0.119853 0.12146 0.12577 0.13903 0.161709 0.178386 0.187846 0.191245 0.195649 0.196989 0.201927 0.206485 0.206946 0.21071 0.213124 0.214032 0.216009 0.216416 0.216494 0.217127 0.22002 0.220455 0.221477 0.221956 0.223207 0.22413 0.225244 0.225998 0.226883 0.227776 0.22985 0.229462 0.232545 0.232543 0.233168 0.233209 0.23559 0.236051 0.237174 0.23671 0.239384
0.136403 0.134435 0.135175 0.134299 0.13328 0.133042 0.132331 0.130614 0.128638 0.129132 0.129392 0.128559 0.128529 0.12744 0.127448 0.127193 0.126531 0.126784 0.126512 0.126272 0.125306 0.125162 0.125081 0.12439 0.123792 0.123692 0.123566 0.12269 0.122281 0.121992 0.121881 0.121801 0.121089 0.121016 0.119936 0.11935 0.118826 0.0 0.0 0.0 0.0 0.0 0.0 0.0 0.0 0.0 0.0 0.0 0.0 0.0 0.0 0.0 0.0 0.0 0.0 0.0 0.0 0.0 0.0 0.0 0.0 0.0 0.0 0.0 0.0 0.0 0.0 0.0 0.0657008 0.0668223 0.0664973 0.0665987 0.0678919 0.0 0.0 0.0 0.0 0.0700842 0.0688301 0.0681152 0.0 0.0 0.0 0.0 0.0 0.0 0.0 0.0653125 0.0650855 0.0651707 0.0658514 0.0663627 0.0 0.0 0.0 0.0 0.0 0.0 0.0 0.0 0.0 0.0 0.0 0.0 0.0 0.0 0.0643956 0.0643796 0.0644494 0.0649174 0.0649606 0.0 0.0 0.0 0.0 0.0 0.0 0.0 0.0 0.0 0.0 0.0 0.0 0.0 0.0 0.0 0.0 0.0 0.0 0.0 0.0747253 0.114956 0.115051 0.115091 0.113957 0.114805 0.114421 0.115074 0.115212 0.116533 0.122926 0.138841 0.161965 0.179848 0.189821 0.197357 0.197764 0.201304 0.201724 0.203891 0.204615 0.206741 0.207014 0.207379 0.207634 0.208304 0.210032 0.211565 0.212169 0.212927 0.213662 0.21517 0.215744 0.216679 0.217562 0.21798 0.217398 0.220081 0.221887 0.22284 0.221806 0.223727 0.223567 0.225686 0.22398 0.227197
0.128654 0.12847 0.127429 0.128255 0.127138 0.125969 0.124066 0.122627 0.123013 0.123061 0.122602 0.122316 0.121582 0.121474 0.121313 0.120649 0.120467 0.119475 0.119497 0.119298 0.118628 0.119107 0.11836 0.11759 0.117465 0.117371 0.116613 0.116498 0.116386 0.116332 0.115589 0.115376 0.114752 0.114131 0.113817 0.113782 0.113749 0.0 0.0 0.0 0.0 0.0 0.0 0.0 0.0 0.0 0.0 0.0 0.0 0.0 0.0 0.0 0.0 0.0 0.0 0.0 0.0 0.0 0.0 0.0 0.0 0.0 0.0 0.0 0.0 0.0 0.0 0.0 0.061958 0.0652571 0.0660859 0.0 0.0 0.0 0.0641171 0.0639186 0.0636124 0.0635509 0.063978 0.0643786 0.0 0.0 0.0 0.0 0.0 0.0 0.0 0.0628359 0.0628897 0.063188 0.0636224 0.0648974 0.0 0.0 0.0 0.0653433 0.0632881 0.0625343 0.0632448 0.0 0.0 0.0 0.0 0.0 0.0 0.0 0.0615241 0.0616986 0.0615753 0.0618871 0.0621455 0.0650673 0.0 0.0 0.0 0.0 0.0 0.0 0.0 0.0 0.0 0.0 0.0 0.0 0.0 0.0 0.0 0.0 0.0 0.0 0.0 0.10827 0.109729 0.109438 0.108984 0.109108 0.109125 0.108814 0.109633 0.109712 0.109793 0.110456 0.112005 0.118723 0.131616 0.156067 0.178377 0.189261 0.193293 0.193977 0.195335 0.19556 0.19579 0.196136 0.197186 0.198495 0.199028 0.19982 0.201207 0.202911 0.201983 0.203084 0.203713 0.20638 0.206659 0.207113 0.207262 0.209373 0.20982 0.211012 0.210959 0.212823 0.213068 0.21412 0.212457 0.215272
0.122809 0.121783 0.121694 0.120652 0.119478 0.118175 0.117178 0.116947 0.116856 0.116577 0.116411 0.11541 0.116114 0.115769 0.115723 0.115197 0.114353 0.113996 0.113858 0.113107 0.112628 0.112527 0.112348 0.111721 0.111602 0.111354 0.111374 0.110655 0.110576 0.11034 0.109394 0.10935 0.109336 0.108506 0.108418 0.107911 0.10796 0.0901144 0.0 0.0 0.0 0.0 0.0 0.0 0.0 0.0 0.0 0.0 0.0 0.0 0.0 0.0 0.0 0.0 0.0 0.0 0.0 0.0 0.0 0.0 0.0 0.0 0.0 0.0 0.0 0.0 0.0 0.0 0.0 0.0 0.0 0.0 0.0 0.0 0.0 0.0607674 0.0607081 0.0607789 0.060695 0.0615175 0.0 0.0 0.0 0.0 0.0 0.0 0.0 0.0606657 0.0626056 0.0 0.0 0.0 0.0 0.0580073 0.059097 0.059644 0.0592342 0.0597048 0.0603832 0.0 0.0 0.0 0.0 0.0 0.0 0.0 0.0587657 0.0588544 0.059255 0.0595009 0.0607589 0.062122 0.0 0.0 0.0 0.0 0.0 0.0 0.0 0.0 0.0 0.0 0.0 0.0 0.0 0.0 0.0 0.0 0.0 0.0 0.0 0.0936912 0.10439 0.104033 0.102997 0.103114 0.103182 0.103802 0.102745 0.10408 0.10421 0.103816 0.104634 0.104877 0.104938 0.107166 0.112308 0.132035 0.160246 0.181519 0.185675 0.185596 0.187409 0.18766 0.188023 0.188871 0.189353 0.189893 0.190092 0.19201 0.192275 0.193835 0.193898 0.194504 0.195116 0.195789 0.197009 0.197534 0.198553 0.200557 0.199825 0.200376 0.201396 0.201824 0.201545 0.204203
0.116002 0.11534 0.115127 0.113224 0.111641 0.111468 0.111245 0.110561 0.110655 0.110546 0.109951 0.109719 0.109594 0.109036 0.109123 0.108751 0.10823 0.108044 0.107531 0.106868 0.106693 0.106496 0.106073 0.106237 0.105365 0.105585 0.105024 0.104795 0.104443 0.104396 0.103798 0.103958 0.103442 0.102929 0.102269 0.102389 0.101659 0.0978792 0.0 0.0 0.0 0.0 0.0 0.0 0.0 0.0 0.0 0.0 0.0 0.0 0.0 0.0 0.0 0.0 0.0 0.0 0.0 0.0 0.0 0.0 0.0 0.0 0.0 0.0 0.0 0.0 0.0 0.0614514 0.0 0.0 0.0 0.0 0.0 0.0 0.0 0.0576673 0.0577835 0.0579003 0.0579437 0.058037 0.060325 0.0 0.0 0.0 0.0 0.0 0.0 0.0 0.0 0.0 0.0 0.0 0.0 0.0 0.0566681 0.0562771 0.0565276 0.0567047 0.0570797 0.0 0.0 0.0 0.0 0.0 0.0 0.0 0.0571421 0.0591278 0.0 0.0 0.0 0.0 0.0 0.0 0.0 0.0 0.0 0.0 0.0 0.0 0.0 0.0 0.0 0.0 0.0 0.0 0.0 0.0 0.0 0.0 0.0 0.0718414 0.0985422 0.0985502 0.0980863 0.0978983 0.0975622 0.0978525 0.0983204 0.0983906 0.0984881 0.0985127 0.0989158 0.0986942 0.0996303 0.0992374 0.099425 0.100396 0.10349 0.116058 0.143887 0.165023 0.175294 0.177277 0.177824 0.178706 0.179697 0.179727 0.180373 0.180948 0.181556 0.182936 0.183787 0.183773 0.185561 0.185636 0.186204 0.187191 0.188418 0.187946 0.190197 0.190384 0.190991 0.191683 0.190269 0.192824
0.10992 0.108275 0.107107 0.105575 0.105458 0.105319 0.105084 0.105025 0.104796 0.104546 0.104201 0.103786 0.103717 0.103553 0.103392 0.102043 0.10189 0.101812 0.101664 0.100745 0.100967 0.100394 0.100259 0.100126 0.0996357 0.0998458 0.0990493 0.0985687 0.0982831 0.0982399 0.0977447 0.0979457 0.0973367 0.0972798 0.0969392 0.0966727 0.0955757 0.0955766 0.0 0.0 0.0 0.0 0.0 0.0 0.0 0.0 0.0 0.0 0.0 0.0 0.0 0.0 0.0 0.0 0.0 0.0 0.0 0.0 0.0 0.0 0.0 0.0 0.0 0.0 0.0574286 0.0580015 0.0558515 0.0561911 0.0573057 0.0 0.0 0.0 0.0 0.0 0.0 0.0533487 0.0549828 0.0550001 0.0550883 0.0552004 0.0562736 0.0 0.0 0.0 0.0 0.056212 0.0550864 0.0 0.0 0.0 0.0 0.0 0.0 0.0 0.0535482 0.0536217 0.0536489 0.0537469 0.0536579 0.0558895 0.0 0.0 0.0 0.0 0.0 0.0 0.0 0.0 0.0 0.0 0.0 0.0 0.0 0.0 0.0 0.0 0.0 0.0 0.0 0.0 0.0 0.0 0.0 0.0 0.0 0.0 0.0 0.0 0.0 0.0 0.0 0.0 0.0927163 0.0931258 0.0931584 0.0925051 0.0922563 0.0926029 0.0923815 0.092685 0.0929671 0.0931088 0.0930621 0.0938047 0.0929271 0.0939858 0.09347 0.0942003 0.0942632 0.0940168 0.0956447 0.102108 0.118884 0.144751 0.161444 0.167921 0.169343 0.169611 0.171216 0.172005 0.171635 0.172338 0.172754 0.174273 0.174898 0.17499 0.175234 0.175802 0.177603 0.178331 0.178574 0.179069 0.180062 0.180346 0.180164 0.181201
0.10218 0.100718 0.0998968 0.0997134 0.0995094 0.0992382 0.0990634 0.0988914 0.098699 0.0984863 0.0981606 0.0979077 0.0973341 0.0972495 0.0970061 0.0967197 0.0964595 0.0959035 0.095558 0.095422 0.0948307 0.0945177 0.094619 0.0940834 0.0939161 0.0935692 0.093544 0.0929982 0.0933187 0.0923703 0.0923099 0.0923198 0.0915397 0.0916676 0.0916165 0.0908227 0.0906412 0.0904619 0.0674884 0.0 0.0 0.0 0.0 0.0 0.0 0.0 0.0 0.0 0.0 0.0 0.0 0.0 0.0 0.0 0.0 0.0 0.0 0.0 0.0 0.0 0.0 0.0 0.0 0.0 0.0530912 0.0527889 0.0525541 0.0527427 0.0538882 0.0 0.0 0.0 0.0 0.0 0.0 0.0 0.0527984 0.0539919 0.0536089 0.0 0.0 0.0 0.0526158 0.0520137 0.0514565 0.0512994 0.0522749 0.0 0.0 0.0 0.0 0.0 0.0 0.0 0.0499068 0.0510643 0.0510678 0.0510496 0.0516315 0.0520807 0.0 0.0 0.0 0.0 0.0529366 0.0514114 0.0 0.0 0.0 0.0 0.0 0.0 0.0 0.0 0.0 0.0 0.0 0.0 0.0 0.0 0.0 0.0 0.0 0.0 0.0 0.0 0.0 0.0 0.0 0.0 0.0 0.0 0.0850611 0.0874455 0.0873409 0.0872828 0.0868666 0.0869694 0.0877723 0.0871807 0.0878534 0.0874906 0.0882814 0.088171 0.0884019 0.0883862 0.0886671 0.0882474 0.0883967 0.0890029 0.088748 0.0896562 0.0896794 0.0921009 0.100584 0.121734 0.144286 0.156692 0.16087 0.162397 0.161907 0.162502 0.163588 0.163802 0.164091 0.165311 0.164846 0.166427 0.167318 0.168426 0.169239 0.16945 0.169712 0.170706 0.169946 0.171703
0.0948865 0.0942636 0.0941105 0.0939599 0.0933476 0.0931588 0.0929726 0.0928332 0.0927184 0.0926501 0.0927156 0.092083 0.0914981 0.0912445 0.0907976 0.0908548 0.0899794 0.0899117 0.089196 0.0896105 0.0893124 0.0884121 0.0884442 0.0884139 0.0883642 0.0879511 0.0877774 0.0873915 0.0873302 0.0865638 0.0865933 0.0861968 0.0864017 0.0858819 0.0858986 0.0853626 0.085149 0.0845756 0.0750446 0.0 0.0 0.0 0.0 0.0 0.0 0.0 0.0 0.0 0.0 0.0 0.0 0.0 0.0 0.0 0.0 0.0 0.0 0.0 0.0 0.0 0.0 0.0 0.0 0.0 0.0494497 0.0497111 0.050099 0.0497517 0.0502248 0.0 0.0 0.0 0.0 0.0 0.0 0.0 0.0 0.0 0.0 0.0 0.0 0.0 0.0486469 0.0488122 0.0492716 0.0487665 0.0488073 0.0 0.0 0.0 0.0 0.0 0.0 0.0 0.0 0.0492995 0.0496176 0.0 0.0 0.0 0.0 0.0484874 0.0483676 0.0482693 0.0478565 0.0486832 0.0 0.0 0.0 0.0 0.0 0.0 0.0 0.0 0.0 0.0 0.0 0.0 0.0 0.0 0.0 0.0 0.0 0.0 0.0 0.0 0.0 0.0 0.0 0.0 0.0 0.0 0.0702142 0.0824943 0.0826074 0.0816391 0.0816277 0.0818093 0.0819715 0.0822849 0.0823234 0.0826624 0.0827263 0.0827494 0.08286 0.0829299 0.0824664 0.0830759 0.0832379 0.0835954 0.0836978 0.0838024 0.0840601 0.0847946 0.0848639 0.0852811 0.0881889 0.101457 0.122954 0.141987 0.150095 0.153439 0.153614 0.154776 0.154284 0.155041 0.155454 0.156135 0.15781 0.15813 0.158367 0.158564 0.158721 0.160454 0.159158 0.160926
0.0884198 0.0880859 0.0877759 0.08799 0.0878307 0.0876323 0.0869177 0.0870984 0.0872805 0.0863279 0.0860609 0.0858793 0.0855561 0.0852772 0.0850626 0.0847073 0.0846621 0.0840672 0.0835779 0.0838261 0.0831388 0.0831063 0.0827101 0.0829666 0.0824538 0.0823697 0.0817615 0.0819047 0.0815648 0.0813486 0.0807717 0.081306 0.081036 0.0808488 0.0802014 0.0803401 0.0796978 0.0796397 0.0777397 0.0 0.0 0.0 0.0 0.0 0.0 0.0 0.0 0.0 0.0 0.0 0.0 0.0 0.0 0.0 0.0 0.0 0.0 0.0 0.0 0.0 0.0 0.0 0.0 0.0 0.0466261 0.0472485 0.0470001 0.0469701 0.0474354 0.0 0.0 0.0 0.0 0.0 0.0 0.0 0.0 0.0 0.0 0.0 0.0 0.0 0.045772 0.0460857 0.0458468 0.0461811 0.04618 0.0465546 0.0 0.0 0.0 0.0 0.0 0.0 0.0 0.0 0.0 0.0 0.0 0.0 0.0 0.0445542 0.0449354 0.0450405 0.0452251 0.045252 0.0459322 0.0 0.0 0.0 0.0 0.0 0.0 0.0 0.0 0.0 0.0 0.0 0.0 0.0 0.0 0.0 0.0 0.0 0.0 0.0 0.0 0.0 0.0 0.0 0.0 0.0 0.0540999 0.077761 0.0770679 0.0768755 0.0767444 0.0765747 0.0768472 0.0768009 0.0772378 0.0771148 0.0771943 0.0770946 0.0775199 0.0775851 0.0776926 0.0775598 0.0783378 0.0782496 0.0784668 0.0785039 0.0785837 0.0791122 0.0791561 0.0793444 0.0794537 0.0801363 0.0813532 0.0869695 0.102711 0.122162 0.13787 0.143166 0.144921 0.146169 0.146248 0.145649 0.146542 0.146612 0.148035 0.148696 0.148531 0.149661 0.148021 0.14985
0.0825835 0.0820551 0.0819025 0.081752 0.0816039 0.0814971 0.0809253 0.0808043 0.0810542 0.0807434 0.0800483 0.079821 0.0796542 0.0794898 0.0795589 0.0784378 0.0786081 0.0783005 0.0781871 0.0778465 0.0777379 0.0772116 0.0772223 0.0767968 0.0768118 0.0765055 0.0763727 0.0763558 0.0757722 0.0758354 0.0755597 0.0754564 0.0751662 0.0751613 0.0745736 0.0747987 0.074385 0.0738606 0.0738275 0.0 0.0 0.0 0.0 0.0 0.0 0.0 0.0 0.0 0.0 0.0 0.0 0.0 0.0 0.0 0.0 0.0 0.0 0.0 0.0 0.0 0.0 0.0 0.0 0.0 0.0422544 0.0443806 0.0443519 0.0450293 0.0450201 0.0 0.0 0.0 0.0446917 0.0436648 0.0436217 0.0444321 0.0 0.0 0.0 0.0 0.0 0.0 0.0419026 0.0435498 0.0431403 0.0430092 0.0431379 0.0433782 0.0 0.0 0.0 0.0 0.0 0.0455323 0.0 0.0 0.0 0.0 0.0 0.0 0.0 0.0414825 0.0421368 0.0424394 0.0424641 0.042545 0.0430532 0.0 0.0 0.0 0.0 0.0 0.0 0.0 0.0 0.0 0.0 0.0 0.0 0.0 0.0 0.0 0.0 0.0 0.0 0.0 0.0 0.0 0.0 0.0 0.0 0.0 0.0 0.0717281 0.0720332 0.071721 0.0712597 0.0714755 0.0715052 0.0719314 0.0720022 0.0720935 0.07213 0.0717342 0.0721325 0.0722496 0.0723876 0.0726222 0.0727263 0.0728514 0.0729404 0.0730505 0.0737143 0.0732386 0.0738123 0.0738739 0.0739756 0.0740795 0.0741663 0.074792 0.0750181 0.0780336 0.0861777 0.101629 0.121311 0.1322 0.136272 0.137279 0.136797 0.137173 0.13767 0.137782 0.138385 0.139619 0.138686 0.139342
0.0767619 0.0765806 0.076365 0.0762979 0.076178 0.0758599 0.0755627 0.0752682 0.0750126 0.0752664 0.074708 0.0744959 0.0740519 0.0737549 0.0734427 0.0733126 0.0731668 0.0729695 0.0727388 0.0721352 0.0726236 0.0718113 0.0718395 0.0712825 0.0713505 0.0710117 0.0709237 0.0706604 0.070718 0.0701052 0.0700782 0.07 0.069606 0.0697431 0.0698463 0.0691943 0.069213 0.0684249 0.0684823 0.0566262 0.0 0.0 0.0 0.0 0.0 0.0 0.0 0.0 0.0 0.0 0.0 0.0 0.0 0.0 0.0 0.0 0.0 0.0 0.0 0.0 0.0 0.0 0.0 0.0 0.0 0.0427908 0.0 0.0 0.0 0.0 0.0390203 0.0408509 0.0406712 0.0406132 0.0406942 0.0414339 0.0 0.0 0.0 0.0 0.0 0.0 0.0 0.0402639 0.0407469 0.0411437 0.0416273 0.0 0.0 0.0414536 0.0412464 0.040001 0.0400542 0.0405058 0.041131 0.0 0.0 0.0 0.0 0.0 0.0 0.0 0.0396018 0.0395032 0.039353 0.0397231 0.0398684 0.0 0.0 0.0 0.0 0.0 0.0 0.0 0.0 0.0 0.0 0.0 0.0 0.0 0.0 0.0 0.0 0.0 0.0 0.0 0.0 0.0 0.0 0.0 0.0 0.0 0.0 0.063461 0.0671586 0.0666565 0.0666461 0.0662335 0.06684 0.066465 0.0667765 0.0671252 0.066842 0.067159 0.0669667 0.0672168 0.067098 0.067175 0.067537 0.0675823 0.0678245 0.0681931 0.0677823 0.0683862 0.0679782 0.068587 0.0686815 0.0688136 0.0692697 0.0689945 0.0694554 0.0695243 0.0697749 0.0709099 0.0742842 0.0855556 0.102354 0.119002 0.126223 0.12815 0.128305 0.128518 0.129099 0.129247 0.127917 0.129388
0.0711842 0.0708117 0.070799 0.070703 0.0701174 0.070009 0.0695985 0.0695114 0.0697127 0.0688215 0.0685898 0.0685114 0.0683511 0.0683604 0.0680538 0.0674828 0.0676982 0.0672823 0.067052 0.0668904 0.0666147 0.0664408 0.0663683 0.066033 0.0659313 0.0656006 0.0654369 0.0653245 0.0652634 0.0648258 0.0651132 0.064729 0.0646419 0.0642945 0.0644401 0.0638019 0.0637544 0.0632675 0.0629948 0.059511 0.0 0.0 0.0 0.0 0.0 0.0 0.0 0.0 0.0 0.0 0.0 0.0 0.0 0.0 0.0 0.0 0.0 0.0 0.0 0.0 0.0 0.0 0.0 0.0 0.0 0.0 0.0 0.0 0.0 0.0 0.0 0.0379369 0.0379471 0.0377644 0.0378719 0.0378349 0.0 0.0 0.0 0.0 0.0 0.0 0.0 0.0 0.0 0.0 0.0 0.0 0.0 0.0365991 0.0372753 0.0372278 0.0371002 0.0376165 0.0377631 0.0 0.0 0.0 0.0 0.0 0.0 0.0 0.0367921 0.036942 0.0375755 0.0382418 0.0 0.0 0.0 0.0383986 0.0370362 0.0368348 0.0371984 0.0372238 0.0 0.0 0.0 0.0 0.0 0.0 0.0 0.0 0.0 0.0 0.0 0.0 0.0 0.0 0.0 0.0 0.0 0.0 0.0 0.0503116 0.0619297 0.062 0.0610776 0.0616719 0.0613054 0.0617889 0.0616372 0.0616828 0.0621226 0.0616473 0.0620415 0.0620768 0.0621465 0.0623821 0.0623893 0.0624969 0.0629028 0.0628986 0.0631272 0.0629942 0.0634086 0.0633947 0.0635981 0.0637868 0.0637782 0.064154 0.0641657 0.0643627 0.0644448 0.0646961 0.0652176 0.064803 0.0668072 0.0723337 0.0861303 0.101892 0.114392 0.119488 0.119554 0.119996 0.118385 0.120313
0.0652871 0.0651641 0.0649329 0.0648921 0.0645083 0.0643462 0.0639674 0.0637472 0.0637939 0.0634999 0.0633481 0.0630743 0.0624932 0.06258 0.0621586 0.0620792 0.0620015 0.0621563 0.0614827 0.0615796 0.061034 0.0607362 0.0609147 0.0603763 0.0603595 0.0602832 0.0602086 0.0600138 0.0601098 0.0593565 0.0594861 0.0592075 0.0593701 0.0590343 0.0590029 0.0588369 0.0585365 0.0582831 0.0578202 0.0575853 0.0 0.0 0.0 0.0 0.0 0.0 0.0 0.0 0.0 0.0 0.0 0.0 0.0 0.0 0.0 0.0 0.0 0.0 0.0 0.0 0.0 0.0 0.0 0.0 0.0 0.0 0.0 0.0 0.0 0.0 0.0 0.03488 0.0349639 0.0348695 0.0348945 0.0351729 0.0 0.0 0.0 0.0 0.0 0.0 0.0 0.0 0.0 0.0 0.0 0.0 0.0 0.0331537 0.034165 0.034478 0.0344493 0.0345101 0.0347943 0.0 0.0 0.0 0.0 0.0 0.0 0.0 0.0 0.0 0.0 0.0 0.0 0.0 0.0333036 0.0340551 0.0339878 0.03404 0.0341225 0.0342204 0.0 0.0 0.0 0.0 0.0 0.0 0.0 0.0 0.0 0.0 0.0 0.0 0.0 0.0 0.0 0.0 0.0 0.0 0.0 0.0 0.0571834 0.0568419 0.0568626 0.0563721 0.0570433 0.0564792 0.0569727 0.0569542 0.0567405 0.0568909 0.0568763 0.0567416 0.0571088 0.0571591 0.057606 0.0576444 0.0573949 0.0581067 0.0579974 0.0578893 0.0581952 0.0583043 0.0581853 0.0584817 0.05898 0.0587428 0.0590916 0.0591191 0.0591944 0.0597197 0.0593502 0.0597871 0.0600871 0.060467 0.0609118 0.0633232 0.0714247 0.0855394 0.0997775 0.108778 0.109407 0.110118
0.0596911 0.0594197 0.0593091 0.0592865 0.0588198 0.0586286 0.0585683 0.0580803 0.0579666 0.0578832 0.0577873 0.0574938 0.0572168 0.0568001 0.0567261 0.0563847 0.0565829 0.0562596 0.05615 0.0560985 0.0559922 0.0557331 0.0553636 0.0554591 0.0550654 0.0549959 0.0546901 0.0548333 0.0544612 0.0545233 0.0544195 0.0542476 0.0539103 0.0541167 0.0535605 0.0536723 0.0534801 0.0534556 0.0528786 0.052843 0.0 0.0 0.0 0.0 0.0 0.0 0.0 0.0 0.0 0.0 0.0 0.0 0.0 0.0 0.0 0.0 0.0 0.0 0.0 0.0 0.0 0.0 0.0 0.0 0.0 0.0 0.0 0.0 0.0 0.0 0.0 0.0313752 0.0318212 0.0322128 0.0324543 0.032778 0.0 0.0 0.0 0.0339526 0.03223 0.0319685 0.0324989 0.0 0.0 0.0 0.0 0.0 0.0 0.0 0.0315115 0.0314167 0.0316633 0.0316781 0.0317342 0.0 0.0 0.0 0.0 0.0 0.0 0.0 0.0 0.0 0.0 0.0 0.0 0.0 0.0 0.0311918 0.0311983 0.0311915 0.0309798 0.0313296 0.0 0.0 0.0 0.0 0.0 0.0 0.0 0.0 0.0 0.0 0.0 0.0 0.0 0.0 0.0 0.0 0.0 0.0 0.0 0.0 0.0517704 0.0520366 0.0518757 0.0515497 0.0514596 0.0518414 0.051823 0.0517917 0.0518588 0.0518299 0.0518578 0.0522347 0.0520008 0.0523113 0.0523585 0.0524351 0.0526808 0.0526624 0.0530655 0.0528398 0.0531764 0.0532762 0.053251 0.0535228 0.0536133 0.0536772 0.0535447 0.0540784 0.0540622 0.0541892 0.0543322 0.0543773 0.054894 0.0547859 0.0550216 0.0550734 0.0557141 0.0568889 0.0612013 0.0721346 0.0845024 0.0969839
0.0541398 0.0541956 0.0536089 0.0534318 0.0534789 0.0531089 0.0526891 0.0527148 0.0522214 0.0521463 0.0519171 0.0518452 0.0516714 0.0515123 0.0514452 0.0509156 0.0511739 0.0507514 0.0505881 0.0505932 0.0503946 0.0502873 0.0500026 0.0501794 0.0498597 0.0498987 0.0496587 0.0495604 0.0493364 0.0494948 0.0488297 0.0491174 0.0488106 0.0490875 0.0487456 0.0487338 0.0481929 0.0484233 0.0478225 0.0475511 0.0431899 0.0 0.0 0.0 0.0 0.0 0.0 0.0 0.0 0.0 0.0 0.0 0.0 0.0 0.0 0.0 0.0 0.0 0.0 0.0 0.0 0.0 0.0 0.0 0.0 0.0 0.0 0.0 0.0 0.0 0.0 0.0 0.0300098 0.0 0.0 0.0 0.0 0.0 0.0288694 0.0288545 0.0289766 0.0293227 0.0293334 0.0 0.0 0.0 0.0 0.0 0.0 0.0 0.0285586 0.028845 0.0288832 0.0288843 0.0299422 0.0 0.0 0.0 0.0299505 0.0291451 0.0288248 0.0291514 0.0 0.0 0.0 0.0 0.0 0.0 0.0 0.0278684 0.0285218 0.0284285 0.0284724 0.028442 0.0290477 0.0 0.0 0.0 0.0 0.0 0.0 0.0 0.0 0.0 0.0 0.0 0.0 0.0 0.0 0.0 0.0 0.0 0.0 0.0 0.0436593 0.0474467 0.0469981 0.0468269 0.0468582 0.0468148 0.0468986 0.0468446 0.047234 0.0467775 0.0471822 0.0470946 0.0472869 0.0474299 0.0474726 0.0478981 0.04746 0.0478631 0.0475669 0.0480626 0.0479856 0.0481783 0.0481548 0.0483506 0.0486892 0.0484773 0.0490252 0.0489445 0.0489164 0.0490187 0.0493036 0.0494351 0.0495941 0.0497158 0.049631 0.0498859 0.050221 0.0500357 0.0504922 0.0514885 0.0530667 0.0606593
0.0485261 0.0484227 0.0480484 0.0479483 0.0476489 0.0474694 0.0474916 0.0471741 0.0470933 0.0467445 0.0467371 0.0466141 0.0465859 0.0462794 0.046033 0.0459046 0.0456965 0.0455712 0.0454242 0.0455332 0.0452156 0.0449807 0.0449319 0.0448613 0.044815 0.0447814 0.0447261 0.0445228 0.0442064 0.0442351 0.0439103 0.0439642 0.0439505 0.0439037 0.0436869 0.043631 0.0434395 0.0434653 0.0433671 0.0428268 0.0422882 0.0 0.0 0.0 0.0 0.0 0.0 0.0 0.0 0.0 0.0 0.0 0.0 0.0 0.0 0.0 0.0 0.0 0.0 0.0 0.0 0.0 0.0 0.0 0.0 0.0 0.0 0.0 0.0 0.0 0.0 0.0 0.0 0.0 0.0 0.0 0.0 0.0 0.026048 0.0260907 0.0261447 0.0261878 0.026332 0.0 0.0 0.0 0.0 0.0 0.0 0.0 0.0264403 0.0 0.0 0.0 0.0 0.0 0.0 0.0258996 0.0259354 0.0257136 0.0259853 0.0260555 0.0 0.0 0.0 0.0 0.0 0.0 0.0 0.0251338 0.0256221 0.0256164 0.025746 0.0261906 0.0264559 0.0 0.0 0.0 0.0 0.0 0.0 0.0 0.0 0.0 0.0 0.0 0.0 0.0 0.0 0.0 0.0 0.0 0.0 0.0 0.0332293 0.0420863 0.0425666 0.0419125 0.0419518 0.0420944 0.0419649 0.0422235 0.0418564 0.0422654 0.0420824 0.0423343 0.042416 0.0423959 0.0429954 0.0425306 0.0428121 0.0427275 0.0428853 0.0429524 0.0431015 0.0433211 0.0433806 0.0434183 0.0436423 0.0435436 0.0439794 0.0439644 0.0441133 0.0441938 0.0442524 0.0444874 0.044537 0.0446231 0.0446284 0.0446583 0.0447364 0.0450515 0.0452152 0.0454159 0.0456065 0.0460832
0.0429586 0.0428776 0.0424073 0.0424241 0.0423576 0.0422819 0.0420815 0.0417571 0.0417692 0.0416571 0.0416297 0.0413223 0.0411624 0.0410039 0.0407328 0.0408778 0.040651 0.0403638 0.040419 0.0400833 0.0401304 0.0399521 0.0400321 0.0397435 0.0396923 0.0395602 0.0396136 0.0394532 0.0392838 0.0392178 0.0392547 0.0389666 0.0389546 0.0387301 0.0387608 0.0385791 0.0384798 0.0382901 0.0384359 0.0377623 0.0377379 0.0 0.0 0.0 0.0 0.0 0.0 0.0 0.0 0.0 0.0 0.0 0.0 0.0 0.0 0.0 0.0 0.0 0.0 0.0 0.0 0.0 0.0 0.0 0.0 0.0 0.0 0.0 0.0 0.0246836 0.0247293 0.0244852 0.0 0.0 0.0 0.0 0.0 0.0 0.0228951 0.0233329 0.0233411 0.0231397 0.0234181 0.0239864 0.0 0.0 0.0 0.0 0.0 0.0 0.0 0.0 0.0 0.0 0.0 0.0 0.0 0.0228928 0.0230047 0.0229268 0.0229791 0.0230816 0.0240242 0.0 0.0 0.0 0.0 0.0 0.0 0.0 0.0238162 0.0238414 0.0 0.0 0.0 0.0 0.0 0.0 0.0 0.0 0.0 0.0 0.0 0.0 0.0 0.0 0.0 0.0 0.0 0.0 0.0 0.0 0.0 0.0 0.0 0.0375984 0.0376117 0.0373727 0.0370633 0.0374029 0.0373889 0.0372233 0.0372717 0.03726 0.0375137 0.0375752 0.0375561 0.0377725 0.0376329 0.0378618 0.0377443 0.0380371 0.0380854 0.0381552 0.0382365 0.0383703 0.0382996 0.0385903 0.0383977 0.0386912 0.0387589 0.0389106 0.0389392 0.0390001 0.0390933 0.0393022 0.0393668 0.039443 0.0395099 0.0398188 0.0396473 0.0398227 0.0399786 0.0400306 0.0401153 0.0402434
0.0375656 0.0372813 0.0371099 0.0369861 0.036882 0.0368437 0.0366774 0.0366412 0.0364133 0.0360861 0.0360444 0.0360038 0.035809 0.0359256 0.0357697 0.0354969 0.0356162 0.0352735 0.0352134 0.0351725 0.0349698 0.0347956 0.0347579 0.0347303 0.0346855 0.0344079 0.0345539 0.0343505 0.034256 0.0340728 0.0341772 0.0340318 0.0340841 0.0337621 0.0337893 0.0336033 0.0337657 0.0334212 0.0334783 0.0331537 0.0331323 0.0281493 0.0 0.0 0.0 0.0 0.0 0.0 0.0 0.0 0.0 0.0 0.0 0.0 0.0 0.0 0.0 0.0 0.0 0.0 0.0 0.0 0.0 0.0 0.0 0.0 0.0 0.0208277 0.0206479 0.0207758 0.0207722 0.0209971 0.0 0.0 0.0 0.0 0.0 0.0 0.0201017 0.0204334 0.0205547 0.0206235 0.0206398 0.0210598 0.0 0.0 0.0 0.0 0.0212943 0.0207769 0.0 0.0 0.0 0.0 0.0 0.0 0.0 0.0199417 0.020268 0.0201295 0.0202719 0.0203883 0.0205048 0.0 0.0 0.0 0.0 0.0 0.0 0.0 0.0 0.0 0.0 0.0 0.0 0.0 0.0 0.0 0.0 0.0 0.0 0.0 0.0 0.0 0.0 0.0 0.0 0.0 0.0 0.0 0.0 0.0 0.0 0.0 0.0 0.0326016 0.0327995 0.0326339 0.03254 0.0324377 0.0325051 0.0324843 0.0326782 0.0325786 0.0328994 0.0325242 0.0329723 0.0327414 0.0329948 0.0329535 0.0331104 0.0331427 0.0332568 0.033417 0.0333439 0.033407 0.0334619 0.0335089 0.0335568 0.0335875 0.0336555 0.0337881 0.0338583 0.0340389 0.0340291 0.0343218 0.034186 0.0344265 0.0345216 0.0345444 0.0346417 0.0349152 0.0347473 0.0349866 0.0350329 0.0353306
0.031904 0.0318517 0.0316566 0.0316063 0.0315012 0.0313971 0.0312069 0.0311051 0.031115 0.0309047 0.0307981 0.0308343 0.0305804 0.0306184 0.0304846 0.0305006 0.0303611 0.0303319 0.0302257 0.0301282 0.0299773 0.0299285 0.029803 0.0296707 0.0295317 0.0294401 0.0295583 0.0293603 0.0293562 0.029137 0.0291732 0.0290867 0.0291242 0.0289779 0.0290244 0.02878 0.0288279 0.0287001 0.0287493 0.0284087 0.0282604 0.0272262 0.0 0.0 0.0 0.0 0.0 0.0 0.0 0.0 0.0 0.0 0.0 0.0 0.0 0.0 0.0 0.0 0.0 0.0 0.0 0.0 0.0 0.0 0.0 0.0 0.0 0.0178506 0.0178849 0.0178892 0.017818 0.0178831 0.0 0.0 0.0 0.0 0.0 0.0 0.0 0.018025 0.018152 0.0 0.0 0.0 0.0 0.0178682 0.0176262 0.0176184 0.0176183 0.0176259 0.0 0.0 0.0 0.0 0.0 0.0 0.0 0.0166876 0.0173689 0.0175443 0.0174251 0.0176084 0.0177693 0.0 0.0 0.0 0.0 0.0180247 0.0176951 0.0 0.0 0.0 0.0 0.0 0.0 0.0 0.0 0.0 0.0 0.0 0.0 0.0 0.0 0.0 0.0 0.0 0.0 0.0 0.0 0.0 0.0 0.0 0.0 0.0 0.0 0.025595 0.0282568 0.0278847 0.0279108 0.0277843 0.0279419 0.028016 0.027776 0.0280895 0.0278043 0.0280812 0.0280125 0.028114 0.0283244 0.0282269 0.0283774 0.0283198 0.0284953 0.0284159 0.0285467 0.0285386 0.0287568 0.0286024 0.0288383 0.0287866 0.0288762 0.028865 0.0290897 0.0290881 0.0291815 0.0293547 0.0293241 0.02946 0.029431 0.0297667 0.0298029 0.0297924 0.029854 0.0299325 0.029988 0.030276
0.0267553 0.0265909 0.0264676 0.0263387 0.0262442 0.0262171 0.0260977 0.0259129 0.0258485 0.0256526 0.0258016 0.0255416 0.0256126 0.0254602 0.0254074 0.0253751 0.0253239 0.0252342 0.0250996 0.0250704 0.0248919 0.0247926 0.0248244 0.0247137 0.0245843 0.0245662 0.0246525 0.0245059 0.0244574 0.024319 0.0243817 0.0242512 0.0242699 0.0241925 0.0242638 0.0240782 0.0240348 0.0240692 0.0239563 0.0238184 0.0235273 0.0236601 0.0 0.0 0.0 0.0 0.0 0.0 0.0 0.0 0.0 0.0 0.0 0.0 0.0 0.0 0.0 0.0 0.0 0.0 0.0 0.0 0.0 0.0 0.0 0.0 0.0 0.0149643 0.0149614 0.0150094 0.014918 0.0150043 0.0 0.0 0.0 0.0 0.0 0.0 0.0 0.0 0.0 0.0 0.0 0.0 0.0 0.0144408 0.0146748 0.0146556 0.0146682 0.014776 0.0150295 0.0 0.0 0.0 0.0 0.0 0.0 0.0 0.0148265 0.0149546 0.0 0.0 0.0 0.0 0.0145958 0.0146297 0.0146257 0.0144442 0.0145357 0.0147796 0.0 0.0 0.0 0.0 0.0 0.0 0.0 0.0 0.0 0.0 0.0 0.0 0.0 0.0 0.0 0.0 0.0 0.0 0.0 0.0 0.0 0.0 0.0 0.0 0.0 0.0182412 0.0235692 0.0234752 0.0231375 0.0232947 0.0231054 0.0233281 0.0232748 0.0232928 0.0233243 0.0233886 0.0233567 0.0234999 0.0233785 0.0235749 0.0236037 0.0238928 0.0236437 0.0237915 0.0237969 0.0238747 0.0238684 0.0239934 0.0238511 0.0241347 0.0240459 0.0242004 0.0241062 0.0243085 0.0243142 0.0243734 0.0244003 0.0246331 0.0246285 0.0246644 0.0248007 0.0247716 0.0249096 0.0250086 0.025075 0.0251556
0.0214293 0.0213563 0.0213488 0.0210398 0.02098 0.0209423 0.0208999 0.0208581 0.0207207 0.0207017 0.0206565 0.0204309 0.0204299 0.0203975 0.0204613 0.0203558 0.0202087 0.0202 0.0201655 0.0200998 0.0199927 0.0199706 0.019949 0.0199333 0.0197921 0.019788 0.0198002 0.0196819 0.0196062 0.0196252 0.019535 0.0194141 0.0194398 0.019393 0.0193363 0.0193685 0.0193647 0.019351 0.0191718 0.0191797 0.0189913 0.0190623 0.0152221 0.0 0.0 0.0 0.0 0.0 0.0 0.0 0.0 0.0 0.0 0.0 0.0 0.0 0.0 0.0 0.0 0.0 0.0 0.0 0.0 0.0 0.0 0.0 0.0 0.0116811 0.0121144 0.012107 0.0120998 0.0121696 0.0123828 0.0 0.0 0.0 0.0 0.0126517 0.0 0.0 0.0 0.0 0.0 0.0 0.0 0.0114689 0.0118318 0.0118982 0.0119339 0.0119186 0.012062 0.0 0.0 0.0 0.0 0.0 0.0 0.0 0.0 0.0 0.0 0.0 0.0 0.0 0.0114812 0.0116929 0.0117204 0.0117172 0.0117552 0.0119369 0.0 0.0 0.0 0.0 0.0 0.0 0.0 0.0 0.0 0.0 0.0 0.0 0.0 0.0 0.0 0.0 0.0 0.0 0.0 0.0 0.0 0.0 0.0 0.0 0.0 0.0 0.0188749 0.0189544 0.0186401 0.0186736 0.0186712 0.0187004 0.0187872 0.018708 0.0188375 0.0187904 0.0188585 0.0188592 0.0189754 0.0188882 0.0190108 0.019045 0.0190954 0.0191044 0.0191403 0.0191556 0.0191925 0.0193303 0.0192892 0.0194231 0.0194255 0.0194548 0.0194741 0.0194834 0.0196421 0.01953 0.0196956 0.0197233 0.0197568 0.019882 0.0198954 0.0199147 0.0201229 0.020122 0.0202349 0.0203108
0.0162392 0.016159 0.0160259 0.0160128 0.0159878 0.015869 0.0158082 0.0157357 0.0156964 0.0156658 0.0155868 0.0155653 0.0155119 0.0153941 0.0153782 0.0153587 0.0152872 0.0152727 0.0152545 0.0152449 0.0150991 0.0151867 0.0150661 0.0150943 0.0150388 0.0150278 0.0149573 0.014971 0.0148974 0.014884 0.0147995 0.0147631 0.0147747 0.0147193 0.0146207 0.0146493 0.0145317 0.0146242 0.0145589 0.0146519 0.0145241 0.0145821 0.0133395 0.0 0.0 0.0 0.0 0.010245 0.0 0.0 0.0 0.0 0.0 0.0 0.0 0.0 0.0 0.0 0.0 0.0 0.0 0.0 0.0 0.0 0.0 0.0 0.0 0.0 0.0092492 0.00943488 0.00957376 0.0 0.0 0.0 0.00950185 0.00917309 0.00915646 0.00924132 0.00936912 0.0 0.0 0.0 0.0 0.0 0.0 0.0 0.0090612 0.0090299 0.00908831 0.00908444 0.00918978 0.0 0.0 0.0 0.0 0.0 0.00950395 0.0 0.0 0.0 0.0 0.0 0.0 0.0 0.0 0.00892416 0.00887875 0.00893491 0.00894434 0.00899291 0.0 0.0 0.0 0.0 0.0 0.0 0.0 0.0 0.0 0.0 0.0 0.0 0.0 0.0 0.0 0.0 0.0 0.0 0.0 0.0 0.0 0.0 0.0 0.0 0.0 0.0 0.0141868 0.0143144 0.014308 0.0140963 0.0141972 0.0142076 0.0141667 0.0142292 0.0142405 0.014284 0.014292 0.0142965 0.014381 0.0143184 0.0144796 0.0144217 0.0144641 0.0144749 0.0145461 0.0144936 0.0146461 0.0145621 0.0146916 0.0145922 0.0147107 0.014741 0.0148041 0.0147585 0.0148671 0.0148709 0.0148751 0.0149082 0.0149336 0.0149961 0.0151083 0.0151475 0.0151789 0.0152109 0.0153091 0.015342
0.0110844 0.0110379 0.0109777 0.0109433 0.0109262 0.0108559 0.0108394 0.0108065 0.0107375 0.0107277 0.0106735 0.0106197 0.0105831 0.0105718 0.0105331 0.0104864 0.0105067 0.0104635 0.0104483 0.0103919 0.0103802 0.0103687 0.01033 0.0103494 0.0102508 0.0102927 0.0102004 0.0101715 0.010184 0.0101749 0.0101442 0.0101328 0.0100808 0.0101028 0.010005 0.0100438 0.00999017 0.0100484 0.00998713 0.0100375 0.00998225 0.00986759 0.00936032 0.00709336 0.00705149 0.00655529 0.00646535 0.00649994 0.0 0.0 0.0 0.0 0.0 0.0 0.0 0.0 0.0 0.0 0.0 0.0 0.0 0.0 0.0 0.0 0.0 0.0 0.0 0.0 0.0 0.0 0.0 0.0 0.0 0.0 0.0062937 0.00635193 0.00629492 0.00632108 0.00635266 0.0 0.0 0.0 0.0 0.0 0.0 0.0 0.00623479 0.00631776 0.00643026 0.00652138 0.0 0.0 0.00641996 0.00638804 0.00621684 0.00616894 0.00620149 0.00630379 0.0 0.0 0.0 0.0 0.0 0.0 0.0 0.00612716 0.00613618 0.00618285 0.00614102 0.00617173 0.0 0.0 0.0 0.0 0.0 0.0 0.0 0.0 0.0 0.0 0.0 0.0 0.0 0.0 0.0 0.0 0.0 0.0 0.0 0.0 0.0 0.0 0.0 0.0 0.0 0.0 0.00911827 0.00975389 0.00976576 0.00965552 0.00965687 0.00974554 0.00969836 0.00974946 0.00973812 0.00982802 0.00975432 0.00982297 0.00982353 0.0098627 0.0098144 0.00995571 0.00987767 0.00994004 0.0098816 0.00995839 0.00996108 0.0100525 0.00998938 0.0100455 0.0100133 0.0100979 0.0100578 0.0101321 0.0101454 0.0101591 0.010173 0.0102461 0.0102047 0.0102785 0.0103218 0.0103486 0.0104294 0.0104456 0.0103802 0.0105017
