1.71665 1.6978 1.70081 1.60101 1.30645 1.12375 1.08237 1.06701 1.06585 1.0715 1.02722 1.00401 0.989025 0.981153 0.974372 0.971002 0.967874 0.966152 0.963519 0.961716 0.961041 0.962373 0.959005 0.954719 0.958298 0.955993 0.952773 0.948635 0.93887 0.959984 0.868766 0.993712 0.967297 0.961805 0.961607 0.97828 0.977752 0.979575 0.978702 0.977507 0.975096 0.967889 0.973177 0.970391 0.974749 0.968329 0.0 0.0 0.968067 0.96454 0.926483 0.0 0.0 0.0 0.0 0.0 0.0 0.0 0.0 0.0 0.0 0.0 0.0 0.0 0.0 0.0 0.0 0.0 0.0 0.0 0.0 0.0 0.0 0.0 0.0 0.0 0.0 0.0 0.0 0.0 0.0 0.0 0.0 0.0 0.0 0.0 0.0 0.0 0.0 0.0 0.0 0.0 0.0 0.0 0.0 0.0 0.0 0.0 0.0 0.0 0.0 0.93269 0.957652 0.958939 0.958695 0.957525 0.963004 0.960287 0.953317 0.957835 0.95961 0.956226 0.962502 0.955158 0.960488 0.963684 0.954486 0.954027 0.954154 0.952756 0.959775 0.954427 0.955986 0.953917 0.955137 0.959339 0.952114 0.947878 0.955316 0.950146 0.950051 0.954721 0.945618 0.951139 0.952156 0.947485 0.950247 0.945246 0.947366 0.943817 0.941735 0.94586 0.942845 0.941292 0.944151 0.939598 0.939748 0.942524 0.939971 0.940631 0.936857 0.936291 0.935112 0.93303 0.939396 0.928503 0.935963 0.932898 0.933586 0.931629 0.928196 0.931682 0.926747 0.928712 0.927181 0.92533 0.927177 0.919815 0.926162 0.919319 0.922713 0.922357 0.919405 0.919819 0.917642 0.917966
1.7157 1.69744 1.68832 1.69153 1.66887 1.43586 1.17343 1.08557 1.05931 1.05722 1.06426 1.04745 1.01442 0.99047 0.975921 0.975739 0.967415 0.967437 0.965391 0.96098 0.961473 0.956687 0.959155 0.956921 0.954652 0.950588 0.951767 0.948221 0.941109 0.984598 0.870162 0.995356 0.959799 0.948685 0.957653 0.952392 0.960739 0.973532 0.977114 0.973243 0.973808 0.969883 0.97219 0.964035 0.967791 0.965256 0.97137 0.966697 0.969185 0.963564 0.949818 0.0 0.0 0.0 0.0 0.0 0.0 0.0 0.0 0.0 0.0 0.0 0.0 0.0 0.0 0.0 0.0 0.0 0.0 0.0 0.0 0.0 0.0 0.0 0.0 0.0 0.0 0.0 0.0 0.0 0.0 0.0 0.0 0.0 0.0 0.0 0.0 0.0 0.0 0.0 0.0 0.0 0.0 0.0 0.0 0.0 0.0 0.934535 0.958962 0.956371 0.957101 0.961756 0.958814 0.954343 0.959249 0.953536 0.959619 0.957509 0.953568 0.960503 0.954414 0.957985 0.959724 0.954799 0.958618 0.0 0.0 0.958792 0.954997 0.949984 0.954592 0.947442 0.951409 0.950244 0.946959 0.949362 0.947244 0.948407 0.950748 0.94648 0.945788 0.948962 0.944047 0.952849 0.947599 0.941144 0.944801 0.943671 0.942521 0.946398 0.940753 0.9428 0.938603 0.94208 0.940207 0.936542 0.938462 0.937113 0.930445 0.93787 0.937033 0.934705 0.934403 0.93115 0.938096 0.92808 0.93233 0.931303 0.929376 0.931481 0.930362 0.928056 0.922548 0.924802 0.925863 0.917691 0.927 0.918492 0.921404 0.914853 0.918533 0.920452 0.91835 0.919043 0.913191 0.913518
1.70347 1.69196 1.68539 1.69312 1.69089 1.68714 1.55646 1.26962 1.10327 1.06896 1.05826 1.04891 1.07829 1.03863 0.999077 0.976405 0.971274 0.967539 0.964629 0.961386 0.961884 0.955648 0.956074 0.95355 0.950988 0.950441 0.946637 0.948081 0.931569 0.984742 0.876843 0.988718 0.95524 0.94945 0.947766 0.950792 0.95054 0.952341 0.954419 0.969558 0.97042 0.967389 0.967013 0.965421 0.966492 0.959478 0.966783 0.960016 0.9625 0.961673 0.950631 0.876552 0.0 0.0 0.0 0.0 0.0 0.0 0.0 0.0 0.0 0.0 0.0 0.0 0.0 0.0 0.0 0.0 0.0 0.0 0.0 0.0 0.0 0.0 0.0 0.0 0.0 0.0 0.0 0.0 0.0 0.0 0.0 0.0 0.0 0.0 0.0 0.0 0.0 0.0 0.0 0.0 0.892793 0.950379 0.949688 0.951408 0.953719 0.950553 0.955258 0.951758 0.0 0.961082 0.95299 0.957306 0.955547 0.957103 0.960458 0.956532 0.954407 0.959524 0.953436 0.957308 0.95089 0.0 0.95824 0.953891 0.952241 0.954795 0.0 0.948101 0.955415 0.947364 0.950726 0.950462 0.945975 0.948977 0.94386 0.947721 0.945867 0.0 0.943304 0.944087 0.94246 0.942009 0.940046 0.937173 0.941425 0.934349 0.939147 0.941836 0.936491 0.935873 0.934641 0.933979 0.940381 0.932585 0.936568 0.935218 0.931199 0.930099 0.931909 0.934565 0.932212 0.929836 0.930939 0.927346 0.926352 0.924748 0.921956 0.922618 0.919193 0.921235 0.92237 0.917706 0.923086 0.916066 0.92021 0.918865 0.919198 0.91892 0.912058 0.912278 0.910754 0.914284 0.916342 0.913557
1.69178 1.67772 1.68044 1.68479 1.68283 1.67142 1.67467 1.62432 1.39767 1.14183 1.07686 1.0492 1.03806 1.05131 1.05303 1.00823 0.978287 0.972543 0.963556 0.961189 0.960527 0.95488 0.955309 0.952497 0.950231 0.948809 0.946181 0.950856 0.929951 0.984572 0.87761 0.990027 0.9486 0.941627 0.944375 0.936446 0.94685 0.946277 0.946569 0.948029 0.948576 0.966069 0.967184 0.965297 0.968459 0.95727 0.964871 0.959603 0.96119 0.957968 0.951125 0.935557 0.0 0.0 0.0 0.0 0.0 0.0 0.0 0.0 0.0 0.0 0.0 0.0 0.0 0.0 0.0 0.0 0.0 0.0 0.0 0.0 0.0 0.0 0.0 0.0 0.0 0.0 0.0 0.0 0.0 0.0 0.0 0.0 0.0 0.0 0.0 0.0 0.911053 0.94199 0.954709 0.952244 0.950674 0.951515 0.946881 0.956788 0.953336 0.957144 0.953358 0.954406 0.0 0.95615 0.94685 0.0 0.951225 0.0 0.958858 0.0 0.949483 0.953692 0.944889 0.953594 0.954124 0.943771 0.954226 0.943245 0.947326 0.951086 0.946393 0.948308 0.951406 0.0 0.0 0.942254 0.938073 0.945876 0.0 0.942524 0.94187 0.0 0.938712 0.941886 0.933395 0.938317 0.936356 0.934675 0.937141 0.933933 0.936648 0.937556 0.935771 0.935151 0.934214 0.929708 0.929024 0.928023 0.930533 0.931541 0.926937 0.932591 0.924131 0.923863 0.92971 0.917111 0.926395 0.918727 0.918613 0.922827 0.919455 0.921274 0.916691 0.915554 0.916693 0.913187 0.911668 0.914708 0.913977 0.916927 0.909837 0.910425 0.910685 0.911186 0.908809 0.908376 0.912977 0.903156
1.68117 1.67499 1.67772 1.67077 1.67021 1.66617 1.66857 1.67887 1.65976 1.51967 1.24194 1.09132 1.05126 1.03922 1.03372 1.05558 1.02978 0.986202 0.971448 0.963873 0.964674 0.954382 0.955689 0.954051 0.947993 0.944232 0.944241 0.946275 0.930077 0.997318 0.89278 0.981295 0.946666 0.937335 0.938011 0.939256 0.939887 0.940495 0.941676 0.946696 0.947839 0.944201 0.9453 0.96128 0.968615 0.959225 0.959657 0.959471 0.955076 0.950955 0.953998 0.941438 0.0 0.0 0.0 0.0 0.0 0.0 0.0 0.0 0.0 0.0 0.0 0.0 0.0 0.0 0.0 0.0 0.0 0.0 0.0 0.0 0.0 0.0 0.0 0.0 0.0 0.0 0.0 0.0 0.0 0.0 0.0 0.0 0.92995 0.944863 0.950968 0.953419 0.947667 0.949784 0.950065 0.0 0.958766 0.955059 0.952851 0.954872 0.0 0.950379 0.952049 0.0 0.955945 0.9506 0.951599 0.954095 0.9481 0.953286 0.957848 0.949087 0.950289 0.953589 0.947205 0.95198 0.946171 0.0 0.948389 0.0 0.946316 0.947664 0.94508 0.946693 0.94558 0.939642 0.944805 0.94124 0.944259 0.944258 0.942441 0.942104 0.935764 0.935393 0.938588 0.937579 0.932971 0.937889 0.931162 0.935138 0.929571 0.928746 0.936211 0.930592 0.929404 0.930564 0.927263 0.925126 0.932116 0.925214 0.922423 0.925495 0.920603 0.925084 0.918978 0.917835 0.920174 0.915181 0.919501 0.917375 0.915514 0.916532 0.913455 0.917594 0.916194 0.910435 0.916763 0.908938 0.911156 0.912756 0.907729 0.914682 0.903886 0.908465 0.907585 0.9061 0.90486 0.898495 0.906491 0.897807
1.67025 1.66266 1.66565 1.65672 1.67227 1.66456 1.66839 1.66959 1.67243 1.65979 1.60957 1.38863 1.14134 1.06248 1.0432 1.03392 1.02862 1.04408 0.999588 0.974366 0.967632 0.956772 0.954009 0.952665 0.946321 0.947536 0.944039 0.944903 0.928423 0.995043 0.889383 0.990222 0.946189 0.936866 0.938135 0.93465 0.936463 0.936479 0.938547 0.936441 0.942628 0.943748 0.942765 0.944141 0.94699 0.961756 0.957116 0.958723 0.95493 0.953506 0.954754 0.939506 0.881047 0.0 0.0 0.0 0.0 0.0 0.0 0.0 0.0 0.0 0.0 0.0 0.0 0.0 0.0 0.0 0.0 0.0 0.0 0.0 0.0 0.0 0.0 0.0 0.0 0.0 0.0 0.0 0.93341 0.944738 0.945448 0.939778 0.94985 0.945058 0.95116 0.950883 0.94877 0.955736 0.95541 0.0 0.0 0.0 0.0 0.954759 0.952824 0.952994 0.952239 0.0 0.0 0.946854 0.0 0.0 0.0 0.944097 0.948659 0.945343 0.948056 0.948335 0.938029 0.0 0.947258 0.941438 0.946458 0.0 0.944987 0.946033 0.0 0.93995 0.938839 0.936511 0.939571 0.0 0.937529 0.940527 0.930326 0.935981 0.935328 0.93137 0.937849 0.933556 0.93253 0.931186 0.926549 0.934094 0.92734 0.928296 0.931008 0.926876 0.927171 0.927737 0.921187 0.92053 0.923979 0.917675 0.922247 0.920611 0.919834 0.919618 0.915568 0.917351 0.919686 0.914692 0.916675 0.915713 0.910363 0.914285 0.907441 0.912449 0.911631 0.908185 0.909036 0.905247 0.906316 0.905051 0.899748 0.906992 0.903051 0.9025 0.902194 0.898729 0.903721 0.898485 0.89717 0.894971
1.66826 1.64945 1.65159 1.64913 1.65563 1.65017 1.65284 1.65346 1.656 1.65619 1.65687 1.65119 1.53242 1.24081 1.07625 1.04397 1.02743 1.02555 1.02825 1.00628 0.978985 0.964954 0.961043 0.955049 0.954264 0.947015 0.948207 0.941754 0.927923 0.997155 0.911258 0.983224 0.946577 0.936672 0.930561 0.931803 0.933616 0.931262 0.930067 0.933891 0.935621 0.932575 0.937833 0.93891 0.0 0.941005 0.938742 0.948998 0.948191 0.949456 0.949207 0.943547 0.932168 0.0 0.0 0.0 0.0 0.0 0.0 0.0 0.0 0.0 0.0 0.0 0.0 0.0 0.0 0.0 0.0 0.0 0.0 0.0 0.0 0.0 0.0 0.914917 0.938713 0.938895 0.936033 0.939816 0.939951 0.0 0.943807 0.94541 0.955176 0.945842 0.0 0.952573 0.0 0.0 0.954675 0.0 0.952462 0.0 0.95261 0.954932 0.0 0.0 0.0 0.946193 0.94904 0.0 0.944698 0.947192 0.943924 0.942154 0.939461 0.942191 0.947017 0.941559 0.945745 0.938749 0.93325 0.941604 0.940896 0.936255 0.940031 0.93536 0.929174 0.936201 0.0 0.930363 0.937624 0.932863 0.939478 0.932888 0.931675 0.932239 0.932782 0.930618 0.930227 0.926835 0.929686 0.931023 0.925494 0.927979 0.928657 0.921299 0.926385 0.925811 0.92196 0.92726 0.922186 0.920346 0.920842 0.913069 0.920876 0.918063 0.913764 0.91912 0.913898 0.914216 0.919178 0.914182 0.912957 0.910832 0.906359 0.907959 0.906916 0.903819 0.90503 0.902168 0.905612 0.901826 0.901746 0.902776 0.898617 0.900714 0.897636 0.902492 0.902462 0.897009 0.898319 0.894783 0.89544 0.895205
1.65783 1.64015 1.65156 1.64433 1.64659 1.64934 1.65145 1.64754 1.64979 1.65368 1.64724 1.64985 1.64209 1.59864 1.36833 1.11476 1.04642 1.03561 1.02995 1.02365 1.02832 0.982985 0.968048 0.960907 0.954298 0.952902 0.947377 0.941223 0.92711 1.00746 0.918983 0.980919 0.940465 0.932037 0.933897 0.932781 0.93164 0.932545 0.934317 0.929249 0.931273 0.928526 0.937051 0.930689 0.934125 0.938737 0.939756 0.937473 0.0 0.937919 0.944544 0.945172 0.935898 0.0 0.0 0.0 0.0 0.0 0.0 0.0 0.0 0.0 0.0 0.0 0.0 0.0 0.0 0.0 0.0 0.0 0.89758 0.93561 0.93164 0.940952 0.937555 0.938071 0.943108 0.0 0.943458 0.0 0.0 0.954762 0.0 0.948901 0.0 0.0 0.0 0.0 0.0 0.0 0.0 0.950251 0.0 0.950733 0.0 0.0 0.945889 0.945756 0.0 0.0 0.0 0.0 0.0 0.0 0.943778 0.942008 0.0 0.0 0.944451 0.933565 0.940767 0.941314 0.0 0.940849 0.0 0.0 0.0 0.934604 0.0 0.936043 0.93073 0.934107 0.932663 0.929704 0.935118 0.931824 0.929114 0.933863 0.927532 0.0 0.933037 0.922785 0.926529 0.929949 0.924718 0.925418 0.923126 0.921113 0.925601 0.920584 0.0 0.921148 0.917852 0.918962 0.917689 0.91198 0.91537 0.909919 0.909733 0.911572 0.908113 0.911649 0.910186 0.902577 0.908058 0.906808 0.902919 0.907127 0.902896 0.904137 0.904476 0.900458 0.901596 0.898674 0.896873 0.895328 0.892607 0.896418 0.895336 0.891944 0.898452 0.891587 0.893747 0.891907 0.891155 0.89036
1.64345 1.63502 1.63687 1.63245 1.64401 1.63715 1.64832 1.64697 1.63899 1.64288 1.64613 1.63732 1.64417 1.64551 1.63645 1.50553 1.21384 1.0647 1.03624 1.02272 1.01783 1.03553 1.00352 0.974889 0.962476 0.95292 0.946818 0.945063 0.933019 1.05617 0.947241 0.981243 0.939932 0.93328 0.932194 0.93049 0.929351 0.925522 0.926106 0.925779 0.927208 0.925056 0.926146 0.928705 0.927079 0.9296 0.932403 0.9334 0.935573 0.0 0.0 0.0 0.925236 0.898557 0.0 0.0 0.0 0.0 0.0 0.0 0.0 0.0 0.0 0.0 0.0 0.0 0.927266 0.935145 0.938187 0.930653 0.942416 0.0 0.940242 0.944719 0.94072 0.948492 0.0 0.0 0.0 0.0 0.0 0.0 0.0 0.0 0.0 0.0 0.0 0.0 0.0 0.0 0.0 0.0 0.0 0.943309 0.0 0.0 0.0 0.0 0.940608 0.0 0.0 0.937651 0.938044 0.941443 0.0 0.0 0.0 0.934938 0.0 0.0 0.939997 0.932406 0.932637 0.940679 0.932144 0.935632 0.0 0.928722 0.923143 0.0 0.924253 0.92943 0.930686 0.920838 0.931043 0.923263 0.92325 0.927401 0.0 0.927271 0.0 0.919913 0.920975 0.919933 0.0 0.917494 0.916988 0.917943 0.920059 0.916231 0.91623 0.918273 0.909372 0.916382 0.916581 0.910872 0.914258 0.906166 0.905981 0.911918 0.906409 0.905559 0.907309 0.902325 0.904598 0.901897 0.897722 0.90048 0.897703 0.899234 0.901305 0.893257 0.894975 0.892347 0.89227 0.893016 0.887439 0.894955 0.893585 0.89076 0.889605 0.887563 0.891134 0.885629 0.887694 0.888302
1.63827 1.63462 1.62356 1.62813 1.63151 1.63596 1.63807 1.63161 1.62731 1.62977 1.63273 1.63448 1.63016 1.63322 1.63593 1.63916 1.59682 1.36469 1.111 1.04174 1.02355 1.01804 1.01684 1.0322 0.990148 0.964006 0.952375 0.948877 0.932456 1.04645 0.975446 0.979487 0.939968 0.931851 0.928999 0.928773 0.929112 0.928838 0.924988 0.924367 0.925797 0.925131 0.926224 0.920461 0.92627 0.924326 0.92802 0.0 0.929992 0.0 0.0 0.0 0.924741 0.905563 0.0 0.0 0.0 0.0 0.0 0.0 0.0 0.923933 0.935787 0.943722 0.933884 0.938477 0.931005 0.0 0.0 0.0 0.944046 0.0 0.0 0.0 0.0 0.0 0.0 0.0 0.0 0.0 0.0 0.0 0.0 0.0 0.0 0.0 0.0 0.0 0.0 0.0 0.0 0.0 0.0 0.0 0.0 0.0 0.0 0.0 0.0 0.0 0.0 0.0 0.0 0.0 0.0 0.0 0.93837 0.934458 0.0 0.0 0.0 0.0 0.0 0.932065 0.0 0.0 0.930795 0.922828 0.92476 0.929973 0.919566 0.928339 0.0 0.923641 0.926954 0.92217 0.922752 0.921822 0.918188 0.0 0.921902 0.916132 0.919277 0.918531 0.916875 0.916981 0.0 0.91535 0.918057 0.913933 0.915704 0.908593 0.913858 0.912607 0.911335 0.906219 0.90931 0.905331 0.907486 0.906976 0.902641 0.9015 0.906455 0.895648 0.903739 0.898422 0.895119 0.896426 0.894807 0.894316 0.89581 0.890935 0.888915 0.892602 0.88851 0.89097 0.886535 0.885495 0.892666 0.87962 0.886127 0.8855 0.885114 0.885249 0.878314 0.884259
1.6283 1.61961 1.6223 1.6266 1.62998 1.61495 1.62722 1.62388 1.62527 1.62744 1.62984 1.63303 1.62415 1.62634 1.61528 1.62136 1.62538 1.62446 1.50448 1.22616 1.05474 1.02434 1.01763 1.02106 1.02242 1.0223 0.980386 0.955881 0.939776 1.05899 0.991567 0.976831 0.939983 0.935996 0.932859 0.929397 0.927674 0.924446 0.925035 0.920568 0.923776 0.924002 0.923612 0.922606 0.922469 0.916955 0.918559 0.0 0.923206 0.922669 0.0 0.923329 0.0 0.910149 0.0 0.0 0.0 0.928166 0.937063 0.941749 0.937411 0.937257 0.931675 0.93359 0.933383 0.943694 0.934122 0.0 0.0 0.0 0.0 0.0 0.0 0.0 0.0 0.0 0.0 0.0 0.0 0.0 0.0 0.0 0.0 0.0 0.0 0.0 0.0 0.0 0.0 0.0 0.0 0.0 0.0 0.0 0.937717 0.0 0.936593 0.0 0.933896 0.0 0.0 0.936378 0.0 0.0 0.0 0.0 0.931539 0.0 0.0 0.0 0.93118 0.0 0.927742 0.0 0.929653 0.0 0.0 0.923228 0.927858 0.0 0.922061 0.927829 0.915606 0.919839 0.92644 0.917772 0.919251 0.921604 0.0 0.917003 0.916019 0.913527 0.0 0.91117 0.912487 0.915263 0.910307 0.91363 0.911008 0.905708 0.908663 0.907755 0.904172 0.906461 0.903722 0.898907 0.905229 0.899493 0.901357 0.902897 0.898857 0.8983 0.895968 0.893614 0.894142 0.8958 0.893657 0.892356 0.888427 0.890247 0.891164 0.886007 0.893463 0.889108 0.883873 0.882047 0.883612 0.881433 0.883484 0.87698 0.877819 0.878048 0.876259 0.881186 0.875941 0.876836
1.62752 1.61409 1.61257 1.609 1.61799 1.61961 1.62398 1.61668 1.61779 1.61456 1.6178 1.61955 1.61982 1.61285 1.61498 1.61877 1.61704 1.61266 1.62032 1.5947 1.38313 1.12393 1.03175 1.01485 1.01039 0.999473 1.02322 1.00609 0.970173 1.11776 1.01996 0.981201 0.939391 0.930409 0.928744 0.925283 0.925627 0.92831 0.91915 0.922673 0.919369 0.920483 0.918313 0.921463 0.918654 0.918199 0.921592 0.917225 0.919092 0.918555 0.919789 0.920109 0.917721 0.915012 0.916171 0.914918 0.917541 0.913553 0.914042 0.932819 0.932983 0.933129 0.929352 0.936978 0.930759 0.935951 0.930294 0.0 0.930364 0.936099 0.0 0.0 0.0 0.0 0.945869 0.0 0.0 0.0 0.0 0.0 0.0 0.0 0.0 0.0 0.0 0.932874 0.0 0.0 0.0 0.0 0.941987 0.0 0.0 0.0 0.0 0.0 0.0 0.0 0.930972 0.924468 0.0 0.0 0.0 0.0 0.0 0.931303 0.932836 0.931037 0.0 0.933115 0.0 0.0 0.926926 0.0 0.921021 0.0 0.923166 0.920909 0.924636 0.918449 0.917943 0.915324 0.920172 0.919313 0.0 0.0 0.914242 0.918087 0.909983 0.916468 0.909826 0.910312 0.914047 0.910034 0.0 0.914121 0.908574 0.909525 0.909862 0.903085 0.91194 0.904834 0.900369 0.902657 0.901389 0.900686 0.904064 0.899208 0.900774 0.899679 0.894473 0.896832 0.893043 0.888363 0.896442 0.892291 0.890727 0.892606 0.884054 0.887891 0.887366 0.88135 0.883924 0.8813 0.881222 0.883391 0.876397 0.879913 0.879687 0.87347 0.874873 0.875099 0.874154 0.874013 0.871023 0.876116
1.60771 1.61049 1.61066 1.60121 1.60654 1.60279 1.60969 1.6086 1.61084 1.61359 1.60716 1.61689 1.61116 1.61393 1.6112 1.61126 1.6081 1.61178 1.61396 1.61003 1.6121 1.52462 1.25264 1.05597 1.02133 1.00957 1.00095 0.993153 1.0464 1.12111 1.01841 0.98701 0.936428 0.930687 0.928734 0.928225 0.926216 0.92536 0.924479 0.917954 0.916131 0.918726 0.920117 0.917632 0.916013 0.91645 0.915083 0.914884 0.911984 0.0 0.0 0.914188 0.91628 0.915367 0.0 0.919468 0.0 0.920509 0.0 0.0 0.926741 0.927487 0.928516 0.932834 0.929624 0.929702 0.92525 0.0 0.922309 0.931953 0.932249 0.93253 0.935506 0.0 0.935987 0.0 0.0 0.0 0.0 0.931474 0.0 0.0 0.0 0.0 0.0 0.0 0.0 0.0 0.0 0.0 0.0 0.0 0.0 0.0 0.0 0.0 0.0 0.0 0.0 0.0 0.0 0.930211 0.0 0.0 0.0 0.0 0.930198 0.925087 0.0 0.0 0.0 0.0 0.0 0.0 0.0 0.0 0.0 0.0 0.922 0.0 0.917106 0.0 0.0 0.918471 0.0 0.912518 0.913696 0.910381 0.910031 0.909066 0.908976 0.909758 0.908438 0.0 0.906337 0.905554 0.905935 0.904519 0.905151 0.902513 0.903691 0.901603 0.899495 0.89972 0.899332 0.898334 0.899071 0.893341 0.899293 0.89586 0.888616 0.892723 0.891264 0.888328 0.891463 0.885288 0.885176 0.889655 0.882551 0.885229 0.883839 0.879261 0.880684 0.880349 0.878551 0.877008 0.875433 0.873256 0.872467 0.870791 0.872189 0.871848 0.868369 0.873006 0.866927 0.869499
1.60323 1.6007 1.59611 1.60152 1.60152 1.59863 1.60496 1.60643 1.59848 1.59809 1.59763 1.60592 1.60505 1.60524 1.60738 1.61175 1.59654 1.6074 1.61161 1.60249 1.60081 1.60688 1.59435 1.42443 1.14732 1.03301 1.00491 1.0018 0.995142 1.11098 1.04494 1.00158 0.947535 0.935351 0.93135 0.92761 0.926195 0.923574 0.924467 0.920314 0.918794 0.917544 0.91627 0.0 0.919588 0.916764 0.91659 0.914015 0.914989 0.912072 0.913007 0.913327 0.0 0.911522 0.0 0.0 0.911959 0.0 0.920449 0.0 0.0 0.0 0.930964 0.923572 0.925768 0.924944 0.925606 0.930462 0.921766 0.927794 0.921768 0.92566 0.926223 0.926771 0.92881 0.927518 0.0 0.0 0.0 0.0 0.0 0.0 0.0 0.0 0.0 0.0 0.0 0.0 0.0 0.0 0.0 0.0 0.0 0.0 0.0 0.0 0.0 0.0 0.0 0.0 0.0 0.0 0.0 0.0 0.0 0.0 0.924836 0.0 0.0 0.0 0.0 0.0 0.0 0.0 0.922344 0.914419 0.0 0.917125 0.0 0.913466 0.915953 0.0 0.907412 0.912532 0.911358 0.0 0.911343 0.0 0.909465 0.910582 0.902162 0.909185 0.907567 0.899109 0.903388 0.899939 0.901209 0.901272 0.89836 0.889826 0.89897 0.895705 0.897425 0.89706 0.897552 0.895379 0.895529 0.890094 0.892243 0.890858 0.887701 0.88889 0.888595 0.877819 0.88589 0.881458 0.88308 0.8838 0.879874 0.878806 0.880006 0.876866 0.876852 0.872513 0.872721 0.873461 0.871317 0.869709 0.87147 0.866394 0.868074 0.866604 0.864536 0.866081 0.863933 0.86622
1.6026 1.58195 1.58909 1.59169 1.59422 1.59612 1.58892 1.59065 1.596 1.59194 1.59517 1.59152 1.59462 1.59281 1.60353 1.59873 1.60075 1.59724 1.60461 1.59493 1.597 1.5996 1.59404 1.59421 1.5496 1.30911 1.06737 1.01478 1.00611 1.09003 1.06673 1.0334 0.98793 0.954372 0.938643 0.924621 0.925564 0.921474 0.926795 0.915858 0.917886 0.918711 0.916258 0.914964 0.915131 0.915276 0.912728 0.0 0.914699 0.909999 0.909147 0.910063 0.0 0.905574 0.906134 0.906677 0.911389 0.0 0.912393 0.0 0.0 0.0 0.918993 0.915803 0.9237 0.918973 0.924741 0.920578 0.926017 0.927232 0.92121 0.0 0.0 0.925008 0.924034 0.922441 0.0 0.0 0.0 0.0 0.0 0.0 0.0 0.0 0.0 0.0 0.0 0.0 0.0 0.0 0.0 0.0 0.0 0.0 0.0 0.0 0.0 0.0 0.0 0.0 0.0 0.0 0.0 0.0 0.0 0.0 0.0 0.0 0.0 0.0 0.0 0.0 0.0 0.0 0.0 0.913856 0.913717 0.0 0.0 0.0 0.91239 0.0 0.0 0.0 0.0 0.0 0.905696 0.0 0.90293 0.905831 0.896527 0.901765 0.901337 0.895258 0.89983 0.899343 0.895878 0.89801 0.897756 0.893057 0.896296 0.892739 0.892398 0.888511 0.887247 0.891528 0.890507 0.885077 0.886349 0.882343 0.880649 0.889695 0.882421 0.88094 0.882041 0.87819 0.88241 0.877066 0.87257 0.877546 0.876731 0.870724 0.867851 0.87181 0.867161 0.872744 0.870595 0.867279 0.864786 0.863393 0.864222 0.861908 0.859842 0.862507 0.860079 0.861246
1.59441 1.58103 1.58678 1.58828 1.57622 1.57838 1.58272 1.59039 1.58217 1.58632 1.58757 1.59102 1.58502 1.59035 1.58763 1.59055 1.59343 1.58993 1.59183 1.59194 1.59171 1.58333 1.5905 1.59328 1.59283 1.58216 1.47451 1.17309 1.04095 1.07784 1.07239 1.02884 0.979893 1.00767 0.972042 0.940724 0.930505 0.923481 0.92733 0.916701 0.920503 0.915716 0.913858 0.913456 0.914217 0.910508 0.0 0.91252 0.0 0.9091 0.0 0.0 0.906789 0.0 0.905546 0.90609 0.0 0.908024 0.0 0.0 0.0 0.0 0.0 0.0 0.0 0.912691 0.919655 0.916996 0.920028 0.0 0.918831 0.920613 0.921177 0.921424 0.0 0.921568 0.0 0.0 0.0 0.0 0.0 0.0 0.0 0.0 0.0 0.0 0.0 0.0 0.0 0.0 0.0 0.0 0.0 0.0 0.0 0.0 0.0 0.0 0.0 0.0 0.0 0.0 0.0 0.0 0.0 0.0 0.920391 0.0 0.0 0.0 0.0 0.0 0.0 0.0 0.0 0.0 0.913733 0.915372 0.0 0.0 0.0 0.0 0.0 0.0 0.0 0.903629 0.0 0.0 0.0 0.900177 0.900085 0.897896 0.899544 0.0 0.896554 0.896658 0.894081 0.892667 0.891824 0.888013 0.89184 0.885639 0.887945 0.887875 0.886023 0.883563 0.8805 0.881215 0.882777 0.881395 0.880281 0.0 0.878557 0.876497 0.881071 0.872593 0.874212 0.877814 0.871587 0.86822 0.868847 0.867147 0.869995 0.869657 0.867003 0.866314 0.859624 0.858591 0.866578 0.855289 0.860916 0.859726 0.858499 0.861715 0.857884 0.853186
1.5809 1.56864 1.57578 1.57055 1.57195 1.56877 1.5793 1.57964 1.57284 1.58264 1.57823 1.576 1.58309 1.58044 1.58742 1.57462 1.58551 1.58029 1.57701 1.57971 1.58553 1.58668 1.57622 1.57755 1.58405 1.58238 1.57979 1.56986 1.46513 1.12022 1.09174 1.04153 0.987658 0.980542 0.984242 1.00907 0.964824 0.939888 0.926959 0.921355 0.915422 0.916547 0.917947 0.91548 0.91358 0.909877 0.909708 0.910408 0.907821 0.903426 0.907039 0.908256 0.0 0.0 0.0 0.90668 0.906313 0.0 0.0 0.0 0.0 0.910193 0.0 0.0 0.0 0.0 0.0 0.907697 0.91643 0.913137 0.916436 0.911304 0.916075 0.915419 0.915048 0.915563 0.91546 0.0 0.0 0.0 0.919105 0.0 0.0 0.0 0.0 0.0 0.0 0.0 0.0 0.0 0.0 0.0 0.0 0.0 0.0 0.0 0.0 0.0 0.0 0.0 0.0 0.0 0.0 0.0 0.0 0.0 0.0 0.0 0.0 0.0 0.0 0.0 0.0 0.912308 0.0 0.0 0.912534 0.0 0.0 0.0 0.0 0.0 0.0 0.0 0.0 0.0 0.902999 0.0 0.0 0.0 0.0 0.0 0.895066 0.894026 0.892967 0.889524 0.0 0.891441 0.892658 0.890023 0.888547 0.0 0.884359 0.886927 0.0 0.884366 0.882175 0.878796 0.881813 0.879263 0.876402 0.878167 0.876998 0.872328 0.875162 0.86987 0.869178 0.867881 0.867131 0.870084 0.867547 0.864698 0.86411 0.860921 0.858562 0.862428 0.861986 0.857542 0.862405 0.854229 0.858434 0.853588 0.850121 0.85642 0.851476 0.851803
1.56738 1.56652 1.56502 1.56678 1.57071 1.57149 1.56853 1.56745 1.57195 1.56789 1.56631 1.57032 1.57229 1.58103 1.5749 1.58298 1.57327 1.57264 1.57396 1.57349 1.57441 1.57383 1.56944 1.57714 1.57408 1.57154 1.5736 1.58171 1.58281 1.13509 1.11893 1.06177 0.999484 0.988584 0.983498 0.978374 0.990844 0.995077 0.954245 0.927751 0.919767 0.920604 0.914032 0.91482 0.909965 0.910412 0.90995 0.909763 0.907181 0.907843 0.903431 0.0 0.90793 0.0 0.0 0.904863 0.907483 0.900829 0.0 0.902395 0.0 0.0 0.0 0.0 0.0 0.0 0.0 0.0 0.0 0.0 0.912825 0.913104 0.0 0.908203 0.913843 0.908946 0.912752 0.912633 0.9128 0.909038 0.0 0.0 0.0 0.0 0.0 0.0 0.0 0.0 0.0 0.0 0.0 0.0 0.0 0.0 0.0 0.0 0.0 0.0 0.0 0.0 0.0 0.0 0.0 0.0 0.0 0.0 0.0 0.0 0.0 0.0 0.0 0.0 0.0 0.909598 0.0 0.0 0.0 0.0 0.0 0.0 0.0 0.0 0.0 0.0 0.0 0.0 0.897907 0.894303 0.0 0.0 0.89586 0.896633 0.0 0.0 0.892911 0.888581 0.886598 0.885775 0.887581 0.88642 0.0 0.0 0.882224 0.882444 0.881175 0.879592 0.878863 0.877819 0.877042 0.880022 0.874831 0.872818 0.871072 0.866986 0.870975 0.863666 0.868165 0.866863 0.860648 0.864462 0.863361 0.861657 0.859925 0.858733 0.858363 0.858525 0.85553 0.854772 0.854824 0.848916 0.851431 0.850243 0.847897 0.849431 0.847566 0.845941
1.56187 1.55963 1.56148 1.5532 1.55628 1.55424 1.5625 1.56087 1.56932 1.56415 1.56003 1.56489 1.56971 1.57077 1.56635 1.56814 1.57387 1.57441 1.56656 1.56437 1.56155 1.56356 1.57303 1.56975 1.56496 1.56793 1.57347 1.5688 1.56873 1.13593 1.12153 1.19498 1.12033 1.00947 0.992401 0.983483 0.979217 0.967274 1.00118 0.982116 0.939412 0.921978 0.920732 0.914141 0.914912 0.908262 0.908987 0.908507 0.907115 0.905404 0.907831 0.905484 0.900437 0.903701 0.0 0.0 0.0 0.90497 0.0 0.901166 0.0 0.0 0.0 0.0 0.0 0.0 0.0 0.0 0.0 0.0 0.0 0.0 0.906439 0.907886 0.909918 0.90262 0.913336 0.903899 0.911882 0.904214 0.0 0.905068 0.0 0.0 0.0 0.914713 0.0 0.0 0.0 0.0 0.0 0.0 0.0 0.0 0.0 0.0 0.0 0.0 0.0 0.0 0.0 0.0 0.0 0.0 0.0 0.0 0.0 0.0 0.0 0.0 0.0 0.0 0.0 0.0 0.898986 0.0 0.0 0.0 0.0 0.0 0.0 0.0 0.0 0.0 0.0 0.0 0.0 0.893656 0.0 0.0 0.0 0.893605 0.0 0.0 0.0 0.0 0.886224 0.881864 0.87896 0.880156 0.879857 0.880123 0.87421 0.875311 0.0 0.876265 0.0 0.87449 0.875167 0.871455 0.870048 0.871226 0.862526 0.866547 0.86475 0.862929 0.865114 0.866111 0.86047 0.863126 0.85973 0.856026 0.856864 0.855385 0.853875 0.856307 0.84991 0.849154 0.851183 0.850911 0.849474 0.845196 0.847331 0.844105 0.846702 0.841176
1.56186 1.5466 1.54733 1.54992 1.54909 1.55798 1.55224 1.56776 1.55791 1.55472 1.55682 1.55631 1.55289 1.56105 1.56233 1.55699 1.56015 1.56096 1.5577 1.55465 1.55327 1.56248 1.55782 1.55713 1.56391 1.55936 1.55909 1.55761 1.56568 1.13644 1.13752 1.35801 1.56582 1.33505 1.085 0.996767 0.985188 0.978553 0.971585 0.956044 0.995822 0.958116 0.930646 0.919643 0.914215 0.907278 0.911558 0.909602 0.906733 0.90651 0.0 0.905706 0.902747 0.905418 0.0 0.0 0.0 0.899841 0.0 0.0 0.0 0.0 0.899755 0.0 0.0 0.0 0.0 0.0 0.0 0.0 0.0 0.0 0.0 0.0 0.0 0.90229 0.906392 0.0 0.90674 0.903585 0.90372 0.899329 0.0 0.896211 0.908911 0.0 0.912015 0.0 0.0 0.0 0.0 0.0 0.0 0.0 0.0 0.0 0.0 0.0 0.0 0.0 0.0 0.0 0.0 0.0 0.0 0.0 0.0 0.0 0.0 0.908891 0.0 0.0 0.903925 0.0 0.0 0.0 0.0 0.0 0.0 0.0 0.0 0.0 0.0 0.0 0.0 0.0 0.890061 0.889133 0.0 0.0 0.0 0.0 0.0 0.888788 0.0 0.0 0.0 0.0 0.880035 0.0 0.875638 0.874437 0.0 0.871386 0.876258 0.876132 0.869275 0.872891 0.873855 0.864332 0.869311 0.868165 0.861785 0.863485 0.86313 0.859865 0.859456 0.860453 0.853383 0.859764 0.853795 0.853236 0.858629 0.850312 0.847383 0.851516 0.847106 0.848323 0.846395 0.841058 0.843002 0.845457 0.841146 0.841833 0.845813 0.838617
1.5488 1.5488 1.53621 1.54966 1.54467 1.53957 1.55203 1.53862 1.5507 1.55373 1.54595 1.55337 1.55109 1.54647 1.54917 1.55038 1.54925 1.54549 1.54909 1.5538 1.55214 1.55445 1.55556 1.55344 1.55357 1.55249 1.55832 1.5554 1.55243 1.13896 1.17937 1.45892 1.58932 1.56948 1.50362 1.25103 1.02748 0.988323 0.986369 0.971742 0.96442 0.96737 0.984159 0.941346 0.922064 0.914551 0.91085 0.907714 0.903961 0.904332 0.903794 0.903533 0.90236 0.0 0.897573 0.0 0.0 0.0 0.0 0.0 0.897625 0.0 0.0 0.0 0.900196 0.0 0.0 0.0 0.0 0.0 0.0 0.0 0.0 0.0 0.0 0.0 0.0 0.905924 0.0 0.0 0.898568 0.896584 0.903596 0.896173 0.903455 0.899906 0.0 0.0 0.0 0.0 0.0 0.0 0.910379 0.0 0.0 0.0 0.0 0.0 0.0 0.0 0.0 0.0 0.0 0.0 0.0 0.0 0.0 0.0 0.0 0.0 0.0 0.0 0.0 0.0 0.0 0.0 0.0 0.0 0.0 0.0 0.0 0.0 0.0 0.0 0.894754 0.0 0.890272 0.892899 0.0 0.886536 0.885846 0.884842 0.0 0.0 0.0 0.877097 0.0 0.876057 0.0 0.875225 0.0 0.0 0.0 0.869785 0.870561 0.870436 0.866208 0.867782 0.863514 0.864745 0.861597 0.862771 0.859288 0.859828 0.855724 0.852465 0.857809 0.856791 0.852304 0.858101 0.848704 0.850997 0.852109 0.843802 0.844284 0.849825 0.842303 0.84239 0.842437 0.839351 0.840164 0.838971 0.836624 0.838144 0.839057 0.830485
1.53543 1.53127 1.53312 1.53683 1.53128 1.53596 1.5403 1.5342 1.53305 1.53381 1.53308 1.54783 1.53792 1.54181 1.54423 1.54061 1.54319 1.55143 1.54476 1.54746 1.54753 1.54524 1.54491 1.55144 1.53599 1.5404 1.53955 1.55025 1.55048 1.13651 1.17863 1.48184 1.56813 1.55909 1.53859 1.54317 1.43641 1.16108 1.00228 0.978578 0.968333 0.968345 0.961264 0.974491 0.975028 0.938035 0.914852 0.91143 0.907389 0.904212 0.902195 0.899859 0.900766 0.896605 0.0 0.896538 0.893203 0.0 0.896299 0.0 0.0 0.0 0.0 0.89345 0.0 0.0 0.0 0.0 0.0 0.0 0.0 0.0 0.0 0.0 0.0 0.0 0.0 0.0 0.0 0.0 0.90181 0.898027 0.0 0.897617 0.897088 0.895042 0.895083 0.896609 0.899621 0.0 0.890284 0.0 0.0 0.0 0.0 0.0 0.0 0.0 0.0 0.0 0.0 0.0 0.0 0.0 0.0 0.0 0.0 0.0 0.0 0.0 0.0 0.0 0.0 0.0 0.0 0.0 0.0 0.0 0.0 0.0 0.893307 0.0 0.0 0.0 0.0 0.0 0.0 0.0 0.0 0.885831 0.0 0.0 0.0 0.881177 0.873041 0.0 0.877338 0.0 0.876539 0.0 0.870965 0.870639 0.0 0.0 0.869228 0.865311 0.0 0.0 0.860428 0.861945 0.861692 0.860256 0.0 0.855001 0.854356 0.85167 0.853556 0.848236 0.85149 0.849555 0.847308 0.845889 0.84899 0.843527 0.840881 0.840189 0.839179 0.838133 0.839585 0.834251 0.836744 0.831914 0.830409 0.834158 0.832011 0.82955
1.52922 1.52508 1.53497 1.51869 1.52511 1.52588 1.52994 1.53506 1.52579 1.53274 1.53259 1.53011 1.5369 1.53711 1.53471 1.53621 1.53538 1.53705 1.53381 1.54166 1.53973 1.54061 1.53597 1.54393 1.53427 1.53782 1.53959 1.54218 1.53487 1.1111 1.16449 1.49478 1.56616 1.5481 1.54017 1.54213 1.53585 1.52717 1.37679 1.09017 0.984849 0.972237 0.968407 0.960717 0.95594 0.983297 0.967851 0.929896 0.91582 0.912654 0.902947 0.899431 0.900044 0.896779 0.893194 0.892558 0.895173 0.894202 0.0 0.0 0.892964 0.0 0.0 0.0 0.0 0.893528 0.0 0.0 0.0 0.0 0.0 0.0 0.0 0.0 0.0 0.0 0.0 0.0 0.0 0.0 0.0 0.89525 0.0 0.0 0.893412 0.894368 0.0 0.894734 0.0 0.892336 0.889314 0.0 0.896725 0.0 0.0 0.0 0.0 0.0 0.0 0.0 0.0 0.0 0.0 0.0 0.0 0.0 0.0 0.0 0.0 0.0 0.0 0.0 0.0 0.0 0.0 0.0 0.0 0.0 0.0 0.0 0.0 0.0 0.0 0.0 0.0 0.0 0.0 0.0 0.0 0.0 0.0 0.0 0.0 0.0 0.876727 0.0 0.874833 0.0 0.0 0.869054 0.869627 0.0 0.86281 0.867401 0.861463 0.0 0.864675 0.86188 0.863706 0.857099 0.857136 0.0 0.852507 0.851024 0.849803 0.848842 0.848427 0.841966 0.846076 0.844714 0.841613 0.839911 0.843011 0.838689 0.840859 0.839592 0.837727 0.833015 0.837275 0.830819 0.831066 0.83099 0.830035 0.832934 0.828005 0.827759
1.52022 1.51525 1.52514 1.51915 1.51528 1.5247 1.51676 1.52018 1.52102 1.52122 1.52051 1.51803 1.52112 1.52501 1.52374 1.52525 1.53495 1.52979 1.52055 1.52954 1.53735 1.53479 1.527 1.53438 1.53164 1.52481 1.53177 1.54131 1.543 1.08831 1.16632 1.49371 1.55659 1.53621 1.53354 1.52294 1.53069 1.53431 1.52912 1.50187 1.29605 1.04662 0.979633 0.968137 0.966026 0.95976 0.949329 0.981977 0.95643 0.923429 0.908709 0.904315 0.900488 0.894857 0.896618 0.892127 0.892069 0.889613 0.0 0.892081 0.0 0.891205 0.0 0.0 0.0 0.0 0.0 0.0 0.0 0.0 0.0 0.0 0.0 0.0 0.0 0.0 0.0 0.0 0.0 0.0 0.0 0.0 0.0 0.0 0.0 0.893377 0.0 0.894042 0.0 0.891047 0.886527 0.893386 0.0 0.897161 0.0 0.888583 0.879777 0.0 0.0 0.0 0.0 0.0 0.0 0.0 0.0 0.0 0.0 0.0 0.0 0.0 0.0 0.0 0.0 0.0 0.0 0.0 0.0 0.0 0.0 0.0 0.0 0.0 0.0 0.0 0.0 0.0 0.0 0.0 0.0 0.0 0.0 0.870564 0.0 0.869091 0.871561 0.0 0.0 0.0 0.868281 0.863309 0.861542 0.861508 0.858532 0.0 0.863882 0.858221 0.859229 0.858177 0.0 0.855133 0.85372 0.0 0.847073 0.849909 0.844371 0.843985 0.84701 0.841121 0.842363 0.843853 0.841032 0.836196 0.838437 0.832702 0.836284 0.835299 0.828643 0.832663 0.83017 0.823724 0.829566 0.828087 0.823508 0.828629 0.826197 0.822901
1.50788 1.50981 1.50365 1.51068 1.5121 1.51038 1.50579 1.51033 1.51032 1.51586 1.51628 1.51213 1.52483 1.51516 1.52296 1.52135 1.51001 1.52677 1.51441 1.51568 1.51775 1.52177 1.52461 1.52337 1.52294 1.52331 1.52595 1.52652 1.51836 1.06785 1.16406 1.49144 1.54554 1.53508 1.5263 1.52446 1.52521 1.52591 1.53828 1.52661 1.52983 1.46051 1.2156 1.00905 0.973423 0.959513 0.95912 0.954278 0.944978 0.991493 0.956433 0.92367 0.904464 0.895287 0.899423 0.889303 0.88984 0.0 0.888779 0.0 0.0 0.0 0.890903 0.885059 0.0 0.0 0.0 0.0 0.0 0.0 0.0 0.0 0.0 0.0 0.0 0.0 0.0 0.0 0.0 0.0 0.0 0.0 0.0 0.0 0.0 0.0 0.0 0.0 0.0 0.885845 0.880131 0.0 0.885433 0.888061 0.0 0.0 0.0 0.0 0.0 0.0 0.0 0.0 0.0 0.0 0.0 0.0 0.0 0.0 0.0 0.0 0.0 0.0 0.0 0.0 0.0 0.0 0.0 0.0 0.0 0.0 0.0 0.0 0.0 0.0 0.0 0.0 0.0 0.0 0.0 0.0 0.0 0.0 0.0 0.0 0.0 0.0 0.864198 0.863369 0.0 0.0 0.0 0.859257 0.86182 0.860567 0.854927 0.859155 0.856382 0.854748 0.851066 0.855172 0.0 0.845389 0.844794 0.849061 0.844383 0.839975 0.841562 0.840254 0.838632 0.837268 0.83559 0.833598 0.834982 0.830381 0.829716 0.828733 0.821242 0.829194 0.828102 0.821097 0.821061 0.819311 0.821696 0.82264 0.818828 0.816368
1.50652 1.50875 1.50178 1.50024 1.51137 1.50384 1.50093 1.5091 1.50688 1.50878 1.50415 1.50703 1.51183 1.50556 1.52015 1.51487 1.5132 1.5126 1.50795 1.51065 1.51644 1.51017 1.52132 1.52239 1.52024 1.51458 1.51981 1.52472 1.51658 1.03872 1.13104 1.49058 1.54348 1.52431 1.51699 1.51778 1.52349 1.52332 1.51493 1.51906 1.52258 1.52606 1.51542 1.42362 1.14636 0.991032 0.965042 0.955791 0.953584 0.945743 0.945255 0.99501 0.951314 0.913757 0.898054 0.89506 0.895899 0.888707 0.888616 0.887021 0.0 0.88853 0.0 0.0 0.886498 0.0 0.0 0.0 0.0 0.0 0.0 0.0 0.0 0.0 0.0 0.0 0.0 0.0 0.0 0.0 0.0 0.0 0.0 0.0 0.0 0.0 0.0 0.0 0.881836 0.0 0.885101 0.885064 0.879024 0.884642 0.878273 0.0 0.883744 0.0 0.0 0.0 0.0 0.0 0.0 0.0 0.0 0.0 0.0 0.0 0.0 0.0 0.0 0.0 0.0 0.0 0.0 0.0 0.0 0.0 0.0 0.0 0.0 0.0 0.0 0.0 0.0 0.0 0.0 0.0 0.0 0.0 0.0 0.0 0.0 0.0 0.0 0.0 0.0 0.0 0.856453 0.858506 0.85732 0.0 0.855175 0.852469 0.0 0.0 0.852067 0.0 0.0 0.849988 0.849435 0.844822 0.84566 0.842444 0.836337 0.838526 0.835243 0.831652 0.832603 0.830671 0.828996 0.833251 0.828393 0.830301 0.828215 0.821874 0.825078 0.822619 0.818449 0.818448 0.820079 0.815816 0.815694 0.817192 0.817255 0.81534
1.50263 1.48036 1.49655 1.49419 1.48897 1.49781 1.49074 1.49583 1.49948 1.50447 1.49761 1.50106 1.50361 1.50864 1.50796 1.50354 1.50641 1.50667 1.51001 1.5073 1.51539 1.50884 1.51168 1.50328 1.50056 1.50294 1.50673 1.51509 1.51794 0.991968 1.10239 1.48272 1.54254 1.51904 1.51465 1.51835 1.51065 1.5207 1.51466 1.51178 1.51442 1.51731 1.51665 1.52065 1.50582 1.37271 1.09189 0.977306 0.962153 0.954034 0.949424 0.943013 0.943371 0.98749 0.944324 0.909079 0.894815 0.887928 0.887542 0.882388 0.883151 0.886572 0.0 0.0 0.0 0.879269 0.881119 0.0 0.0 0.0 0.0 0.0 0.0 0.0 0.0 0.0 0.0 0.0 0.0 0.0 0.0 0.0 0.0 0.0 0.0 0.0 0.0 0.0 0.0 0.0 0.878678 0.0 0.878886 0.0 0.874846 0.880727 0.876425 0.0 0.0 0.0 0.881185 0.0 0.0 0.0 0.0 0.0 0.0 0.0 0.0 0.0 0.0 0.0 0.0 0.0 0.0 0.0 0.0 0.0 0.0 0.0 0.0 0.0 0.0 0.0 0.0 0.0 0.0 0.0 0.0 0.0 0.0 0.0 0.0 0.0 0.0 0.0 0.862591 0.0 0.857975 0.0 0.0 0.850912 0.0 0.0 0.850647 0.847318 0.0 0.0 0.0 0.847675 0.844237 0.84337 0.838165 0.837824 0.835448 0.833908 0.836055 0.828179 0.827416 0.829466 0.82807 0.832312 0.824904 0.82257 0.821617 0.818942 0.819891 0.821077 0.819701 0.813823 0.819072 0.814803 0.812729 0.815326 0.814275 0.809601
1.49239 1.48171 1.47943 1.48397 1.48789 1.48925 1.48608 1.48338 1.48674 1.49619 1.5 1.48662 1.49169 1.49615 1.49491 1.50039 1.50015 1.49616 1.49693 1.50021 1.50258 1.49748 1.50031 1.50023 1.49895 1.50106 1.51291 1.49362 1.44652 0.951931 1.05381 1.46847 1.53954 1.5181 1.50616 1.50754 1.50887 1.5093 1.50559 1.50973 1.51179 1.51234 1.50876 1.51159 1.50587 1.50656 1.48458 1.30068 1.04107 0.962876 0.953562 0.944508 0.942213 0.936051 0.950564 0.976023 0.928059 0.897499 0.893564 0.887235 0.885034 0.881626 0.883544 0.0 0.0 0.0 0.0 0.0 0.0 0.0 0.0 0.0 0.0 0.0 0.0 0.0 0.0 0.0 0.0 0.0 0.0 0.0 0.0 0.0 0.0 0.0 0.0 0.0 0.0 0.0 0.0 0.0 0.0 0.0 0.0 0.870708 0.875074 0.870463 0.0 0.0 0.0 0.0 0.0 0.0 0.0 0.0 0.0 0.0 0.0 0.0 0.0 0.0 0.0 0.0 0.0 0.0 0.0 0.0 0.0 0.0 0.0 0.0 0.0 0.0 0.0 0.0 0.0 0.0 0.0 0.0 0.0 0.0 0.0 0.0 0.0 0.0 0.0 0.0 0.0 0.0 0.0 0.0 0.0 0.0 0.846013 0.846163 0.84484 0.843783 0.0 0.839866 0.0 0.837295 0.837264 0.831756 0.832819 0.830703 0.829419 0.827537 0.826767 0.821137 0.824 0.821722 0.821396 0.815957 0.818949 0.81571 0.815249 0.817551 0.811981 0.812806 0.81136 0.809322 0.805033 0.807354 0.809067 0.805773
1.48376 1.47283 1.47909 1.48227 1.4757 1.47899 1.48111 1.48204 1.4843 1.48789 1.49058 1.48339 1.48003 1.49153 1.49368 1.49578 1.48253 1.49612 1.49151 1.48996 1.49404 1.49579 1.49549 1.48912 1.49816 1.5 1.48626 1.44307 1.21434 0.901269 0.985937 1.26814 1.49014 1.5145 1.50433 1.49903 1.50007 1.50195 1.50642 1.50181 1.5027 1.50413 1.50172 1.50221 1.49678 1.50511 1.49961 1.50024 1.46435 1.25111 1.01307 0.955412 0.949885 0.945215 0.936382 0.935795 0.955008 0.960016 0.919102 0.8962 0.891637 0.881119 0.878585 0.876626 0.875241 0.873838 0.874498 0.0 0.878446 0.0 0.878462 0.0 0.0 0.0 0.0 0.0 0.0 0.0 0.0 0.0 0.0 0.0 0.0 0.0 0.0 0.0 0.0 0.0 0.0 0.0 0.0 0.0 0.0 0.0 0.0 0.0 0.0 0.869694 0.0 0.865506 0.0 0.868117 0.0 0.0 0.0 0.0 0.0 0.0 0.0 0.0 0.0 0.0 0.0 0.0 0.0 0.0 0.0 0.0 0.0 0.0 0.0 0.0 0.0 0.0 0.0 0.0 0.0 0.0 0.0 0.0 0.0 0.0 0.0 0.0 0.0 0.0 0.0 0.0 0.0 0.853643 0.846627 0.0 0.84796 0.0 0.0 0.0 0.841057 0.840287 0.840934 0.0 0.836387 0.838389 0.834907 0.0 0.829312 0.829479 0.828189 0.0 0.825525 0.82415 0.815663 0.817917 0.819846 0.815251 0.816261 0.811896 0.812833 0.812329 0.807601 0.805915 0.809753 0.805767 0.805905 0.804618 0.803017 0.804673
1.48112 1.46446 1.47155 1.46288 1.48226 1.46511 1.47499 1.47899 1.47123 1.48514 1.47945 1.4818 1.48464 1.48124 1.4772 1.47703 1.4816 1.483 1.47669 1.48849 1.4812 1.48494 1.48921 1.49143 1.48846 1.49689 1.47255 1.22031 0.999618 0.895383 0.916444 0.970771 1.07729 1.46712 1.51203 1.48846 1.49038 1.49167 1.49381 1.48774 1.49767 1.49648 1.49291 1.49192 1.49588 1.49541 1.48199 1.48996 1.49114 1.49199 1.4357 1.19929 0.989358 0.955223 0.942276 0.943765 0.935482 0.92569 0.962619 0.953385 0.912721 0.894816 0.886958 0.87759 0.872945 0.87867 0.875472 0.87374 0.0 0.0 0.0 0.0 0.0 0.0 0.0 0.0 0.0 0.0 0.0 0.0 0.0 0.0 0.0 0.0 0.0 0.0 0.0 0.0 0.0 0.0 0.0 0.0 0.0 0.0 0.0 0.0 0.0 0.0 0.0 0.0 0.0 0.0 0.0 0.0 0.863968 0.0 0.0 0.0 0.0 0.0 0.0 0.0 0.0 0.0 0.0 0.0 0.0 0.0 0.0 0.0 0.0 0.0 0.0 0.0 0.0 0.0 0.0 0.0 0.0 0.0 0.0 0.0 0.0 0.0 0.0 0.0 0.0 0.0 0.0 0.0 0.0 0.0 0.0 0.0 0.0 0.841185 0.0 0.0 0.0 0.0 0.0 0.0 0.0 0.829025 0.824073 0.0 0.0 0.825612 0.818866 0.817776 0.0 0.813247 0.812633 0.81086 0.807652 0.808063 0.809275 0.807928 0.807105 0.805131 0.806455 0.801083 0.800942 0.805169 0.802453 0.798881
1.46013 1.45908 1.4626 1.46441 1.47028 1.46724 1.46134 1.46506 1.46816 1.47231 1.47277 1.4684 1.46956 1.48133 1.47506 1.47969 1.4696 1.471 1.4749 1.47705 1.47744 1.47919 1.48118 1.48541 1.48588 1.47684 1.35497 1.10517 0.95563 0.884587 0.870146 0.921189 0.9518 1.16828 1.49707 1.49731 1.4856 1.48428 1.4867 1.48705 1.48707 1.48238 1.48728 1.49244 1.48558 1.48423 1.48548 1.4867 1.48495 1.48521 1.48692 1.48358 1.40924 1.16146 0.970253 0.944613 0.937228 0.935723 0.929762 0.923184 0.955346 0.953176 0.907438 0.88594 0.880713 0.877836 0.873159 0.872024 0.870573 0.876236 0.871483 0.0 0.0 0.0 0.0 0.0 0.0 0.0 0.0 0.0 0.0 0.0 0.0 0.0 0.0 0.0 0.0 0.0 0.0 0.0 0.0 0.0 0.0 0.0 0.0 0.0 0.0 0.0 0.0 0.0 0.0 0.0 0.0 0.861022 0.857211 0.86171 0.0 0.0 0.0 0.866153 0.0 0.0 0.0 0.0 0.0 0.0 0.0 0.0 0.0 0.0 0.0 0.0 0.0 0.0 0.0 0.0 0.0 0.0 0.0 0.0 0.0 0.0 0.0 0.0 0.0 0.0 0.0 0.0 0.0 0.0 0.0 0.0 0.0 0.0 0.0 0.0 0.0 0.0 0.833883 0.0 0.831629 0.0 0.0 0.827768 0.829948 0.821834 0.0 0.818649 0.817016 0.816487 0.81649 0.811946 0.808227 0.807296 0.808576 0.804493 0.803461 0.805742 0.804911 0.806821 0.806185 0.797489 0.798998 0.797152 0.796093 0.792252
1.45332 1.45448 1.45829 1.45351 1.45248 1.45607 1.4582 1.45999 1.46031 1.46252 1.46438 1.4603 1.46258 1.46228 1.46472 1.46597 1.46773 1.4618 1.46428 1.46615 1.46938 1.46915 1.47342 1.47137 1.48154 1.47452 1.1975 1.06687 0.932113 0.872925 0.886437 0.921875 0.941489 1.0519 1.48036 1.49363 1.48165 1.48848 1.48365 1.47964 1.48024 1.47964 1.47462 1.47481 1.48169 1.4821 1.48453 1.48722 1.47932 1.47988 1.47453 1.48179 1.48196 1.4762 1.37378 1.09814 0.965496 0.940105 0.938882 0.929658 0.92691 0.916744 0.960707 0.941627 0.90207 0.883502 0.877351 0.871772 0.869435 0.870048 0.863221 0.0 0.0 0.0 0.0 0.868326 0.0 0.0 0.0 0.0 0.0 0.0 0.0 0.0 0.0 0.0 0.0 0.0 0.0 0.0 0.0 0.0 0.0 0.0 0.0 0.0 0.0 0.0 0.0 0.0 0.0 0.0 0.0 0.0 0.0 0.856427 0.850807 0.0 0.0 0.0 0.0 0.0 0.0 0.0 0.0 0.0 0.0 0.0 0.0 0.0 0.0 0.0 0.0 0.0 0.0 0.0 0.0 0.0 0.0 0.0 0.0 0.0 0.0 0.0 0.0 0.0 0.0 0.0 0.0 0.0 0.840721 0.0 0.0 0.838442 0.837442 0.0 0.0 0.0 0.0 0.0 0.0 0.0 0.820566 0.819924 0.819253 0.816846 0.818961 0.0 0.811179 0.815456 0.0 0.81062 0.804366 0.809046 0.799942 0.798386 0.799867 0.797125 0.796857 0.800986 0.794815 0.791666 0.794549 0.792701 0.794656 0.79163
1.45084 1.43371 1.43613 1.43518 1.44376 1.45038 1.45142 1.44518 1.44855 1.4527 1.45735 1.46055 1.45837 1.45864 1.45127 1.46208 1.46103 1.45935 1.46496 1.46542 1.46271 1.45396 1.46647 1.46927 1.46889 1.27382 1.10419 1.02318 0.892837 0.882816 0.87648 0.932328 0.984824 1.29386 1.43358 1.48819 1.47652 1.47116 1.47387 1.46871 1.47397 1.469 1.47244 1.47556 1.47572 1.48052 1.47769 1.47364 1.476 1.47159 1.47329 1.47379 1.46397 1.47263 1.47302 1.46485 1.34406 1.08274 0.953859 0.940229 0.935425 0.922322 0.925743 0.916725 0.955028 0.938576 0.8981 0.879796 0.873613 0.868891 0.868005 0.864728 0.865291 0.0 0.0 0.867476 0.0 0.0 0.0 0.0 0.0 0.0 0.0 0.0 0.0 0.0 0.0 0.0 0.0 0.0 0.0 0.0 0.0 0.0 0.0 0.0 0.0 0.0 0.0 0.0 0.0 0.0 0.0 0.0 0.0 0.0 0.0 0.0 0.0 0.850825 0.851373 0.851608 0.0 0.851138 0.0 0.0 0.0 0.0 0.0 0.0 0.0 0.0 0.0 0.0 0.0 0.0 0.0 0.0 0.0 0.0 0.0 0.0 0.0 0.0 0.0 0.0 0.0 0.0 0.0 0.0 0.840644 0.0 0.0 0.0 0.0 0.0 0.832093 0.0 0.0 0.820197 0.0 0.0 0.819277 0.814638 0.817382 0.811845 0.812252 0.813475 0.807591 0.809881 0.807338 0.804768 0.805823 0.80067 0.799417 0.793383 0.795139 0.795735 0.792125 0.793199 0.792567 0.794377 0.792834 0.792625 0.789906 0.789613
1.43225 1.43014 1.43694 1.43766 1.44325 1.4452 1.43687 1.45304 1.44231 1.44175 1.45223 1.44401 1.4449 1.44685 1.44369 1.45225 1.45599 1.45799 1.4588 1.45531 1.46026 1.45182 1.4649 1.45519 1.39551 1.11267 1.01592 0.927458 0.868532 0.869119 0.918825 0.950785 1.10294 1.40225 1.46888 1.47924 1.46498 1.46078 1.46756 1.46415 1.46505 1.46882 1.46207 1.46256 1.4636 1.46898 1.47053 1.47117 1.46768 1.46268 1.46615 1.47105 1.47005 1.4696 1.46559 1.46979 1.46217 1.45423 1.31626 1.05338 0.946849 0.930521 0.926562 0.924649 0.919463 0.914253 0.958138 0.931886 0.890198 0.878675 0.867128 0.860595 0.862047 0.861407 0.0 0.862155 0.0 0.0 0.860038 0.0 0.0 0.0 0.0 0.0 0.0 0.0 0.0 0.0 0.0 0.0 0.0 0.0 0.0 0.0 0.0 0.0 0.0 0.0 0.0 0.0 0.0 0.0 0.0 0.0 0.0 0.0 0.0 0.0 0.0 0.850848 0.84873 0.842752 0.850954 0.0 0.845424 0.848247 0.0 0.0 0.0 0.0 0.0 0.0 0.0 0.0 0.0 0.0 0.0 0.0 0.0 0.0 0.0 0.0 0.0 0.0 0.0 0.0 0.0 0.0 0.0 0.0 0.0 0.0 0.834882 0.0 0.0 0.0 0.827358 0.0 0.0 0.0 0.0 0.815166 0.81882 0.817024 0.0 0.0 0.812617 0.808169 0.804268 0.801474 0.803159 0.802837 0.803041 0.799847 0.796629 0.793664 0.79262 0.791541 0.788763 0.785956 0.786707 0.784658 0.785047 0.783745 0.788146 0.784023
1.42996 1.43032 1.42514 1.41874 1.43116 1.43174 1.43416 1.43679 1.43659 1.43493 1.43319 1.44111 1.44229 1.43867 1.44308 1.44379 1.44219 1.44447 1.44894 1.44547 1.44192 1.44793 1.45135 1.44222 1.28014 0.981242 0.87017 0.857103 0.0 0.889256 0.93951 0.988713 1.30966 1.40662 1.4729 1.46161 1.46152 1.45589 1.44702 1.4613 1.45785 1.45813 1.45255 1.45974 1.46603 1.46208 1.44992 1.46457 1.46109 1.46547 1.46191 1.46007 1.46757 1.4686 1.46108 1.46145 1.46032 1.46209 1.46207 1.447 1.29305 1.03511 0.941813 0.926629 0.922338 0.922161 0.907777 0.907852 0.956423 0.926887 0.896129 0.87155 0.863528 0.864965 0.860755 0.85623 0.0 0.862251 0.0 0.85753 0.0 0.0 0.0 0.0 0.0 0.0 0.0 0.0 0.0 0.0 0.0 0.0 0.0 0.0 0.0 0.0 0.0 0.0 0.0 0.0 0.0 0.0 0.0 0.0 0.0 0.0 0.0 0.0 0.0 0.0 0.0 0.0 0.842677 0.0 0.0 0.838797 0.835112 0.0 0.842426 0.0 0.0 0.0 0.0 0.0 0.0 0.0 0.0 0.0 0.0 0.0 0.0 0.0 0.0 0.0 0.0 0.0 0.0 0.0 0.0 0.0 0.0 0.0 0.0 0.0 0.0 0.0 0.0 0.0 0.818713 0.817018 0.813585 0.0 0.0 0.809141 0.809312 0.0 0.807575 0.803414 0.801489 0.799819 0.799525 0.792183 0.797715 0.795922 0.793261 0.794193 0.789801 0.788161 0.78289 0.781466 0.778628 0.78236 0.786031 0.77705 0.784721 0.787133
1.42707 1.42039 1.41631 1.42168 1.43028 1.41908 1.43085 1.4266 1.42889 1.43057 1.43383 1.43121 1.43323 1.43882 1.44577 1.43894 1.44073 1.44218 1.45258 1.45364 1.45352 1.45448 1.44885 1.44855 1.34925 0.971418 0.87075 0.0 0.852041 0.911319 0.969002 1.16717 1.34827 1.48575 1.4711 1.45118 1.45283 1.45501 1.45861 1.45261 1.45642 1.45729 1.45754 1.45078 1.45415 1.45108 1.45526 1.45474 1.45535 1.45826 1.45793 1.45756 1.45247 1.46111 1.45595 1.46014 1.45196 1.45932 1.45048 1.4522 1.45506 1.43816 1.28092 1.02176 0.934623 0.923534 0.918322 0.91545 0.909898 0.909349 0.951069 0.92062 0.886879 0.86938 0.865178 0.856514 0.857013 0.857791 0.859739 0.0 0.0 0.855706 0.0 0.0 0.0 0.0 0.0 0.0 0.0 0.0 0.0 0.0 0.0 0.0 0.0 0.0 0.0 0.0 0.0 0.0 0.0 0.0 0.0 0.0 0.0 0.0 0.0 0.0 0.0 0.0 0.0 0.0 0.0 0.0 0.841262 0.0 0.83185 0.8361 0.0 0.0 0.0 0.837017 0.0 0.0 0.0 0.0 0.0 0.0 0.0 0.0 0.0 0.0 0.0 0.0 0.0 0.0 0.0 0.0 0.0 0.0 0.0 0.0 0.0 0.0 0.0 0.0 0.81899 0.0 0.0 0.0 0.0 0.0 0.0 0.0 0.806527 0.802696 0.0 0.802028 0.796999 0.795889 0.792223 0.792738 0.791257 0.788349 0.791823 0.786347 0.784739 0.781991 0.785293 0.780819 0.779073 0.772076 0.779036 0.781001 0.781001 0.77742
1.41276 1.41341 1.4205 1.41554 1.42196 1.42558 1.41815 1.41832 1.42365 1.42312 1.42584 1.42822 1.42804 1.42778 1.42467 1.4307 1.42829 1.42356 1.42241 1.42823 1.45066 1.45304 1.44602 1.40038 1.14612 0.964999 0.907181 0.882814 0.8949 0.944733 1.05193 1.07881 1.01157 1.32954 1.46926 1.44938 1.45074 1.44226 1.44353 1.44506 1.44655 1.44163 1.44042 1.44993 1.44633 1.44763 1.44686 1.44022 1.44754 1.44899 1.44953 1.45209 1.4473 1.45565 1.45694 1.44794 1.44916 1.45153 1.45004 1.44765 1.44904 1.44834 1.44938 1.42889 1.26807 1.00596 0.928821 0.922123 0.914516 0.914562 0.905138 0.899235 0.944151 0.928168 0.882582 0.865058 0.859938 0.855982 0.854672 0.854826 0.854668 0.0 0.0 0.0 0.0 0.0 0.0 0.0 0.0 0.0 0.0 0.0 0.0 0.0 0.0 0.0 0.0 0.0 0.0 0.0 0.0 0.0 0.0 0.0 0.0 0.0 0.0 0.0 0.0 0.0 0.0 0.0 0.0 0.0 0.0 0.0 0.0 0.835461 0.830279 0.828022 0.829564 0.825219 0.828189 0.0 0.0 0.0 0.0 0.0 0.0 0.0 0.0 0.0 0.0 0.0 0.0 0.0 0.0 0.0 0.0 0.0 0.0 0.0 0.0 0.0 0.0 0.0 0.0 0.816848 0.0 0.0 0.0 0.80742 0.0 0.804698 0.802305 0.0 0.798012 0.796391 0.796149 0.792784 0.791079 0.789064 0.787859 0.781325 0.78396 0.784881 0.783264 0.781615 0.779656 0.771606 0.771517 0.770837 0.778048 0.766354 0.764196 0.77422
1.40736 1.39556 1.41268 1.41155 1.40678 1.41039 1.40708 1.40697 1.41312 1.4126 1.4156 1.41937 1.42002 1.4092 1.4164 1.41685 1.42339 1.36346 1.06765 1.06979 1.206 1.27686 1.31001 1.09097 0.976682 0.946352 0.913907 0.906681 0.941039 1.09083 1.16435 0.949125 0.884401 0.921383 1.24236 1.44753 1.43969 1.45111 1.44115 1.43777 1.4358 1.43667 1.43779 1.43859 1.43703 1.43542 1.44134 1.43821 1.43999 1.44086 1.43995 1.44309 1.4421 1.44401 1.44384 1.43865 1.44691 1.44752 1.43753 1.446 1.43858 1.43936 1.44216 1.4417 1.43973 1.41683 1.25305 1.01394 0.926175 0.913545 0.91387 0.91034 0.904723 0.898789 0.943648 0.92823 0.888549 0.867162 0.856395 0.853593 0.848999 0.852966 0.851593 0.0 0.0 0.0 0.0 0.0 0.0 0.0 0.0 0.0 0.0 0.0 0.0 0.0 0.0 0.0 0.0 0.0 0.0 0.0 0.0 0.0 0.0 0.0 0.0 0.0 0.0 0.0 0.0 0.0 0.0 0.0 0.0 0.0 0.0 0.0 0.0 0.0 0.828606 0.0 0.823128 0.82256 0.821096 0.0 0.0 0.824477 0.0 0.0 0.0 0.0 0.0 0.0 0.0 0.0 0.0 0.0 0.0 0.0 0.0 0.0 0.0 0.0 0.0 0.0 0.0 0.80976 0.0 0.0 0.0 0.806028 0.0 0.0 0.80146 0.0 0.797153 0.790178 0.0 0.786013 0.785989 0.784533 0.782209 0.780415 0.782201 0.779506 0.781762 0.776515 0.772351 0.773387 0.776022 0.769571 0.769657 0.767792 0.767249 0.764763
1.40541 1.3888 1.39749 1.40207 1.40821 1.40475 1.39216 1.40329 1.4089 1.4095 1.40727 1.40384 1.40505 1.4173 1.41923 1.4211 1.40783 1.30348 0.956153 0.903898 0.909945 0.929221 0.998765 0.996965 1.05685 0.975364 0.935351 0.927608 1.08841 1.24563 1.27586 1.27754 0.88923 0.0 0.891438 1.10054 1.40877 1.44002 1.44017 1.43681 1.43224 1.42734 1.43136 1.43013 1.43322 1.4354 1.43493 1.43558 1.43358 1.43271 1.43472 1.43465 1.43659 1.43294 1.43511 1.43666 1.43701 1.43088 1.43497 1.43523 1.43545 1.44503 1.43785 1.43064 1.43691 1.43315 1.43496 1.40817 1.23732 1.00738 0.926389 0.914909 0.904288 0.897773 0.895663 0.895305 0.927112 0.928793 0.887333 0.863565 0.851888 0.850533 0.849753 0.844818 0.0 0.0 0.0 0.844129 0.0 0.848272 0.0 0.0 0.0 0.0 0.0 0.0 0.0 0.0 0.0 0.0 0.0 0.0 0.0 0.0 0.0 0.0 0.0 0.0 0.0 0.0 0.0 0.0 0.0 0.0 0.0 0.0 0.0 0.0 0.0 0.0 0.827334 0.0 0.0 0.8207 0.820987 0.82067 0.0 0.0 0.0 0.0 0.0 0.0 0.0 0.0 0.0 0.0 0.0 0.0 0.0 0.0 0.0 0.0 0.0 0.0 0.0 0.0 0.0 0.0 0.0 0.0 0.0 0.0 0.800841 0.79366 0.798611 0.0 0.0 0.787044 0.783989 0.789591 0.784518 0.782217 0.78128 0.778365 0.777642 0.771348 0.774708 0.773053 0.768338 0.766073 0.765144 0.765543 0.760716 0.766473 0.76673 0.761528
1.3886 1.3828 1.38906 1.38686 1.39109 1.39552 1.3887 1.39792 1.40491 1.39562 1.40772 1.40019 1.40168 1.40534 1.4056 1.40524 1.4023 1.40293 1.33489 1.19953 0.991456 0.917427 0.902306 0.987884 1.08161 1.09487 0.982508 0.977696 1.23704 1.40736 1.41868 1.4157 1.37807 0.980456 0.0 0.0 0.964461 1.3202 1.4354 1.44156 1.43096 1.42117 1.42721 1.42889 1.42329 1.42952 1.42906 1.42653 1.43035 1.43035 1.43091 1.42822 1.43133 1.42653 1.43045 1.4285 1.42592 1.43034 1.42858 1.42649 1.42993 1.43276 1.43381 1.42866 1.43052 1.43059 1.43063 1.43271 1.42445 1.40939 1.24739 1.00073 0.919737 0.907048 0.904355 0.89722 0.893604 0.892032 0.926732 0.933099 0.886031 0.862545 0.855864 0.851231 0.840971 0.0 0.839594 0.84021 0.0 0.0 0.0 0.0 0.0 0.0 0.0 0.0 0.0 0.0 0.0 0.0 0.0 0.0 0.0 0.0 0.0 0.0 0.0 0.0 0.0 0.0 0.0 0.0 0.0 0.0 0.0 0.0 0.0 0.0 0.0 0.0 0.0 0.0 0.0 0.821738 0.0 0.817034 0.810581 0.816921 0.816253 0.813241 0.813115 0.814419 0.811063 0.816664 0.0 0.0 0.0 0.0 0.813924 0.0 0.0 0.0 0.0 0.0 0.0 0.0 0.0 0.0 0.0 0.0 0.0 0.0 0.0 0.794474 0.0 0.788807 0.0 0.785853 0.784473 0.781386 0.77995 0.774305 0.77365 0.772405 0.773343 0.768435 0.769024 0.766267 0.765679 0.764504 0.765478 0.760949 0.760751 0.762681 0.763471 0.754488
1.38147 1.38324 1.37709 1.38518 1.38427 1.3879 1.38792 1.38785 1.38744 1.39079 1.3839 1.39787 1.39496 1.39225 1.39779 1.39883 1.39841 1.40044 1.39292 1.3839 1.32963 1.09923 0.938937 0.890562 0.912017 1.04265 1.06659 0.980246 1.23526 1.44488 1.43034 1.41941 1.40984 1.39247 1.18668 0.901828 0.0 0.909679 1.19567 1.4169 1.43569 1.42823 1.41956 1.42008 1.42144 1.42217 1.41418 1.41658 1.4201 1.41895 1.423 1.41682 1.41789 1.423 1.41555 1.42585 1.42884 1.42244 1.42683 1.42445 1.41883 1.42253 1.42006 1.42518 1.42704 1.42624 1.41835 1.4216 1.41747 1.42271 1.42528 1.40489 1.25674 1.01576 0.919479 0.904996 0.89962 0.895401 0.888217 0.884844 0.91506 0.929935 0.888476 0.863209 0.851193 0.846238 0.842151 0.843651 0.842186 0.0 0.0 0.0 0.0 0.0 0.0 0.0 0.0 0.0 0.0 0.0 0.0 0.0 0.0 0.0 0.0 0.0 0.0 0.0 0.0 0.0 0.0 0.0 0.0 0.0 0.0 0.0 0.0 0.0 0.0 0.0 0.0 0.0 0.0 0.0 0.0 0.0 0.814497 0.0 0.812885 0.810744 0.810325 0.805541 0.809425 0.0 0.804109 0.80907 0.0 0.807377 0.0 0.0 0.0 0.804872 0.806764 0.0 0.0 0.0 0.0 0.0 0.0 0.0 0.0 0.792365 0.0 0.0 0.78947 0.784794 0.785713 0.0 0.0 0.78127 0.772301 0.771394 0.772952 0.768095 0.765431 0.763292 0.766078 0.765516 0.764092 0.76318 0.762775 0.752798 0.757221 0.755887 0.762081 0.75256
1.37456 1.36719 1.37292 1.37804 1.38067 1.37589 1.37673 1.38322 1.38611 1.38646 1.38812 1.38806 1.39068 1.38717 1.39215 1.38238 1.39948 1.39652 1.39684 1.39765 1.39196 1.33121 1.01588 0.89989 0.830849 0.967949 1.06867 0.926967 1.20083 1.4033 1.41547 1.40854 1.4101 1.40819 1.40109 1.34212 0.931141 0.0 0.0 1.04958 1.37417 1.42428 1.42313 1.41357 1.40799 1.4174 1.41261 1.41356 1.40781 1.41363 1.41332 1.41529 1.41084 1.42119 1.41958 1.41472 1.4142 1.4119 1.40898 1.42034 1.41034 1.41755 1.41831 1.42049 1.41533 1.41452 1.41955 1.41517 1.41105 1.41159 1.41034 1.40818 1.40834 1.39495 1.26743 1.02274 0.920601 0.902563 0.894801 0.893201 0.887167 0.883469 0.899191 0.92845 0.893771 0.862311 0.847034 0.842936 0.837937 0.837046 0.0 0.837279 0.0 0.835975 0.0 0.0 0.0 0.0 0.0 0.0 0.0 0.0 0.0 0.0 0.0 0.0 0.0 0.0 0.0 0.0 0.0 0.0 0.0 0.0 0.0 0.0 0.0 0.0 0.0 0.0 0.0 0.0 0.0 0.0 0.0 0.0 0.0 0.0 0.0 0.0 0.805489 0.802445 0.0 0.802371 0.802733 0.0 0.0 0.794191 0.802798 0.0 0.0 0.0 0.0 0.796049 0.799309 0.0 0.0 0.0 0.796673 0.0 0.792084 0.0 0.786838 0.78587 0.781501 0.780482 0.786997 0.776676 0.775571 0.774156 0.0 0.766238 0.767789 0.765702 0.761101 0.764469 0.763659 0.761442 0.757824 0.761281 0.759502 0.756329 0.755024 0.753951 0.752836 0.751949
1.36332 1.36189 1.36116 1.36223 1.36539 1.37444 1.37204 1.37091 1.36697 1.37552 1.3791 1.37657 1.38443 1.39059 1.37984 1.38505 1.39216 1.39005 1.39149 1.39092 1.39029 1.38063 1.29905 1.03674 0.958465 1.0031 1.07889 1.19926 1.29218 1.41113 1.404 1.39993 1.3958 1.39902 1.39907 1.39964 1.38014 1.07641 0.908155 0.0 0.946933 1.26121 1.41801 1.4223 1.41213 1.40739 1.4107 1.4108 1.40565 1.40653 1.40855 1.40559 1.41015 1.41003 1.41104 1.41114 1.40859 1.41242 1.41213 1.40743 1.40066 1.40991 1.40891 1.41168 1.41237 1.41333 1.40782 1.40813 1.41163 1.40221 1.41094 1.40468 1.40631 1.40703 1.40831 1.40281 1.27797 1.03548 0.917218 0.899454 0.895193 0.886208 0.886616 0.88024 0.896207 0.92334 0.896021 0.860736 0.849564 0.84014 0.836586 0.832428 0.830313 0.0 0.832214 0.0 0.0 0.0 0.0 0.0 0.0 0.0 0.0 0.0 0.0 0.0 0.0 0.0 0.0 0.0 0.0 0.0 0.0 0.0 0.0 0.0 0.0 0.0 0.0 0.0 0.0 0.0 0.0 0.0 0.0 0.0 0.0 0.0 0.0 0.0 0.0 0.80193 0.0 0.798384 0.797015 0.797927 0.79709 0.793073 0.791909 0.0 0.0 0.79429 0.795886 0.0 0.0 0.0 0.793729 0.0 0.0 0.789502 0.0 0.78402 0.784202 0.0 0.786156 0.778113 0.0 0.774297 0.0 0.772041 0.768367 0.764948 0.762888 0.762457 0.759784 0.759009 0.756002 0.757622 0.755916 0.75472 0.752943 0.749231 0.751447 0.752526 0.75113 0.751036
1.3518 1.35546 1.35797 1.35665 1.36009 1.36535 1.37463 1.3624 1.36965 1.37276 1.36458 1.37056 1.37017 1.37687 1.38601 1.37853 1.38092 1.38243 1.38388 1.37914 1.37963 1.37978 1.37202 1.29292 1.00808 1.00264 1.14711 1.32951 1.41232 1.39906 1.39591 1.38958 1.39342 1.39466 1.39643 1.39501 1.39126 1.38889 1.28797 0.919895 0.0 0.898607 1.09307 1.38778 1.42284 1.40631 1.40125 1.40251 1.3936 1.39565 1.39592 1.39297 1.39839 1.40524 1.40538 1.40549 1.40353 1.39833 1.403 1.40501 1.40233 1.40516 1.40183 1.40548 1.40179 1.40625 1.40894 1.39872 1.40134 1.40716 1.4027 1.40876 1.40512 1.40086 1.40097 1.40105 1.3967 1.39437 1.29894 1.06307 0.918153 0.898314 0.88991 0.881486 0.879215 0.876338 0.8852 0.92226 0.897582 0.864951 0.84553 0.838143 0.828978 0.835077 0.831463 0.830771 0.829769 0.829632 0.825074 0.829309 0.0 0.0 0.0 0.0 0.0 0.0 0.0 0.0 0.0 0.0 0.0 0.0 0.0 0.0 0.0 0.0 0.0 0.0 0.0 0.0 0.0 0.0 0.0 0.0 0.0 0.0 0.0 0.0 0.0 0.0 0.0 0.0 0.0 0.798987 0.795311 0.794205 0.793078 0.787917 0.790762 0.789571 0.788644 0.78798 0.785866 0.786294 0.0 0.786783 0.0 0.0 0.781509 0.0 0.77919 0.777991 0.777608 0.0 0.0 0.0 0.770748 0.769941 0.770216 0.7674 0.764281 0.760862 0.757419 0.758362 0.758438 0.75271 0.755732 0.754601 0.749616 0.748148 0.747458 0.743208 0.749468 0.743526 0.741868 0.745801
1.34265 1.34471 1.35018 1.35478 1.35716 1.34975 1.35495 1.36063 1.35973 1.36339 1.37382 1.35957 1.3644 1.36313 1.3684 1.37086 1.3669 1.37062 1.37429 1.3768 1.37647 1.3705 1.37031 1.35915 1.13438 1.0693 1.19677 1.3553 1.41151 1.39206 1.38468 1.38233 1.38333 1.386 1.39261 1.38608 1.38833 1.38969 1.37928 1.36537 1.02414 0.915657 0.0 0.966981 1.29421 1.41439 1.4059 1.39707 1.39656 1.39746 1.38994 1.39163 1.39184 1.39433 1.39825 1.39488 1.39582 1.39732 1.395 1.40051 1.39318 1.39951 1.39997 1.39662 1.39644 1.39244 1.39716 1.39777 1.39864 1.39714 1.40146 1.39522 1.40301 1.39202 1.39418 1.39338 1.39314 1.39464 1.39112 1.39167 1.31358 1.09197 0.930435 0.893855 0.888947 0.883727 0.878489 0.874994 0.884397 0.916679 0.897281 0.858201 0.841415 0.836353 0.830982 0.830876 0.829875 0.822697 0.0 0.822961 0.0 0.0 0.0 0.0 0.0 0.0 0.0 0.0 0.0 0.0 0.0 0.0 0.0 0.0 0.0 0.0 0.0 0.0 0.0 0.0 0.0 0.0 0.0 0.0 0.0 0.0 0.0 0.0 0.0 0.0 0.0 0.0 0.0 0.0 0.0 0.0 0.791629 0.0 0.788445 0.784965 0.784036 0.783939 0.783247 0.7831 0.781791 0.777906 0.780234 0.778569 0.777445 0.776013 0.777935 0.0 0.775775 0.771151 0.771266 0.769114 0.771119 0.765846 0.761947 0.762742 0.755749 0.760072 0.755794 0.754523 0.753218 0.751058 0.748594 0.747737 0.747659 0.746181 0.742771 0.743928 0.74099 0.742054 0.740116 0.744294
1.3372 1.32727 1.3386 1.34749 1.34935 1.3514 1.34743 1.35718 1.35387 1.35454 1.35541 1.34528 1.35887 1.36201 1.35932 1.36261 1.36612 1.36903 1.36108 1.36386 1.36576 1.36732 1.36269 1.35827 1.29159 1.05799 1.20239 1.3531 1.39372 1.38898 1.37654 1.37958 1.37521 1.37305 1.38675 1.38451 1.37966 1.37645 1.38234 1.37733 1.3654 1.22565 0.910665 0.0 0.896987 1.1423 1.38747 1.41264 1.39024 1.39086 1.38161 1.38822 1.38439 1.39064 1.39543 1.39613 1.39389 1.38959 1.39048 1.39104 1.39361 1.39266 1.39109 1.3857 1.38319 1.39144 1.39208 1.39094 1.39181 1.39236 1.38791 1.39338 1.38945 1.39223 1.38824 1.38891 1.38985 1.38753 1.37494 1.38692 1.3895 1.38151 1.32542 1.13536 0.946403 0.894587 0.882614 0.878831 0.877669 0.866522 0.866791 0.904271 0.896882 0.867201 0.844836 0.831835 0.825853 0.823957 0.822338 0.0 0.0 0.0 0.825944 0.0 0.0 0.0 0.0 0.0 0.0 0.0 0.0 0.0 0.0 0.0 0.0 0.0 0.0 0.0 0.0 0.0 0.0 0.0 0.0 0.0 0.0 0.0 0.0 0.0 0.0 0.0 0.0 0.0 0.0 0.0 0.0 0.0 0.0 0.785567 0.782108 0.784051 0.777987 0.781872 0.776912 0.773073 0.781407 0.773556 0.773331 0.773926 0.772518 0.771366 0.767939 0.772351 0.76579 0.765654 0.0 0.759431 0.76227 0.762288 0.760607 0.755022 0.753014 0.751253 0.75194 0.753135 0.75045 0.747736 0.746632 0.746854 0.744316 0.743102 0.742933 0.741911 0.744885 0.744577 0.742617 0.742755
1.33622 1.33486 1.32967 1.32945 1.34122 1.33709 1.34581 1.34368 1.34877 1.34864 1.35226 1.35226 1.34782 1.35425 1.35377 1.35487 1.35398 1.3638 1.36666 1.3606 1.35474 1.36438 1.35949 1.35342 1.34251 1.25365 1.2705 1.36377 1.39255 1.37486 1.37373 1.36774 1.36621 1.36973 1.37292 1.37324 1.37266 1.37659 1.3725 1.3735 1.37017 1.36593 1.34676 0.99706 0.918592 0.0 0.997963 1.32541 1.40318 1.39344 1.38509 1.38188 1.37835 1.38229 1.38245 1.37851 1.37917 1.38676 1.3804 1.383 1.37976 1.38578 1.37869 1.38786 1.38507 1.38312 1.38842 1.38291 1.38291 1.39046 1.38545 1.38506 1.37998 1.38567 1.37527 1.38032 1.38506 1.38626 1.38684 1.3874 1.38179 1.38434 1.38774 1.37619 1.33475 1.17061 0.969844 0.893755 0.882934 0.87268 0.872948 0.864709 0.863772 0.88477 0.903113 0.867003 0.841127 0.832794 0.820937 0.823104 0.827008 0.818033 0.0 0.818157 0.820237 0.0 0.0 0.0 0.0 0.0 0.0 0.0 0.0 0.0 0.0 0.0 0.0 0.0 0.0 0.0 0.0 0.0 0.0 0.0 0.0 0.0 0.0 0.0 0.0 0.0 0.0 0.0 0.0 0.0 0.0 0.0 0.0 0.0 0.0 0.0 0.781599 0.780066 0.771985 0.7741 0.77307 0.772298 0.767831 0.768703 0.763353 0.767545 0.766924 0.762913 0.760002 0.760142 0.757182 0.757262 0.757587 0.75538 0.756746 0.752545 0.751358 0.748488 0.746142 0.748153 0.749024 0.744665 0.744915 0.740774 0.739594 0.739187 0.73793 0.738519 0.735838 0.737141 0.73759 0.737455
1.32271 1.31631 1.3231 1.32718 1.3328 1.33218 1.34036 1.3369 1.34389 1.33457 1.33764 1.34172 1.34822 1.3429 1.34572 1.34958 1.34623 1.35548 1.35476 1.35841 1.35119 1.35499 1.35625 1.35494 1.35692 1.34487 1.34841 1.36817 1.37109 1.36721 1.36158 1.36237 1.35916 1.36438 1.36503 1.36961 1.37018 1.37042 1.36919 1.36935 1.36917 1.36838 1.37155 1.35981 1.20277 0.919516 0.0 0.91062 1.16819 1.38014 1.39139 1.38359 1.38382 1.37363 1.37379 1.37246 1.37313 1.37405 1.37842 1.38073 1.3775 1.38294 1.38196 1.38299 1.37527 1.3803 1.376 1.3772 1.37661 1.37775 1.38235 1.37848 1.37428 1.37297 1.37658 1.37463 1.38052 1.37647 1.37735 1.37586 1.3723 1.38128 1.37386 1.37869 1.37327 1.37161 1.35502 1.21326 1.00481 0.90803 0.879645 0.879603 0.869896 0.864557 0.866801 0.875456 0.903083 0.869333 0.839667 0.832481 0.826449 0.821278 0.820762 0.817896 0.817638 0.0 0.813866 0.0 0.0 0.0 0.0 0.0 0.0 0.0 0.0 0.0 0.0 0.0 0.0 0.0 0.0 0.0 0.0 0.0 0.0 0.0 0.0 0.0 0.0 0.0 0.0 0.0 0.0 0.0 0.0 0.0 0.0 0.0 0.0 0.0 0.0 0.0 0.0 0.773395 0.76614 0.766779 0.769361 0.763184 0.765988 0.764266 0.759437 0.759627 0.756994 0.755453 0.751658 0.751734 0.749003 0.749293 0.749825 0.750043 0.748573 0.744599 0.743346 0.742334 0.740742 0.741296 0.739905 0.740649 0.738641 0.735251 0.739104 0.737253 0.734829 0.737716 0.739209 0.732669
1.31501 1.30996 1.31597 1.31418 1.31605 1.32668 1.31875 1.32524 1.32818 1.32942 1.33467 1.33578 1.33329 1.33754 1.339 1.33821 1.34256 1.34466 1.34257 1.34732 1.34925 1.34891 1.34657 1.34777 1.35087 1.35197 1.3575 1.35626 1.3589 1.35531 1.35532 1.35246 1.36449 1.35673 1.36474 1.36593 1.35688 1.35683 1.36044 1.36088 1.36812 1.36278 1.36339 1.35853 1.35275 1.32174 0.996334 0.914088 0.890804 1.00279 1.32716 1.39013 1.38347 1.37676 1.36366 1.37042 1.37196 1.37231 1.37292 1.37407 1.37462 1.37339 1.373 1.37316 1.37329 1.37367 1.37403 1.37552 1.36767 1.36881 1.36991 1.3707 1.3703 1.37161 1.37085 1.36803 1.36838 1.36899 1.36987 1.36956 1.37125 1.37409 1.36669 1.36713 1.37193 1.36473 1.36773 1.36719 1.36166 1.27376 1.08892 0.931796 0.881228 0.872393 0.87434 0.862553 0.860963 0.868693 0.893903 0.884381 0.850646 0.831192 0.828049 0.819064 0.81298 0.815034 0.809793 0.814139 0.0 0.0 0.0 0.0 0.0 0.0 0.0 0.0 0.0 0.0 0.0 0.0 0.0 0.0 0.0 0.0 0.0 0.0 0.0 0.0 0.0 0.0 0.0 0.0 0.0 0.0 0.0 0.0 0.0 0.0 0.0 0.0 0.0 0.0 0.0 0.0 0.0 0.0 0.762696 0.764675 0.757082 0.763485 0.757815 0.760508 0.755635 0.753808 0.753621 0.74952 0.748445 0.748445 0.748686 0.74779 0.747136 0.745626 0.743263 0.738413 0.738451 0.735185 0.739219 0.73778 0.734145 0.734795 0.735666 0.734344 0.735122 0.735049 0.734397 0.733965
1.30516 1.31442 1.31091 1.30995 1.31611 1.31632 1.31887 1.31007 1.32188 1.31882 1.32867 1.32437 1.32678 1.33077 1.33279 1.3383 1.33308 1.34014 1.33229 1.35358 1.33759 1.34223 1.34739 1.34501 1.33923 1.34479 1.34361 1.35272 1.34585 1.3476 1.3493 1.35152 1.35313 1.35385 1.34831 1.35148 1.35432 1.35401 1.35847 1.35154 1.36133 1.35317 1.36033 1.35377 1.35716 1.35222 1.34637 1.20417 0.918351 0.0 0.918238 1.16442 1.38623 1.38127 1.36964 1.36315 1.36354 1.36966 1.36219 1.36277 1.36244 1.3644 1.36402 1.36447 1.36054 1.36527 1.36505 1.36567 1.3648 1.36681 1.3656 1.36842 1.3686 1.36875 1.3648 1.36518 1.36554 1.36703 1.36296 1.36759 1.36201 1.36484 1.36182 1.36518 1.36444 1.36512 1.36344 1.36057 1.36496 1.36495 1.35908 1.30625 1.13154 0.942846 0.8862 0.872678 0.865844 0.867734 0.859119 0.858061 0.87591 0.890239 0.866422 0.844056 0.832153 0.824602 0.812388 0.812947 0.810874 0.807624 0.0 0.0 0.0 0.0 0.0 0.0 0.0 0.0 0.0 0.0 0.0 0.0 0.0 0.0 0.0 0.0 0.0 0.0 0.0 0.0 0.0 0.0 0.0 0.0 0.0 0.0 0.0 0.0 0.0 0.0 0.0 0.0 0.0 0.0 0.0 0.0 0.0 0.0 0.755453 0.754287 0.753095 0.754942 0.754247 0.747968 0.751937 0.746172 0.747025 0.74591 0.745039 0.742488 0.742653 0.741686 0.739865 0.741285 0.73586 0.738017 0.73525 0.732184 0.732863 0.734034 0.736496 0.731142 0.730306 0.728096 0.734079 0.730186
1.29054 1.29608 1.3021 1.30408 1.30811 1.30541 1.31224 1.31446 1.31958 1.3179 1.32613 1.31159 1.32593 1.32532 1.32081 1.33096 1.32987 1.32323 1.3283 1.32865 1.33418 1.33607 1.33376 1.33776 1.34533 1.33951 1.34114 1.33882 1.34313 1.33902 1.33708 1.34687 1.34906 1.34388 1.35188 1.34999 1.35228 1.35 1.35277 1.35437 1.35025 1.35432 1.35296 1.35211 1.35037 1.35658 1.34534 1.3489 1.3261 1.00133 0.922793 0.899184 1.00817 1.31358 1.37412 1.3688 1.36344 1.35372 1.35606 1.35779 1.35863 1.35712 1.36166 1.36182 1.36283 1.35974 1.35489 1.36797 1.35494 1.35318 1.35661 1.35769 1.3567 1.35337 1.35959 1.36288 1.35713 1.36095 1.36008 1.35861 1.35885 1.35877 1.35663 1.35824 1.35808 1.35905 1.35971 1.35975 1.35744 1.35335 1.35186 1.35266 1.35694 1.32218 1.16167 0.982847 0.89192 0.87402 0.865124 0.863483 0.857174 0.855499 0.860199 0.883178 0.880861 0.85211 0.839031 0.826813 0.817776 0.811047 0.804305 0.804501 0.0 0.0 0.0 0.0 0.0 0.0 0.0 0.0 0.0 0.0 0.0 0.0 0.0 0.0 0.0 0.0 0.0 0.0 0.0 0.0 0.0 0.0 0.0 0.0 0.0 0.0 0.0 0.0 0.0 0.0 0.0 0.0 0.0 0.0 0.0 0.0 0.0 0.0 0.751423 0.745189 0.752275 0.749601 0.750225 0.747774 0.746678 0.74445 0.739172 0.740187 0.736782 0.73909 0.73808 0.736764 0.734599 0.733758 0.73234 0.729538 0.731548 0.734578 0.728451 0.730316 0.731327 0.730958 0.737693 0.731137
1.28905 1.28434 1.28797 1.29762 1.30565 1.29766 1.30422 1.30218 1.30621 1.31987 1.31141 1.31797 1.32123 1.31494 1.31453 1.32141 1.32005 1.32246 1.32481 1.32875 1.32356 1.3318 1.33007 1.33297 1.33472 1.33253 1.33723 1.33659 1.33869 1.33236 1.33548 1.33658 1.3326 1.34035 1.3371 1.34338 1.34596 1.34285 1.34194 1.34326 1.34511 1.33953 1.34158 1.34699 1.34811 1.35062 1.34767 1.34753 1.34421 1.33827 1.22067 0.930952 0.901331 0.920127 1.16806 1.36088 1.36703 1.36108 1.35508 1.35509 1.35391 1.35213 1.348 1.35596 1.3509 1.34667 1.35252 1.35315 1.35374 1.35083 1.35223 1.35331 1.35581 1.3522 1.35609 1.35938 1.35538 1.35368 1.35514 1.3528 1.36263 1.35354 1.35431 1.35331 1.3546 1.35237 1.35913 1.35598 1.35571 1.35569 1.351 1.35065 1.35491 1.34927 1.34563 1.3347 1.22003 1.02811 0.90564 0.872343 0.864297 0.859428 0.855414 0.851384 0.851108 0.868203 0.888454 0.868992 0.846341 0.826005 0.815792 0.809328 0.805742 0.804162 0.801988 0.0 0.0 0.0 0.0 0.0 0.0 0.0 0.0 0.0 0.0 0.0 0.0 0.0 0.0 0.0 0.0 0.0 0.0 0.0 0.0 0.0 0.0 0.0 0.0 0.0 0.0 0.0 0.0 0.0 0.0 0.0 0.0 0.0 0.0 0.0 0.0 0.0 0.0 0.0 0.746274 0.737202 0.73914 0.738563 0.73768 0.736216 0.740458 0.737286 0.736809 0.738737 0.736826 0.734343 0.732638 0.73601 0.733688 0.728121 0.732416 0.729986 0.728053 0.732707 0.732794 0.729671
1.27569 1.28125 1.28437 1.27792 1.2928 1.28456 1.27434 1.29228 1.30006 1.30271 1.29991 1.30242 1.30567 1.3067 1.31336 1.31237 1.31757 1.31781 1.31415 1.317 1.31924 1.3217 1.32605 1.32648 1.31717 1.32357 1.32438 1.33126 1.32808 1.32874 1.33158 1.33326 1.3363 1.33173 1.33411 1.33561 1.33509 1.33679 1.33533 1.34089 1.34247 1.3372 1.33698 1.33985 1.34495 1.34149 1.33941 1.33984 1.34595 1.34603 1.33722 1.31634 1.05182 0.932934 0.892955 0.990308 1.28472 1.36692 1.36095 1.3532 1.3506 1.34364 1.34644 1.34286 1.34358 1.33964 1.34492 1.35536 1.3444 1.34699 1.34665 1.34224 1.34474 1.34576 1.35052 1.34686 1.34663 1.34928 1.34697 1.34667 1.35039 1.34741 1.34383 1.34399 1.34411 1.34451 1.34545 1.34462 1.33913 1.34318 1.34314 1.34336 1.34327 1.34779 1.34241 1.34629 1.34028 1.33221 1.26874 1.09481 0.942378 0.875775 0.867125 0.861647 0.856732 0.849197 0.848881 0.852306 0.880857 0.874981 0.854938 0.825369 0.819179 0.810381 0.803879 0.797654 0.795734 0.0 0.0 0.792171 0.0 0.0 0.0 0.0 0.0 0.0 0.0 0.0 0.0 0.0 0.0 0.0 0.0 0.0 0.0 0.0 0.0 0.0 0.0 0.0 0.0 0.0 0.0 0.0 0.0 0.0 0.0 0.0 0.0 0.0 0.0 0.0 0.0 0.0 0.0 0.0 0.0 0.737325 0.735882 0.727308 0.730452 0.737083 0.734961 0.733622 0.73279 0.728684 0.732089 0.734631 0.728281 0.726726 0.736324 0.7344 0.735089 0.734405 0.739738 0.728168
23237 17302 21632 20873 18844 17293 17408 17895 17864 18557 18636 18822 18345 18620 18801 18692 18435 19179 19637 19074 19954 20113 20112 20464 20491 20446 20207 20322 20625 20687 20518 20507 20991 20957 20860 20966 21155 21190 20982 20754 21169 20982 21159 21232 21298 20761 21397 21224 21062 20893 21305 21482 21357 21519 21097 20971 20522 21418 20904 21307 21344 21164 21178 20950 21227 21542 20993 21267 21434 21311 21535 21166 21389 21342 21420 20879 21178 21092 20718 20574 21187 20986 20746 20909 21101 20536 20976 21110 21034 20909 21091 20861 20842 20670 20785 20181 20220 20785 20114 21101 19702 20735 20397 20918 20971 20874 20883 20660 21248 20688 20777 20865 21138 20594 20515 16590 13373 13024 13119 13109 13159 12822 12946 12699 13080 12504 12587 12645 12330 12410 12080 12282 12142 12165 12127 12116 12069 11621 11650 12037 12204 12146 11537 11864 11710 12002 12271 11902 12091 12548 12420 12403 12350 12948 13019 12836 13127 13643 13101 14086 14086 14673 15424 15848 16357 18139 19909 22006 30822 36804 38313 37281 37071 37083 37910 38674
25191 21415 21806 21226 18048 17351 17546 17455 18148 18121 18439 18313 18782 18550 17852 18464 18956 18867 18819 19698 19171 19800 19441 19880 19991 19825 19697 20261 19976 20136 20555 20254 20302 20591 20802 20544 20471 20369 20698 21248 20672 20490 20796 20524 20912 20894 20734 20809 21188 21191 21128 21169 21302 20828 21103 21125 21125 20535 21334 20964 20604 21020 21069 20953 20973 21267 21097 21039 21380 21284 21207 21342 20870 20813 20919 21024 20976 20737 20593 20241 20878 20488 20631 20878 20469 20830 20441 20735 20412 20840 20944 20631 20374 20650 20678 20070 20783 20431 20336 19913 19933 20354 20258 19770 20532 20426 20561 20879 20689 20485 20494 20767 20708 21012 20718 16596 12736 12934 13304 12874 12877 12604 12894 12741 12936 12339 12702 12566 12550 12056 12187 12123 12196 12120 12198 11991 11861 11430 11341 11957 12082 11673 11742 11654 11948 12210 12147 12222 12394 12492 12420 12369 12598 12669 12748 12937 12933 12947 13331 14030 14399 14414 15391 16005 17343 17650 19572 23261 32244 36990 36914 37568 38264 36714 37435 37845
25230 24796 21806 21070 17981 16846 17417 18023 17811 17923 18206 17570 17937 18081 18433 18301 18402 18337 18975 19032 19284 18857 19641 19743 19505 19978 19986 19902 20321 20338 20290 20611 20087 20532 20647 20312 20550 19869 20385 20263 20447 20599 20524 20362 20702 20357 20778 20743 20504 20994 20644 21001 20838 20087 21277 20855 20845 20665 20733 20752 20885 20796 21081 20708 21029 21010 21265 20763 21024 20593 20517 20641 21215 20983 20669 20830 20925 20526 20702 20617 20306 20230 20881 20259 20296 20674 20485 20938 20674 20627 20410 20136 20023 20476 20108 20381 20174 19872 20315 20118 20526 20298 20080 19890 19779 20354 20009 20162 20474 20532 20628 19943 20640 21039 20522 16392 12968 13251 13172 12697 12554 12475 12292 12635 12985 12721 12256 12473 12025 12098 12067 11961 12187 12166 12110 11927 11652 11264 11508 11767 11711 11696 11604 11754 12122 12210 11900 12352 12222 12234 12580 12625 12676 12898 13094 13001 12992 13862 13460 13572 14393 14727 15054 15681 16964 18184 19331 22570 31634 38625 37274 36914 37893 38940 37870 36751
25468 25081 22223 20045 17542 17159 17561 17381 17456 18039 17731 17765 17913 18417 17750 18155 17869 18408 18672 18566 18764 19654 18976 19761 19722 19798 19792 20235 19866 20016 19969 20040 19990 20209 20391 20217 20385 20363 20551 20545 20492 20675 20330 20553 20346 20358 20431 20469 20551 20634 20818 20662 20702 20675 20235 20515 20980 20861 20070 20855 20290 20621 21195 20947 21082 21034 21206 20919 20765 20992 20697 20944 20821 20740 20268 20787 20825 20674 20609 20477 20637 19812 20543 20693 20824 20402 20281 20674 20609 20299 20234 19681 20402 20018 20337 20402 20618 20037 20065 20400 19862 20230 20183 19428 20080 20393 20441 20042 20315 20335 20114 20725 20464 20551 20310 16818 13160 13027 12762 12885 12746 12776 12574 12704 12615 12262 12486 12537 12030 12298 12202 11942 12256 11930 12198 11991 11819 11238 11576 11618 11655 11688 11900 11754 11961 11982 11220 11793 12292 12171 12370 12417 12548 12472 12533 12722 13187 13493 13848 14167 14210 14393 15263 16305 17393 18267 20237 23146 31965 37359 37221 38240 37430 37606 37747 38223
24894 25026 24688 19281 16864 16601 16762 17381 17456 17392 17702 17240 17867 17988 17501 17855 17855 17951 18037 18118 18512 19210 18637 19595 19033 18745 19644 19999 19445 19548 20134 19909 20244 20107 20183 20732 19909 20086 20206 20201 20233 20319 20167 20010 20129 20233 19975 20767 20370 20298 20218 20793 20395 20725 20624 20644 20571 20561 20475 20932 20812 20406 20870 20775 20794 21062 20707 20754 20621 20551 20344 20315 20674 21059 21040 20543 20506 19915 20848 20261 20401 20531 20969 20634 20485 20746 20531 20066 20550 20317 20345 20606 20038 20317 20243 20019 19265 19954 20289 20253 20346 20468 19746 20074 20117 20344 20155 20202 20355 20308 20327 20459 20287 20172 20001 16817 12900 12732 12898 12791 12585 12716 12707 12618 12495 12395 12413 12231 12232 11723 11659 11963 12025 12045 11772 11825 11655 11431 11412 11751 11452 11419 11811 11650 11798 11754 12427 11970 12102 12582 12195 12148 12242 12668 12829 12871 13200 13187 13534 14056 14210 14281 15468 16320 17179 17974 19822 23599 32065 37178 37772 37932 38203 38466 36937 38006
25620 25284 25052 21780 16157 16459 16900 17423 17311 17089 18079 17500 17571 17908 18170 17600 17757 18145 18376 17768 17986 18497 18599 19134 19176 19607 19309 19350 19724 19829 19471 19618 20050 19645 19699 20119 19923 19999 20083 19638 20127 19852 20262 19973 20345 19893 20044 20115 19653 20077 19456 20355 20525 20287 20355 20404 19882 20533 20378 20667 20590 20679 20268 20251 20593 20735 20787 20976 20627 20646 20702 20253 20328 20625 20615 20643 20755 20811 20655 20914 20322 20534 20405 20257 20544 20646 20821 20581 20451 20201 20201 20359 20396 20062 20100 20368 19572 20007 20053 20224 20345 20336 19554 20206 20477 20328 20393 20365 20259 20381 19693 20061 20061 20127 20229 16562 12784 12784 12842 12625 12791 13076 12939 13033 12429 12505 12465 12494 12181 12160 12171 11917 12092 12202 11776 11772 11900 11176 11765 11549 11456 11552 11530 11789 12025 12060 12111 12403 12368 12614 12728 12123 12185 13069 12918 12957 13379 13612 13651 13914 14264 15245 15245 15788 17243 18738 20129 23498 32408 38195 37995 38030 37665 38240 38122 38960
25622 24631 25352 25389 18735 16625 16657 16826 17085 17529 17470 17184 17661 18068 17685 17826 17793 18186 18220 18624 18254 18484 18845 18536 19422 19358 18957 19045 19466 19459 19425 19493 20048 19865 19832 19803 19652 19555 19883 19606 19852 19349 19973 19903 20109 20196 19330 20349 20006 20105 20070 19921 19992 20325 20066 20436 20416 19866 20021 20220 20660 20365 19947 20422 20513 20646 20234 20581 20262 20552 20652 20578 20531 20192 20673 20766 20479 20275 20544 21131 20312 20368 19871 20450 20515 20202 20377 20220 20561 20496 20184 20432 20119 20128 19733 20055 19586 19760 20046 20581 19655 20044 19739 19739 19889 20140 20178 20485 20234 19812 20224 20230 20070 19504 18882 16164 12886 12963 12685 12610 12485 12713 12567 12605 12438 12400 12103 12115 11775 11939 12070 11987 11967 12123 11817 11589 11698 11351 11516 11646 11722 11347 11419 11718 11968 11991 12537 12100 12392 12415 12245 12558 12352 12579 12793 13174 13033 13418 13505 13784 14483 14735 15784 16630 17196 18747 20847 24158 31666 37855 38178 38322 38358 37754 37522 38027
24593 25262 25683 25062 22144 15974 16523 17408 16838 17622 17199 17869 17414 17798 17798 17711 18213 18286 18338 18280 18280 18570 18352 19139 19309 19231 19279 19384 19194 19266 19778 19410 19290 19644 19050 19415 19587 19883 19263 19936 19141 19453 19573 19769 19840 20067 19895 19826 19476 19792 19972 19796 19872 20300 19799 20426 19990 19358 20201 20222 20498 20296 19985 20042 20215 20506 20056 20438 20541 20531 20710 20590 20294 20479 20598 20386 20294 20395 20763 20637 20793 20601 20345 20152 19969 20271 20738 20482 20335 20354 19686 20134 20381 19979 20271 19896 19933 19787 19951 19567 19788 20009 19742 19862 19951 19156 19674 20327 20094 19740 20215 20103 19681 19625 19919 16239 12553 12857 12369 12580 12455 12427 12340 12236 12149 12223 11928 12113 11915 12125 11775 11848 11835 11865 11433 11762 11620 11151 11519 11612 11549 11549 11631 11816 12326 12293 11980 12196 12354 12263 12157 12091 12619 12643 12714 12843 13595 13544 13548 14129 14592 14606 15525 16635 18053 18533 20713 23767 33001 38728 37467 38361 38717 38732 38222 37393
25739 25352 25187 25032 24190 18855 16212 16712 16797 17684 17690 17603 17273 17313 17798 17901 17728 17739 18741 18471 18357 18327 18955 18753 18755 18881 19349 19448 19493 19391 19645 19401 19887 19748 19274 19759 19542 19578 19483 19453 19563 19666 19657 19677 19875 19726 19536 19832 19674 20178 19786 19882 19804 20030 20069 19444 20181 19785 19956 19721 19966 19868 20318 20037 20075 20243 20029 19970 20266 20164 20745 20110 20588 20331 19915 20765 20299 19787 20079 20027 19936 20136 20400 20500 20473 20118 20118 20018 19426 20245 20218 19854 20227 20209 19672 19963 20291 19863 19863 19411 19759 19375 19475 19814 19760 19972 19705 19461 20072 19914 20084 20103 19926 20281 20187 16101 12644 12606 12572 12458 12752 12417 12235 12099 12302 12187 12275 11879 11826 12034 11785 11666 11768 11717 11631 11649 11392 11568 11422 11540 11559 11144 11355 11685 11838 12060 12002 12136 12366 12377 12075 12439 12186 12522 12389 13034 13370 13837 13595 14212 14435 15311 15596 16745 17557 19070 20907 23051 32861 37713 38502 38361 37612 37565 38234 38350
24708 24938 25418 25273 24586 21530 16115 16964 16950 17452 17153 17160 17585 17466 17738 17649 17609 18221 18637 18056 18598 18585 18692 19136 18916 19337 19321 19459 19368 19511 19346 19563 19552 19781 19457 19595 19599 19672 19495 19265 19625 19494 19573 19462 19446 19516 19842 19443 19570 19911 20057 19818 19625 19617 20076 19757 20032 20155 20372 20140 20093 20112 19908 19814 19803 19813 20035 20092 20138 20248 20134 20198 20207 20162 20300 19881 20109 19808 20509 19934 19844 20224 20323 20432 19943 20233 20242 20034 20242 20142 19463 20124 19943 20115 19898 20115 19826 19871 19826 19945 19453 19781 19999 19933 19613 19951 19997 20276 19981 19834 20312 19591 19970 19973 20410 16332 12614 12455 12380 12257 12306 12202 12369 12283 12022 12147 12071 11760 11742 11869 11865 11549 11775 11959 11394 11407 11315 11176 11370 11599 11414 11484 11378 11851 12001 11936 12071 12428 11879 12230 12227 12380 12357 12626 12582 13115 13096 13558 13965 14082 14212 15192 15718 16481 17895 19060 20610 24719 33977 37813 37650 38081 38294 38494 37428 37576
25149 25276 24843 24652 24278 23275 19006 16660 16484 16369 17371 17075 17493 17616 17343 18140 17752 18114 18081 18192 18339 18487 18315 18717 18658 18929 19061 19027 19477 19379 19541 19552 19598 19340 20032 19683 19609 19651 19656 19473 19606 19583 19421 19366 19595 19882 19600 19913 19551 19538 19664 19674 19722 19310 20032 19513 19626 19428 19793 19926 19786 19675 19868 20025 20285 20082 19687 20006 20216 20271 19999 19972 20245 19936 20188 19816 19726 20034 20305 20289 19974 20055 20298 20217 20271 20298 20280 19784 20343 19820 19956 19983 19974 20163 19235 19775 19784 20055 19500 19862 19798 19382 20025 20081 19754 19453 19936 20079 20143 19933 20138 19659 19779 19868 19683 16490 12579 12663 12474 12521 12446 12314 12449 12468 12216 11957 11877 11713 11828 11760 11801 11529 11727 11725 11506 11394 11519 11040 11351 11765 11484 11414 11985 11772 12034 12165 11871 12171 12305 11957 12276 12111 12532 12380 12816 13115 13342 13650 14084 14565 14772 15266 15710 16789 17882 19060 20478 24444 33996 38959 38452 37509 37241 37811 37961 38714
25454 25479 24202 23836 23162 22179 20190 17333 16871 16078 16323 16856 16897 17223 17503 18156 17233 18031 18106 18425 18136 18624 18136 18424 18640 18732 18993 19555 19113 19268 19421 19231 19372 19510 19620 19713 19547 19584 19840 19321 19905 19256 19756 19822 20050 19619 19541 19609 19731 19750 18985 19530 19700 19325 19287 19428 19850 19591 19591 20019 19674 19896 19788 20036 19979 19521 20006 19881 20145 20163 19853 20016 19889 19907 19947 20397 20100 20262 19920 19936 19981 19891 19981 20070 19470 19685 20313 19819 19775 19801 20223 20044 19344 20142 19909 19380 19434 19622 19595 19929 19838 19856 19262 19654 19581 19889 19500 19890 19908 20190 19741 19631 19759 20092 19908 16527 12483 12428 12458 12142 12380 12408 12238 12219 12154 11736 11957 11568 11568 11915 11429 11516 11663 11588 11636 11376 11273 11254 11264 11515 11299 11308 11530 11963 11825 12153 12318 12143 12591 12439 12148 12276 12654 12427 12685 13090 13466 13687 13896 14134 14718 15266 16148 16507 17725 18893 20904 25388 34422 38180 38333 38546 37984 35996 36562 36946
25773 24826 23569 22661 21503 20603 20664 18628 17269 15586 15594 16066 15596 15617 16307 15803 16365 16878 16801 17773 17577 18588 18037 18387 18595 18925 18928 19169 19399 19028 19199 18808 19744 19526 19318 19412 19584 19921 19911 19623 20075 19476 19436 19482 19884 19298 19862 19644 19779 19875 19586 19804 19598 19994 19428 19578 20047 19554 19729 19665 19678 19880 19613 19686 19851 19481 19517 19699 20088 19708 20010 19685 19667 19938 19505 19730 20241 19936 19505 19929 19956 19635 19974 20108 20019 19885 20001 19724 20296 19813 19796 19778 20010 19769 19921 19956 19831 19456 19927 19810 19254 19927 19245 20055 19676 19451 19721 19328 19509 19626 19963 19872 19726 19951 20079 16651 12318 12835 12317 12319 12309 11974 12455 12163 12096 12078 11660 11584 11756 11665 11443 11497 11565 11516 11677 11351 11246 11132 11415 11458 11557 11011 11713 11940 11867 11836 12282 12231 12438 12259 12125 12594 12389 12815 12813 13245 13209 13550 13785 14372 14372 15280 15995 17104 17860 19203 21111 25456 33783 39118 37897 37997 37949 38146 37045 37565
23743 23653 22128 20922 20356 19808 19060 17748 15898 15813 15331 14714 14329 14316 14615 14923 15750 16382 16357 16539 17029 17077 17752 18560 18254 18536 18970 19290 19170 19382 18786 19436 18947 19079 19276 19409 19616 19361 19290 19676 20000 19753 19727 19943 20203 19654 19606 19483 19865 19890 19428 20155 19981 19971 20047 19600 19998 19998 19742 19484 19805 19805 20263 19490 19681 19672 19943 19681 19784 20019 19604 20106 19900 20223 19965 19796 19492 20188 19885 19946 19794 19812 19839 20097 19181 19590 19456 19679 19785 19759 19652 19652 19741 19608 19465 19688 19697 19528 19787 19358 19537 19590 19903 19873 19694 19622 19308 19523 19685 19343 19681 19454 19672 19645 19699 16557 12313 12520 12281 12298 12067 12160 12421 11846 12005 11983 11568 11441 11812 11708 11472 11414 11740 11186 11526 11509 11420 11156 11193 11505 11549 11546 11567 11797 12119 11930 12134 12239 12700 12154 12248 12450 12753 12514 12977 13130 13316 13685 14058 14388 14572 15484 15957 16984 17994 19474 20903 24438 34008 37516 37734 38761 37691 37886 36724 36879
22837 22137 20899 20152 19029 17943 17109 16209 15316 14721 14375 13944 14302 14694 14897 15412 16431 17330 17156 16779 16081 15307 15757 16129 16574 17278 17798 18013 18553 18733 18925 19021 19006 19532 19573 19015 19149 19341 19047 19743 19792 19433 19658 20164 19471 19828 20067 19414 20165 19740 20023 19512 19889 20038 19794 19609 19613 19825 19686 19640 19326 20081 20172 20170 19835 19865 19865 19667 19721 19443 19766 20019 19617 19635 19990 20070 19741 19617 20283 20001 19575 19797 19558 20072 20001 19770 19877 19956 19761 19540 19327 19629 19779 19301 19877 19558 19575 19451 19110 19670 19661 19617 19448 19510 19849 19554 19918 19604 19658 19460 19613 19640 19083 19445 19038 16069 11874 11837 11480 11527 11361 11484 11715 12030 11658 12014 11836 11587 11413 11498 11287 11517 11452 11487 11351 11300 11252 10935 11256 11505 11435 11285 11742 11793 12088 12119 12098 12230 12444 12514 12416 12270 12383 12844 13117 13150 13188 13650 14349 14191 14819 15400 16122 17036 17700 19017 20301 22553 30619 33966 35018 36081 36973 37949 38017 36126
21121 20366 19445 17989 17592 16201 15236 14522 14250 14144 14158 14368 14759 15305 16076 16565 16628 16139 16006 15554 15355 14880 15163 15230 15056 15311 15329 15471 15912 16530 17411 17685 18246 18658 18862 19220 18897 19077 19258 19159 19374 19609 19677 19297 19550 19636 19376 19909 20079 19465 19925 19880 19759 19489 19766 20036 19979 19631 20227 19626 19781 20405 19617 19685 20037 19541 19613 19909 19519 19840 19385 19883 20052 19990 19963 19788 19770 20054 20355 19901 19751 19592 19645 19601 19716 20254 19963 19663 19680 19804 19874 19557 19663 20033 19671 19513 19424 19777 19451 20036 19886 19443 19141 19750 19323 19127 19287 19492 19099 18519 18259 17990 17000 16883 16720 13335 9523 9317 9617 9861 9824 10828 10837 11280 11313 11648 11996 11349 11379 11436 11365 11393 11488 11404 11361 11332 11300 10928 11074 11576 11546 11677 11570 12205 11783 11942 12067 12325 12272 12487 12394 12834 12359 12585 13264 12815 13103 13446 14209 14325 14930 15816 16001 17271 18130 19202 19827 21956 28916 31626 31822 33490 34487 36331 36519 36853
19784 19396 17765 16277 15233 14669 14224 14139 14471 14402 14355 14694 15242 16544 16841 16308 15752 15280 15387 15203 15168 14731 14770 15005 15145 15089 15170 14814 14710 14634 14793 14772 14891 15919 16346 17294 18118 18357 18833 19021 19230 19541 19162 19492 19483 19129 19362 19438 20056 19943 19926 19831 19803 19696 19779 19741 20006 19763 20072 20242 19862 20208 20190 19936 20331 19742 19447 19992 19830 19821 19581 20018 19496 20107 19460 20042 19548 19380 20042 20007 19779 19770 20016 19831 19849 19612 19629 19779 19691 19831 19515 19752 19515 19480 19383 19559 19524 19418 19654 19265 19592 19310 19239 19558 18734 18371 18363 17838 17162 16536 15983 15393 14851 14349 14667 11838 8518 8201 8462 9372 9660 9852 10423 10726 10577 11308 11471 11313 11293 11691 11653 11308 11204 11306 11501 11115 11088 11016 11310 11450 11646 11737 11808 11814 11989 11865 11797 12414 12421 12389 12595 12416 12934 12237 12798 13048 13623 13540 13950 14578 14930 15521 16101 16853 18280 18546 19388 23000 29429 31425 31441 31808 31956 32662 34572 35027
18459 17011 15360 14503 13987 14393 14295 14056 14239 14435 15175 15644 16110 16289 15767 15655 15220 14959 14781 15064 14776 15004 14770 14802 14718 14566 14857 14922 14844 14990 14959 14788 14778 14934 14823 14962 15003 15240 16205 16623 17435 18274 18410 18721 19215 19306 19759 19343 19693 19759 19702 19988 19687 19750 19485 19690 19954 19771 20106 20163 19478 19891 20456 19858 20179 20340 19883 19785 19868 19930 20063 20201 20289 20086 20245 20245 19902 19471 19875 20205 19994 19618 19837 19898 18907 19802 19740 19661 19626 19521 19828 19907 19924 19644 19793 19477 19889 19179 19568 19189 19242 18442 18498 17721 17341 16653 15917 15457 14845 14165 13943 13661 13224 13036 12770 10098 8261 7189 7513 8989 9654 8871 9742 10126 10082 10745 11447 11564 11332 11452 11208 11191 11375 11289 11469 11539 11086 11088 11565 11693 11361 11466 11697 11838 11814 11979 12370 12535 12498 12496 12261 12498 12405 12702 13022 13011 13276 13830 14125 14494 14756 15171 16493 17003 17514 17935 18741 23240 31300 32409 32335 32420 31387 31956 31638 32624
16351 15456 14734 14340 14335 13941 14388 13968 14714 15072 15631 15688 15863 15078 15164 15099 14816 14851 14811 14972 14685 14602 14537 14402 14860 14792 15018 14981 15094 14928 14644 15012 14974 15045 15341 15141 15102 14930 14794 14280 15187 15653 15794 16402 17003 17441 18069 17663 17803 18841 18988 19494 19549 19613 20027 19491 19599 19577 20010 19927 20277 19983 20188 20537 20070 20070 20293 20275 20470 20077 20051 19770 19981 20394 20315 20310 19565 20222 19723 19924 19409 20012 19348 19750 19321 19820 19636 19898 19321 19566 19601 19898 19522 19688 19330 19374 19304 18998 18715 18171 17628 16918 15891 15531 14968 14229 13979 13238 12858 12666 11905 11426 10875 65533 65533 65533 65533 65533 65533 65533 65533 65533 8434 9381 9632 10340 11416 11484 11345 11453 11555 11471 11360 11546 11422 11297 11067 11124 11604 11595 11300 11687 11765 11576 11374 11977 12236 12109 12254 12361 12251 12498 12304 12514 12735 12966 13230 13844 13669 14289 14947 15692 15825 16715 17229 17335 18924 23532 31433 32792 33116 32987 31997 31986 32234 31333
14843 14459 14191 14742 14281 14210 14527 15053 15272 15305 15178 15382 15024 14290 14337 14506 14605 14723 14568 14265 14355 14393 14714 14576 14846 15029 15128 15338 14980 14953 14961 15012 15236 15061 14745 14904 14665 14580 14820 14762 14830 15433 15243 15258 15426 14686 14814 15426 15796 16430 17332 18314 19463 19372 20061 19201 19460 19424 19380 19667 19849 20269 19012 20186 20080 20275 20113 20333 20404 20139 20298 20289 20319 20468 19863 20082 20160 20344 19986 19846 20119 20015 19814 19570 20119 19771 19501 19849 19701 19814 19596 19579 19474 19535 18795 18167 17923 17157 16341 15870 15135 14436 14051 13867 13157 12535 12180 11265 10678 65533 65533 65533 65533 65533 65533 65533 65533 65533 65533 65533 65533 65533 7188 8908 9208 9815 10767 11426 11419 11391 11425 11396 11274 11662 11337 11204 10799 11134 11385 11604 11565 11614 11757 11745 11778 11828 12018 12287 12556 12452 12098 12623 12422 12711 12831 12790 13313 13651 14315 14326 14816 15696 15861 16198 15755 16665 18816 24494 31991 33877 32742 32367 32406 32839 31613 32280
13801 14397 14533 14219 14323 14458 14538 15165 15471 15136 15599 14773 14413 14131 14245 14209 14336 14107 13867 13806 14434 14625 14500 15051 15125 15348 15496 15136 14695 14483 15165 15186 15041 14805 14824 14744 14668 14675 14945 14858 14843 15100 14965 14151 13880 14283 14954 16018 16449 16585 16804 16678 16578 17218 18073 18766 18761 19111 19501 19653 19866 19732 20036 19921 19989 19936 20254 19603 20122 20152 20196 19986 20099 20335 20125 20346 19945 20276 20180 19875 19751 19908 19829 19360 19864 19178 20003 19569 19543 19534 18622 18874 18352 17483 16675 15780 15180 14702 14272 13933 12565 12809 12330 11518 10478 11553 65533 65533 65533 65533 65533 65533 65533 65533 65533 65533 65533 65533 65533 65533 65533 65533 65533 8048 8518 9244 10446 11242 11306 11472 11530 11592 11360 11658 11455 11153 11223 10981 11433 11491 11448 11771 11889 11658 11695 12050 12100 12252 12164 12129 12140 12414 12464 12929 13114 13188 13111 13571 14106 14718 14910 15144 15292 15559 14770 16302 18612 23437 31926 33293 33741 33324 32859 32825 30762 32045
13924 13655 14233 14238 14541 15165 15080 14820 15162 15216 14823 14314 14597 14337 14364 13821 13784 13878 14231 14456 14481 14991 14911 15504 15327 15202 14772 14623 14798 14646 14531 14452 14340 14607 14204 14259 14415 14868 14964 14910 15157 14842 13655 13570 14619 15269 16117 16099 16347 16310 16451 15761 16096 15631 15397 14959 15268 16242 17527 18274 19159 18947 19407 19945 19928 20403 20034 20030 20380 20423 20361 20082 19623 20189 20529 19630 19647 20238 20194 20177 20108 19935 20125 19822 19631 19605 19267 18981 18305 17863 17542 16424 16043 15055 14353 13902 13763 13251 12756 12235 11531 10809 65533 65533 65533 65533 65533 65533 65533 65533 65533 65533 65533 65533 65533 65533 65533 65533 65533 65533 65533 65533 65533 6721 8011 8745 10072 11100 11361 11380 11591 11613 11499 11574 11630 11049 10870 11128 11297 11636 11395 11721 11791 11984 11895 12025 12362 12181 12395 12359 12088 12435 12613 12421 12907 12983 13475 13313 14243 14628 14661 14898 15292 14240 14506 15582 17755 21956 28242 31725 32819 32751 32963 33030 31053 31896
14295 14310 14480 14565 14984 15162 15019 14720 14884 14374 14497 14204 14083 14245 13903 14149 14084 14174 14523 14846 14653 15057 14922 15008 14791 14533 14429 14171 14452 14430 14452 14512 14250 14361 14036 14211 14723 14743 15138 14815 14172 13223 13436 14376 15389 15795 16053 15999 15677 16087 15616 15734 15108 15255 15075 15322 15492 15188 14952 15093 15268 16071 16762 17343 18417 18890 19582 20178 19811 20032 20041 20372 20490 19786 20603 20385 19909 19510 20273 19839 20016 19904 19610 19420 18883 18477 17552 16981 16333 15641 15079 14647 14041 13696 13108 12623 11655 10366 65533 65533 65533 65533 65533 65533 65533 65533 65533 65533 65533 65533 65533 65533 65533 65533 65533 65533 65533 65533 65533 65533 65533 65533 65533 5650 7631 8441 9442 10982 11528 11151 11646 11573 11410 11397 11248 11087 10992 11040 11565 11326 11723 11617 11643 11791 11776 12093 12265 12110 12558 12359 12020 12348 12635 12719 13015 12821 13398 13840 14075 14390 14718 14534 13868 13233 15002 15841 18582 20900 23220 25054 27529 29564 30967 33001 32665 31939
14608 14582 14579 14832 14890 15134 14926 14563 14565 14071 13810 14095 14228 14173 14184 14638 14378 14568 14481 14791 14489 14749 14561 14213 14360 14408 14356 14269 14258 14036 14073 13845 13998 13802 14347 14762 14686 15034 14729 13757 12820 13464 14823 15528 16127 16504 16301 16096 15677 15598 14991 15018 15255 15201 14929 15286 15152 14978 15093 14914 14685 15100 15214 15839 16199 16350 17163 18464 19265 19664 19829 19838 19978 20047 20333 19909 20163 19869 19852 20094 19798 18970 18384 17409 17159 16330 15502 14855 14389 14027 13708 13018 11931 11465 10826 65533 65533 65533 65533 65533 65533 65533 65533 65533 65533 65533 65533 65533 65533 65533 65533 65533 65533 65533 65533 65533 65533 65533 65533 65533 65533 65533 65533 65533 7389 8261 9180 10374 11146 11146 11361 11462 11462 11678 11294 11034 11087 11238 11736 11888 11900 11694 11742 11837 12213 12103 12155 12025 12030 12374 12328 12202 12327 12624 12975 13241 13562 13802 14216 14535 14776 13530 12860 13412 14197 16285 18893 21101 21484 22438 23545 24169 25862 28361 29669 30995
14667 14524 14494 14527 14823 14568 14342 13991 13871 14159 14130 14070 14126 14149 14268 14253 14651 14367 14305 14293 14329 14443 14433 14549 14449 13985 14096 13902 14016 14013 13934 13978 14351 14512 14685 14801 14919 14758 13672 12942 13523 14665 15759 16127 16274 16283 16078 15714 15127 14847 14955 15066 15126 14974 15304 15232 14961 14756 14509 14572 14783 15164 15585 16158 16743 16869 16555 16275 15771 15624 16910 18357 19160 20198 19713 20033 19436 19117 18772 18004 17363 16596 15830 15348 14651 14393 14014 13713 12783 11957 11130 10924 65533 65533 65533 65533 65533 65533 65533 65533 65533 65533 65533 65533 65533 65533 65533 65533 65533 65533 65533 65533 65533 65533 65533 65533 65533 65533 65533 65533 65533 65533 65533 65533 6348 7901 8690 10099 11117 11171 11437 11380 11499 11490 11188 10987 11071 11162 11417 11859 11840 11488 11838 11973 11954 12223 12340 12005 12252 12080 11957 12565 12338 13140 12856 13134 13521 13987 14349 14523 13974 12514 12873 13668 14637 17882 20050 20444 20437 21318 21800 21752 22214 23510 23996 26166
14292 14550 14541 14456 14144 14289 14069 14093 14009 14031 13937 13923 14399 14043 14615 14060 14142 14006 14205 14205 14351 14401 14381 14044 13779 14212 14004 14107 13993 14241 13993 14538 14347 14878 15069 15213 14406 13144 13139 13767 14311 15695 16136 16366 15954 15659 15295 15118 15000 14901 15129 14938 14902 14948 14996 15129 14976 14535 14493 14735 15121 15258 16071 16155 16547 16536 16579 16442 16286 15783 14906 13990 13652 15347 16391 17642 17673 17104 16235 15546 15498 14673 13763 13969 12947 12362 11589 11091 65533 65533 65533 65533 65533 65533 65533 65533 65533 65533 65533 65533 65533 65533 65533 65533 65533 65533 65533 65533 65533 65533 65533 65533 65533 65533 65533 65533 65533 65533 65533 65533 65533 65533 65533 65533 5335 7536 8241 9371 10613 11334 11497 11337 11535 11481 11453 11132 10894 11024 11565 11757 11717 11622 11957 12031 11857 11938 12350 12301 12195 12433 12252 12374 12473 12670 13129 13592 13564 13931 14216 13984 12663 12241 12780 14061 15976 18695 19309 19841 19898 20527 20980 20746 21580 21875 21583 21443
14509 14508 14471 14416 13957 13952 13850 13921 13958 13761 14022 14149 14254 14084 14322 13997 14277 13873 14522 14060 14252 13992 13929 14127 13790 13739 14389 14322 14522 14399 14655 14755 14723 15129 15117 14150 13144 13739 13861 14591 15695 16246 15657 15313 15113 14731 14864 14622 14833 15030 14706 14610 14726 14934 15173 14756 14731 14361 14498 14779 15275 15780 16067 16128 16414 15956 16199 16095 15606 15762 16063 15269 15140 14186 12826 12025 12199 13127 13617 13969 13608 12931 12151 11062 10684 65533 65533 65533 65533 65533 65533 65533 65533 65533 65533 65533 65533 65533 65533 65533 65533 65533 65533 65533 65533 65533 65533 65533 65533 65533 65533 65533 65533 65533 65533 65533 65533 65533 65533 65533 65533 65533 65533 65533 7389 7354 8143 9066 10367 11180 11126 11234 11428 11398 11435 11251 10864 11127 11621 11686 11568 11850 11986 11986 11858 12022 12242 12380 12123 12155 12282 12537 12586 13039 12774 13403 13603 14114 14053 12757 12094 12439 13071 14545 16948 18707 19055 19116 19779 19936 20476 20550 20743 20939 20280 21060
