1.64317 1.64091 1.64362 1.6378 1.63977 1.64224 1.64152 1.64498 1.6424 1.64373 1.643 1.64476 1.64674 1.6501 1.6353 1.49776 1.21124 1.06037 1.03567 1.02098 1.01754 1.03757 1.00323 0.976928 0.960435 0.951168 0.951788 0.94477 0.936242 1.04913 0.939898 0.983007 0.939638 0.931806 0.933079 0.928128 0.929351 0.927002 0.931436 0.929335 0.925725 0.925056 0.928821 0.92811 0.924102 0.929898 0.932403 0.9334 0.936469 0.0 0.0 0.0 0.927931 0.895262 0.0 0.0 0.0 0.0 0.0 0.0 0.0 0.0 0.0 0.0 0.0 0.0 0.925155 0.932733 0.938791 0.933067 0.939398 0.0 0.939336 0.944115 0.944346 0.944562 0.0 0.0 0.0 0.0 0.0 0.0 0.0 0.0 0.0 0.0 0.0 0.0 0.0 0.0 0.0 0.0 0.0 0.942703 0.0 0.0 0.0 0.0 0.943633 0.0 0.0 0.937349 0.936836 0.0 0.0 0.0 0.0 0.934938 0.0 0.0 0.940902 0.936927 0.936854 0.935861 0.930638 0.934429 0.0 0.929023 0.92134 0.0 0.923353 0.93033 0.929787 0.920238 0.93224 0.922964 0.924446 0.927699 0.0 0.927868 0.0 0.921998 0.921571 0.920231 0.0 0.922246 0.916394 0.917943 0.919763 0.916231 0.915639 0.922113 0.909962 0.919919 0.915109 0.910284 0.914552 0.907047 0.908912 0.911332 0.906409 0.906728 0.905267 0.904656 0.906926 0.902187 0.899752 0.901349 0.900306 0.899234 0.896691 0.892969 0.894975 0.893208 0.896282 0.891299 0.888581 0.89182 0.893016 0.891328 0.895557 0.887563 0.892263 0.884221 0.887976 0.88746
1.64023 1.63686 1.62862 1.6363 1.63997 1.63228 1.63467 1.62735 1.62618 1.62777 1.62617 1.63334 1.63188 1.63207 1.63536 1.6406 1.59365 1.36469 1.10898 1.04377 1.02645 1.02269 1.01801 1.02638 0.995685 0.962838 0.952667 0.944489 0.935678 1.06727 0.971336 0.982426 0.936732 0.932735 0.932242 0.927887 0.929112 0.929429 0.92706 0.924663 0.926094 0.926318 0.928304 0.922542 0.923295 0.921944 0.925338 0.0 0.930887 0.0 0.0 0.0 0.922348 0.907359 0.0 0.0 0.0 0.0 0.0 0.0 0.0 0.920625 0.936388 0.940713 0.934185 0.940586 0.933115 0.0 0.0 0.0 0.946158 0.0 0.0 0.0 0.0 0.0 0.0 0.0 0.0 0.0 0.0 0.0 0.0 0.0 0.0 0.0 0.0 0.0 0.0 0.0 0.0 0.0 0.0 0.0 0.0 0.0 0.0 0.0 0.0 0.0 0.0 0.0 0.0 0.0 0.0 0.0 0.937163 0.936268 0.0 0.0 0.0 0.0 0.0 0.933269 0.0 0.0 0.932599 0.921626 0.923559 0.929973 0.919566 0.927139 0.0 0.922443 0.927851 0.923067 0.919764 0.924211 0.918784 0.0 0.922498 0.915834 0.920765 0.915261 0.914201 0.918762 0.0 0.917128 0.919241 0.91068 0.917477 0.90446 0.913268 0.912607 0.911335 0.905631 0.911953 0.90621 0.904263 0.906976 0.899719 0.90617 0.904706 0.899433 0.905483 0.89726 0.896568 0.899032 0.891917 0.892007 0.899269 0.890935 0.890064 0.893463 0.888223 0.888683 0.88682 0.88578 0.889254 0.883593 0.88896 0.884369 0.883421 0.883278 0.879157 0.880895
1.63529 1.61793 1.62258 1.62435 1.62463 1.61156 1.61902 1.6287 1.62328 1.62773 1.62613 1.62475 1.6293 1.63551 1.63422 1.61992 1.6251 1.61754 1.50505 1.22616 1.05387 1.02434 1.01618 1.01844 1.01951 1.02026 0.981846 0.952958 0.935971 1.0669 0.987166 0.98153 0.939689 0.930698 0.927261 0.927627 0.924721 0.923855 0.923556 0.924121 0.922591 0.924002 0.920347 0.921417 0.920685 0.91636 0.922133 0.0 0.92082 0.921476 0.0 0.92034 0.0 0.906559 0.0 0.0 0.0 0.929965 0.941265 0.941749 0.933506 0.935454 0.928367 0.939004 0.931276 0.944297 0.934122 0.0 0.0 0.0 0.0 0.0 0.0 0.0 0.0 0.0 0.0 0.0 0.0 0.0 0.0 0.0 0.0 0.0 0.0 0.0 0.0 0.0 0.0 0.0 0.0 0.0 0.940592 0.0 0.94074 0.0 0.935687 0.0 0.935407 0.0 0.0 0.936378 0.0 0.0 0.0 0.0 0.931238 0.0 0.0 0.0 0.932385 0.0 0.929246 0.0 0.929052 0.0 0.0 0.920826 0.926958 0.0 0.921461 0.924833 0.917702 0.920437 0.92345 0.915679 0.918355 0.919814 0.0 0.918196 0.915721 0.915015 0.0 0.912061 0.91308 0.914373 0.9109 0.912742 0.911895 0.905116 0.908073 0.90982 0.903583 0.907933 0.906369 0.900082 0.902588 0.901545 0.901942 0.905821 0.897981 0.8983 0.899755 0.890996 0.898501 0.893479 0.892208 0.894092 0.890161 0.889959 0.892605 0.885144 0.889444 0.887675 0.88559 0.884333 0.882472 0.880295 0.883768 0.881517 0.884895 0.878613 0.877669 0.875841 0.873976 0.879357
1.62919 1.61521 1.62126 1.60843 1.62222 1.62102 1.61692 1.61583 1.61694 1.61342 1.61552 1.61556 1.62039 1.61972 1.61641 1.61503 1.6133 1.61583 1.6183 1.58719 1.38139 1.12306 1.03552 1.01601 1.00777 1.00734 1.02089 1.00522 0.971928 1.08847 1.00853 0.981495 0.936452 0.92982 0.930511 0.927052 0.927692 0.925061 0.922697 0.92504 0.919072 0.919593 0.918313 0.921166 0.916871 0.916712 0.921294 0.916034 0.920582 0.91587 0.917699 0.91981 0.91533 0.914713 0.915872 0.914619 0.91784 0.915651 0.920041 0.932518 0.932382 0.935532 0.92785 0.936377 0.0 0.934146 0.931799 0.0 0.933979 0.937907 0.0 0.0 0.0 0.0 0.945567 0.0 0.0 0.0 0.0 0.0 0.0 0.0 0.0 0.0 0.0 0.93227 0.0 0.0 0.0 0.0 0.939872 0.0 0.0 0.0 0.0 0.0 0.0 0.0 0.93369 0.926582 0.0 0.0 0.0 0.0 0.0 0.931303 0.935549 0.930736 0.0 0.0 0.0 0.0 0.928731 0.0 0.921322 0.0 0.926768 0.920909 0.925836 0.919948 0.0 0.916522 0.920172 0.920509 0.0 0.0 0.915138 0.915999 0.910877 0.91617 0.910421 0.914179 0.913453 0.913004 0.0 0.914121 0.906204 0.909821 0.908679 0.903971 0.908399 0.906013 0.902726 0.902657 0.900507 0.900098 0.902598 0.898036 0.899896 0.899386 0.893889 0.897415 0.893043 0.890689 0.892087 0.892291 0.889569 0.889136 0.886653 0.887027 0.887942 0.88135 0.886793 0.884737 0.879792 0.88282 0.876397 0.879913 0.878267 0.874604 0.878832 0.878486 0.874999 0.874856 0.873267 0.873317
1.61329 1.60993 1.60954 1.60233 1.61385 1.60561 1.6063 1.60662 1.60942 1.61217 1.61 1.61176 1.61145 1.61393 1.61406 1.60954 1.61241 1.61293 1.61338 1.61552 1.60892 1.52027 1.25525 1.05656 1.01813 1.00957 0.998615 0.990817 1.05166 1.1176 1.02368 0.979677 0.935841 0.928923 0.929911 0.926457 0.926806 0.926246 0.924774 0.92032 0.917907 0.921392 0.919524 0.915555 0.91631 0.916153 0.915678 0.916075 0.914665 0.0 0.0 0.912994 0.915683 0.914172 0.0 0.919169 0.0 0.91991 0.0 0.0 0.926741 0.927787 0.928516 0.935838 0.930225 0.929702 0.92495 0.0 0.924416 0.931652 0.92984 0.932228 0.936109 0.0 0.0 0.0 0.0 0.0 0.0 0.933587 0.0 0.0 0.0 0.0 0.0 0.0 0.0 0.0 0.0 0.0 0.0 0.0 0.0 0.0 0.0 0.0 0.0 0.0 0.0 0.0 0.0 0.929005 0.0 0.0 0.0 0.0 0.931403 0.92569 0.925382 0.0 0.0 0.0 0.0 0.0 0.0 0.0 0.0 0.0 0.918702 0.0 0.919502 0.0 0.0 0.91578 0.0 0.912518 0.914293 0.910977 0.910329 0.908173 0.908381 0.909758 0.909032 0.0 0.905151 0.907035 0.905935 0.90511 0.904265 0.900446 0.903396 0.901897 0.897729 0.900896 0.900507 0.897747 0.896434 0.891877 0.899293 0.894692 0.890366 0.892141 0.893301 0.886585 0.890012 0.884129 0.885176 0.886766 0.881397 0.881772 0.882401 0.882707 0.881831 0.87806 0.876551 0.877293 0.875433 0.87354 0.871899 0.869942 0.867385 0.867617 0.869776 0.869073 0.865245 0.867541
1.60601 1.5979 1.59723 1.60152 1.59731 1.60032 1.60411 1.60389 1.59905 1.60292 1.59564 1.6082 1.5982 1.60925 1.60423 1.60831 1.60114 1.60942 1.60325 1.60422 1.6037 1.61006 1.59001 1.41862 1.1479 1.03504 1.00986 1.00034 1.00128 1.08876 1.05578 0.999531 0.941665 0.936232 0.929291 0.922605 0.923543 0.922984 0.920333 0.921201 0.91761 0.913991 0.916863 0.0 0.916323 0.91409 0.914509 0.914015 0.913501 0.914753 0.914497 0.912432 0.0 0.910327 0.0 0.0 0.913755 0.0 0.918053 0.0 0.0 0.0 0.928563 0.923872 0.929072 0.924644 0.924704 0.930462 0.923571 0.928998 0.921166 0.928972 0.925922 0.928278 0.926098 0.929327 0.0 0.0 0.0 0.0 0.0 0.0 0.0 0.0 0.0 0.0 0.0 0.0 0.0 0.0 0.0 0.0 0.0 0.0 0.0 0.0 0.0 0.0 0.0 0.0 0.0 0.0 0.0 0.0 0.0 0.0 0.923631 0.0 0.0 0.924213 0.0 0.0 0.0 0.0 0.920243 0.911419 0.0 0.917724 0.0 0.911969 0.918646 0.0 0.909504 0.914325 0.913149 0.0 0.914623 0.0 0.910061 0.913259 0.900081 0.906214 0.908457 0.900592 0.905166 0.904381 0.902984 0.904228 0.89836 0.890121 0.89838 0.893939 0.895366 0.900292 0.895497 0.896259 0.8967 0.889802 0.891951 0.891442 0.887409 0.888017 0.890339 0.882755 0.887919 0.886091 0.882213 0.8838 0.876414 0.881396 0.881443 0.873996 0.876566 0.875087 0.874148 0.876881 0.869325 0.868573 0.868919 0.865828 0.866097 0.86435 0.863974 0.8658 0.864213 0.866779
1.59118 1.58111 1.59496 1.5959 1.58973 1.59893 1.59287 1.5915 1.59714 1.5908 1.58807 1.59692 1.58949 1.59539 1.59866 1.59701 1.60276 1.60156 1.60663 1.59493 1.59613 1.5967 1.59056 1.60117 1.55222 1.30736 1.06271 1.01682 1.01165 1.10289 1.06527 1.029 0.992328 0.950849 0.94217 0.929622 0.92527 0.925012 0.923254 0.919698 0.916999 0.919006 0.914185 0.916743 0.913351 0.91587 0.911242 0.0 0.911426 0.910595 0.911829 0.908275 0.0 0.907365 0.908225 0.908769 0.912286 0.0 0.914189 0.0 0.0 0.0 0.916594 0.916703 0.9234 0.917471 0.921736 0.918774 0.923611 0.928735 0.920909 0.0 0.0 0.925008 0.92283 0.920031 0.0 0.0 0.0 0.0 0.0 0.0 0.0 0.0 0.0 0.0 0.0 0.0 0.0 0.0 0.0 0.0 0.0 0.0 0.0 0.0 0.0 0.0 0.0 0.0 0.0 0.0 0.0 0.0 0.0 0.0 0.0 0.0 0.0 0.0 0.0 0.0 0.0 0.0 0.0 0.913856 0.913717 0.0 0.0 0.0 0.913287 0.0 0.0 0.0 0.0 0.0 0.907186 0.0 0.907393 0.906129 0.899201 0.905624 0.900447 0.896444 0.899238 0.898159 0.897357 0.898601 0.897756 0.892172 0.898653 0.889796 0.89475 0.893502 0.887834 0.891528 0.890214 0.885954 0.885765 0.884093 0.883853 0.887659 0.886488 0.88239 0.881172 0.877033 0.878654 0.878508 0.873146 0.87956 0.878167 0.869291 0.872431 0.86981 0.869444 0.869612 0.868889 0.868698 0.868751 0.867633 0.864786 0.863316 0.860123 0.86475 0.864556 0.857896
1.58662 1.57963 1.58706 1.58323 1.58548 1.58203 1.58554 1.58587 1.58443 1.58688 1.5904 1.5933 1.58844 1.58379 1.59363 1.59371 1.59888 1.58936 1.59068 1.5931 1.5946 1.5894 1.5931 1.5901 1.58964 1.5871 1.47364 1.17105 1.03803 1.0758 1.08584 1.03001 0.981944 1.00914 0.972923 0.942782 0.930799 0.927605 0.925266 0.919947 0.920799 0.916012 0.913562 0.913752 0.912735 0.910212 0.0 0.911331 0.0 0.909993 0.0 0.0 0.908279 0.0 0.903456 0.906688 0.0 0.908921 0.0 0.0 0.0 0.0 0.0 0.0 0.0 0.916893 0.921157 0.915194 0.919126 0.0 0.920033 0.920613 0.921478 0.921725 0.0 0.922471 0.0 0.0 0.0 0.0 0.0 0.0 0.0 0.0 0.0 0.0 0.0 0.0 0.0 0.0 0.0 0.0 0.0 0.0 0.0 0.0 0.0 0.0 0.0 0.0 0.0 0.0 0.0 0.0 0.0 0.0 0.919489 0.0 0.0 0.0 0.0 0.0 0.0 0.0 0.0 0.0 0.915231 0.915971 0.0 0.0 0.0 0.0 0.0 0.0 0.0 0.905715 0.0 0.0 0.0 0.899285 0.898897 0.897896 0.900433 0.0 0.898626 0.894588 0.89674 0.895619 0.890939 0.888013 0.890074 0.886815 0.889414 0.888169 0.887781 0.884149 0.883424 0.882091 0.883653 0.883435 0.880572 0.0 0.880589 0.878526 0.880202 0.874616 0.877676 0.873778 0.870435 0.870519 0.868847 0.86772 0.871139 0.870228 0.867288 0.867452 0.863601 0.860009 0.864031 0.858113 0.860352 0.862258 0.855972 0.859754 0.860399 0.856254
1.58396 1.56558 1.57661 1.57726 1.57699 1.57214 1.58577 1.57992 1.56888 1.57698 1.57879 1.58196 1.58793 1.58072 1.58057 1.57606 1.58322 1.58632 1.57586 1.57769 1.58639 1.58351 1.57796 1.57755 1.58492 1.58238 1.58328 1.56811 1.44997 1.11146 1.08444 1.04972 0.991464 0.982887 0.977199 1.00555 0.963648 0.94136 0.924308 0.916636 0.913946 0.917729 0.916764 0.913705 0.914173 0.908395 0.909411 0.909517 0.908712 0.90521 0.907337 0.906469 0.0 0.0 0.0 0.90459 0.907806 0.0 0.0 0.0 0.0 0.907199 0.0 0.0 0.0 0.0 0.0 0.909198 0.915529 0.912837 0.919741 0.913709 0.920585 0.91572 0.918357 0.916465 0.917567 0.0 0.0 0.0 0.918202 0.0 0.0 0.0 0.0 0.0 0.0 0.0 0.0 0.0 0.0 0.0 0.0 0.0 0.0 0.0 0.0 0.0 0.0 0.0 0.0 0.0 0.0 0.0 0.0 0.0 0.0 0.0 0.0 0.0 0.0 0.0 0.0 0.912008 0.0 0.0 0.912534 0.0 0.0 0.0 0.0 0.906488 0.0 0.0 0.0 0.0 0.901511 0.0 0.0 0.0 0.0 0.0 0.895955 0.894914 0.894741 0.893365 0.0 0.891736 0.891479 0.888257 0.888547 0.0 0.883772 0.886634 0.0 0.886122 0.882468 0.881423 0.880355 0.878681 0.877856 0.879329 0.875838 0.874645 0.874294 0.869292 0.872063 0.870473 0.866843 0.870371 0.867834 0.865557 0.864682 0.866342 0.862264 0.860154 0.861986 0.854426 0.861557 0.854229 0.856745 0.854431 0.851804 0.850822 0.852873 0.852639
1.57265 1.5643 1.5653 1.56874 1.57155 1.56531 1.57134 1.57196 1.5663 1.57072 1.55922 1.57685 1.57485 1.58103 1.57776 1.58012 1.57785 1.57006 1.5774 1.56918 1.57441 1.57557 1.56973 1.58061 1.57814 1.57822 1.5765 1.57997 1.58019 1.15084 1.11688 1.05768 1.00007 0.991513 0.983205 0.975732 0.993782 0.99743 0.9566 0.929224 0.920357 0.920899 0.916987 0.917186 0.909077 0.914263 0.90995 0.909763 0.906587 0.904871 0.90581 0.0 0.907037 0.0 0.0 0.902775 0.906587 0.90292 0.0 0.905085 0.0 0.0 0.0 0.0 0.0 0.0 0.0 0.0 0.0 0.0 0.913125 0.914005 0.0 0.908203 0.912641 0.908344 0.91185 0.912934 0.914003 0.909339 0.0 0.0 0.0 0.0 0.0 0.922255 0.0 0.0 0.0 0.0 0.0 0.0 0.0 0.0 0.0 0.0 0.0 0.0 0.0 0.0 0.0 0.0 0.0 0.0 0.0 0.0 0.0 0.0 0.0 0.0 0.0 0.0 0.0 0.911395 0.0 0.0 0.0 0.0 0.0 0.0 0.0 0.0 0.0 0.0 0.0 0.0 0.894933 0.899355 0.0 0.0 0.89497 0.899596 0.0 0.0 0.892911 0.891239 0.886893 0.886069 0.88552 0.885537 0.0 0.0 0.881051 0.880393 0.878541 0.880762 0.879155 0.878694 0.879955 0.878277 0.87425 0.872818 0.871362 0.868433 0.872709 0.865687 0.865571 0.864561 0.863522 0.866183 0.861069 0.862801 0.858497 0.861013 0.856371 0.855968 0.858649 0.852225 0.853129 0.851735 0.853963 0.849682 0.847897 0.84999 0.848124 0.845941
1.56076 1.5563 1.55424 1.55293 1.55544 1.55844 1.56531 1.55158 1.5648 1.565 1.55691 1.57142 1.56232 1.56536 1.57092 1.56671 1.57073 1.57154 1.56684 1.56753 1.56587 1.56731 1.56956 1.56339 1.56148 1.57315 1.57695 1.56851 1.57688 1.13505 1.12445 1.19819 1.12003 1.00859 0.986834 0.983483 0.978629 0.972271 1.00236 0.981233 0.935875 0.918438 0.921322 0.91621 0.913433 0.907966 0.90721 0.904356 0.908302 0.901247 0.906642 0.905484 0.901032 0.901617 0.0 0.0 0.0 0.902881 0.0 0.902659 0.0 0.0 0.0 0.0 0.0 0.0 0.0 0.0 0.0 0.0 0.0 0.0 0.906739 0.907285 0.909317 0.903521 0.912434 0.905402 0.91128 0.905718 0.0 0.904165 0.0 0.0 0.0 0.0 0.0 0.0 0.0 0.0 0.0 0.0 0.0 0.0 0.0 0.0 0.0 0.0 0.0 0.0 0.0 0.0 0.0 0.0 0.0 0.0 0.0 0.0 0.0 0.0 0.906495 0.0 0.0 0.0 0.902277 0.0 0.0 0.0 0.0 0.0 0.0 0.0 0.0 0.0 0.0 0.0 0.0 0.893656 0.0 0.0 0.0 0.893605 0.0 0.0 0.0 0.0 0.883276 0.882158 0.87896 0.881625 0.879564 0.88247 0.876554 0.875018 0.0 0.877141 0.0 0.877113 0.87866 0.870583 0.870338 0.868616 0.863685 0.867125 0.866194 0.859757 0.863098 0.862373 0.862479 0.861119 0.85973 0.854026 0.85772 0.854246 0.854728 0.853753 0.847361 0.84774 0.849208 0.846123 0.850317 0.845757 0.847611 0.845223 0.846981 0.844792
1.55826 1.54716 1.55289 1.5555 1.54993 1.55406 1.55588 1.55989 1.55425 1.54597 1.55456 1.55603 1.55034 1.55735 1.56233 1.5587 1.56272 1.5664 1.56429 1.55494 1.55528 1.56248 1.5581 1.55799 1.56969 1.56283 1.55619 1.55587 1.55928 1.12538 1.13868 1.351 1.56143 1.33183 1.08266 0.998232 0.984015 0.977965 0.973055 0.95987 0.995233 0.954873 0.932712 0.916986 0.913033 0.907278 0.908893 0.908417 0.910291 0.90473 0.0 0.904815 0.900369 0.903038 0.0 0.0 0.0 0.90163 0.0 0.0 0.0 0.0 0.902745 0.0 0.0 0.0 0.0 0.0 0.0 0.0 0.0 0.0 0.0 0.0 0.0 0.907094 0.906992 0.0 0.907642 0.905088 0.907927 0.899329 0.0 0.901022 0.907708 0.0 0.912617 0.0 0.0 0.0 0.0 0.0 0.0 0.0 0.0 0.0 0.0 0.0 0.0 0.0 0.0 0.0 0.0 0.0 0.0 0.0 0.0 0.0 0.0 0.90949 0.0 0.0 0.0 0.0 0.0 0.0 0.0 0.0 0.0 0.0 0.0 0.0 0.0 0.0 0.0 0.0 0.891249 0.89032 0.0 0.0 0.0 0.0 0.0 0.889378 0.0 0.0 0.0 0.878821 0.878565 0.0 0.876518 0.87561 0.0 0.874019 0.876843 0.875256 0.869566 0.872018 0.870947 0.865784 0.86641 0.864399 0.866126 0.866375 0.864573 0.858136 0.862045 0.856718 0.853957 0.858905 0.855511 0.849525 0.857204 0.849743 0.848235 0.853217 0.845974 0.849736 0.848087 0.843591 0.846933 0.844055 0.838629 0.840717 0.842472 0.838895
1.54409 1.54436 1.53621 1.54799 1.54467 1.53901 1.5453 1.54565 1.5476 1.55203 1.55076 1.55252 1.54485 1.54903 1.54888 1.54924 1.54326 1.54606 1.54995 1.5581 1.55329 1.55186 1.5544 1.55806 1.55964 1.54989 1.55484 1.55279 1.55621 1.14449 1.16073 1.47 1.58465 1.56101 1.50187 1.24927 1.02689 0.990084 0.979319 0.972036 0.96648 0.968254 0.98239 0.950198 0.921473 0.916029 0.909963 0.908306 0.907516 0.901664 0.905574 0.901158 0.900577 0.897896 0.90144 0.0 0.0 0.0 0.0 0.0 0.897028 0.0 0.0 0.0 0.899299 0.0 0.0 0.0 0.0 0.0 0.0 0.0 0.0 0.0 0.0 0.0 0.0 0.904423 0.0 0.0 0.897367 0.897185 0.902395 0.897375 0.903155 0.901408 0.0 0.0 0.0 0.0 0.0 0.0 0.913384 0.0 0.0 0.0 0.0 0.0 0.0 0.0 0.0 0.0 0.0 0.0 0.0 0.0 0.0 0.0 0.0 0.0 0.0 0.0 0.0 0.0 0.0 0.0 0.0 0.0 0.0 0.0 0.0 0.0 0.0 0.0 0.895943 0.0 0.890569 0.892603 0.0 0.885648 0.884959 0.885138 0.0 0.0 0.0 0.878865 0.0 0.876057 0.0 0.874051 0.0 0.0 0.0 0.873292 0.872605 0.871894 0.865625 0.867782 0.865839 0.865325 0.867974 0.863061 0.857843 0.860983 0.858895 0.853041 0.856372 0.853346 0.851158 0.857814 0.84699 0.852423 0.85154 0.847497 0.847405 0.848975 0.84089 0.842107 0.841592 0.83907 0.841005 0.839811 0.835786 0.839817 0.837945 0.830485
1.53488 1.52518 1.54117 1.53321 1.53546 1.53316 1.53638 1.54233 1.54571 1.54282 1.54437 1.54981 1.5433 1.54806 1.54764 1.54545 1.54747 1.54857 1.54104 1.55119 1.54523 1.54582 1.5452 1.54712 1.53743 1.54936 1.541 1.55402 1.54381 1.12314 1.18183 1.48388 1.5725 1.55676 1.54356 1.53907 1.43875 1.16518 1.00257 0.979459 0.972449 0.967462 0.963032 0.973607 0.974438 0.936558 0.91633 0.912613 0.905909 0.904508 0.902491 0.900749 0.901063 0.897199 0.0 0.897727 0.900345 0.0 0.895405 0.0 0.0 0.0 0.0 0.898228 0.0 0.0 0.0 0.0 0.0 0.0 0.0 0.0 0.0 0.0 0.0 0.0 0.0 0.0 0.0 0.0 0.904211 0.896526 0.0 0.896716 0.897989 0.898045 0.898386 0.89781 0.896018 0.0 0.892086 0.0 0.0 0.0 0.0 0.0 0.0 0.0 0.0 0.0 0.0 0.0 0.0 0.0 0.0 0.0 0.0 0.0 0.0 0.0 0.0 0.0 0.0 0.0 0.0 0.0 0.0 0.0 0.0 0.0 0.890926 0.0 0.0 0.0 0.0 0.0 0.0 0.0 0.0 0.884944 0.0 0.0 0.0 0.880292 0.875988 0.0 0.877632 0.0 0.875952 0.0 0.870672 0.869468 0.0 0.0 0.868062 0.86502 0.0 0.0 0.863041 0.861365 0.862561 0.857653 0.0 0.855289 0.850324 0.85167 0.853556 0.851677 0.847768 0.850413 0.847022 0.846743 0.845577 0.844095 0.841448 0.839906 0.838331 0.835033 0.840147 0.832286 0.836744 0.83499 0.834037 0.83555 0.832844 0.82955
1.53419 1.52231 1.52637 1.5237 1.52817 1.52756 1.53078 1.53478 1.52242 1.53021 1.53513 1.53689 1.54227 1.53967 1.53443 1.5365 1.53111 1.54105 1.53181 1.54338 1.54002 1.53687 1.53539 1.54364 1.54264 1.53839 1.5393 1.54623 1.54299 1.11865 1.17641 1.49391 1.57112 1.54372 1.53667 1.53803 1.53321 1.52863 1.37767 1.08782 0.988081 0.975766 0.967524 0.963664 0.952696 0.984772 0.965784 0.928123 0.911087 0.910878 0.905021 0.901803 0.900934 0.896185 0.896461 0.893746 0.893686 0.8945 0.0 0.0 0.895646 0.0 0.0 0.0 0.0 0.894125 0.0 0.0 0.0 0.0 0.0 0.0 0.0 0.0 0.0 0.0 0.0 0.0 0.0 0.0 0.0 0.89585 0.0 0.0 0.894912 0.897369 0.0 0.895034 0.0 0.895337 0.888414 0.0 0.895525 0.0 0.0 0.0 0.0 0.0 0.0 0.0 0.0 0.0 0.0 0.0 0.0 0.0 0.0 0.0 0.0 0.0 0.0 0.0 0.0 0.0 0.0 0.0 0.0 0.0 0.0 0.0 0.0 0.0 0.0 0.0 0.0 0.0 0.0 0.0 0.0 0.0 0.0 0.0 0.0 0.0 0.875255 0.0 0.876596 0.87224 0.0 0.867296 0.867578 0.0 0.860473 0.863024 0.862338 0.0 0.865548 0.862751 0.862256 0.857099 0.857425 0.0 0.856259 0.851024 0.850378 0.851141 0.844984 0.843398 0.850081 0.844429 0.844464 0.841904 0.841874 0.838973 0.840009 0.839026 0.835752 0.829636 0.834745 0.828294 0.832465 0.831548 0.826969 0.831822 0.826617 0.825267
1.53097 1.52106 1.51599 1.51304 1.52168 1.52693 1.51759 1.52074 1.5213 1.52122 1.52473 1.52621 1.52848 1.52643 1.52091 1.53093 1.52698 1.52922 1.52569 1.52925 1.53333 1.52704 1.5293 1.53265 1.53193 1.53491 1.53004 1.53436 1.5372 1.07786 1.17213 1.49458 1.56009 1.5365 1.53471 1.52907 1.53039 1.53344 1.53058 1.50099 1.29106 1.04809 0.979927 0.967843 0.963669 0.957696 0.951985 0.985225 0.954952 0.925499 0.913149 0.902834 0.901377 0.891891 0.898695 0.892424 0.89296 0.893775 0.0 0.891486 0.888972 0.891801 0.0 0.0 0.0 0.0 0.0 0.0 0.0 0.0 0.0 0.0 0.0 0.0 0.0 0.0 0.0 0.0 0.0 0.0 0.0 0.0 0.0 0.0 0.0 0.894576 0.0 0.894642 0.0 0.894645 0.885028 0.890388 0.0 0.894763 0.0 0.887684 0.880377 0.0 0.0 0.0 0.0 0.0 0.0 0.0 0.0 0.0 0.0 0.0 0.0 0.0 0.0 0.0 0.0 0.0 0.0 0.0 0.0 0.0 0.0 0.0 0.0 0.0 0.0 0.0 0.0 0.0 0.0 0.0 0.0 0.0 0.0 0.872333 0.0 0.870269 0.872149 0.0 0.0 0.0 0.866815 0.860967 0.861835 0.860924 0.857656 0.0 0.860387 0.859384 0.864168 0.858467 0.0 0.856002 0.851408 0.0 0.851686 0.849334 0.846383 0.84743 0.844144 0.840263 0.84122 0.844138 0.837329 0.84103 0.838437 0.836385 0.839113 0.834735 0.829771 0.829287 0.827924 0.824285 0.829287 0.827529 0.826293 0.824184 0.826751 0.822624
1.51421 1.50346 1.50558 1.51096 1.51099 1.51261 1.51081 1.51396 1.51312 1.51811 1.50615 1.50987 1.52285 1.51318 1.51956 1.51851 1.5157 1.52221 1.51156 1.51596 1.51546 1.51747 1.52805 1.52883 1.52265 1.5236 1.52769 1.52161 1.53052 1.07452 1.15942 1.49231 1.54671 1.53159 1.53301 1.52855 1.52462 1.52386 1.53184 1.52808 1.53189 1.4658 1.21355 1.00875 0.974011 0.963638 0.958236 0.952803 0.943501 0.992084 0.958208 0.926038 0.908314 0.894991 0.897644 0.890786 0.888949 0.0 0.88551 0.0 0.0 0.0 0.890605 0.884165 0.0 0.0 0.0 0.0 0.0 0.0 0.0 0.0 0.0 0.0 0.0 0.0 0.0 0.0 0.0 0.0 0.0 0.0 0.0 0.0 0.0 0.0 0.0 0.0 0.0 0.886145 0.879532 0.0 0.884834 0.889858 0.0 0.0 0.0 0.0 0.0 0.0 0.0 0.0 0.0 0.0 0.0 0.0 0.0 0.0 0.0 0.0 0.0 0.0 0.0 0.0 0.0 0.0 0.0 0.0 0.0 0.0 0.0 0.0 0.0 0.0 0.0 0.0 0.0 0.0 0.0 0.0 0.0 0.0 0.0 0.0 0.0 0.0 0.862144 0.864834 0.0 0.0 0.0 0.858965 0.86182 0.858236 0.854054 0.859737 0.858994 0.857648 0.850776 0.855172 0.849999 0.845965 0.845946 0.844172 0.843234 0.841696 0.840703 0.840826 0.839203 0.837838 0.83559 0.834167 0.835833 0.830664 0.829433 0.828733 0.81899 0.826384 0.827541 0.823056 0.824133 0.819589 0.817525 0.822085 0.821043 0.817749
1.50184 1.5013 1.49266 1.49193 1.50971 1.50272 1.50204 1.5038 1.50632 1.5113 1.50471 1.50731 1.50901 1.51121 1.51732 1.50891 1.5132 1.51232 1.50995 1.51493 1.51358 1.51504 1.5173 1.51836 1.52139 1.51861 1.51924 1.52299 1.51427 1.03959 1.12872 1.4929 1.54522 1.52984 1.52078 1.51895 1.52057 1.52157 1.52399 1.51965 1.52111 1.52166 1.52071 1.42157 1.14547 0.988089 0.965336 0.95756 0.952404 0.947219 0.944073 0.992645 0.953681 0.913165 0.896573 0.895653 0.897976 0.889301 0.889804 0.889695 0.0 0.889423 0.0 0.0 0.89037 0.0 0.0 0.0 0.0 0.0 0.0 0.0 0.0 0.0 0.0 0.0 0.0 0.0 0.0 0.0 0.0 0.0 0.0 0.0 0.0 0.0 0.0 0.0 0.880639 0.0 0.885101 0.888955 0.878725 0.882547 0.878872 0.0 0.880153 0.0 0.0 0.0 0.0 0.0 0.0 0.0 0.0 0.0 0.0 0.0 0.0 0.0 0.0 0.0 0.0 0.0 0.0 0.0 0.0 0.0 0.0 0.0 0.0 0.0 0.0 0.0 0.0 0.0 0.0 0.0 0.0 0.0 0.0 0.0 0.0 0.0 0.0 0.0 0.0 0.0 0.859379 0.861429 0.85732 0.0 0.854593 0.855961 0.0 0.0 0.850617 0.0 0.0 0.848543 0.849147 0.845687 0.847386 0.842156 0.837198 0.837953 0.835243 0.831366 0.830037 0.834657 0.832407 0.831265 0.829242 0.826908 0.828498 0.824691 0.824516 0.82318 0.820409 0.818727 0.8198 0.816929 0.816527 0.816637 0.815595 0.812581
1.50813 1.48697 1.49269 1.49392 1.48897 1.49475 1.48879 1.5003 1.50479 1.4997 1.5021 1.50049 1.50135 1.50101 1.51164 1.50609 1.5101 1.50639 1.50744 1.50816 1.51139 1.50513 1.50968 1.51132 1.50285 1.5087 1.51249 1.51423 1.51851 1.00325 1.1021 1.48707 1.54341 1.51788 1.51552 1.51923 1.51328 1.51486 1.51612 1.51149 1.51559 1.51057 1.51108 1.51214 1.50935 1.36771 1.09071 0.976717 0.956847 0.956984 0.949424 0.943013 0.944849 0.986899 0.94018 0.907006 0.893926 0.888818 0.888729 0.882982 0.886715 0.883005 0.0 0.0 0.0 0.881055 0.881715 0.0 0.0 0.0 0.0 0.0 0.0 0.0 0.0 0.0 0.0 0.0 0.0 0.0 0.0 0.0 0.0 0.0 0.0 0.0 0.0 0.0 0.0 0.0 0.880771 0.0 0.88098 0.0 0.875145 0.878634 0.87224 0.0 0.0 0.0 0.881185 0.0 0.0 0.0 0.0 0.0 0.0 0.0 0.0 0.0 0.0 0.0 0.0 0.0 0.0 0.0 0.0 0.0 0.0 0.0 0.0 0.0 0.0 0.0 0.0 0.0 0.0 0.0 0.0 0.0 0.0 0.0 0.0 0.0 0.0 0.0 0.861713 0.0 0.856806 0.0 0.0 0.85266 0.0 0.0 0.851228 0.847898 0.0 0.0 0.848783 0.844501 0.843084 0.844521 0.83874 0.837537 0.836022 0.835339 0.833769 0.826752 0.830264 0.827191 0.823811 0.832595 0.822923 0.823699 0.820207 0.819786 0.817363 0.820797 0.816344 0.814102 0.819072 0.810077 0.810787 0.813942 0.817313 0.81153
1.49376 1.48831 1.48384 1.48452 1.48595 1.48758 1.48636 1.48951 1.4845 1.49032 1.49103 1.48606 1.48831 1.49869 1.49547 1.49954 1.501 1.49446 1.49978 1.49793 1.49402 1.49547 1.50031 1.50109 1.50039 1.51084 1.51637 1.49708 1.43959 0.957421 1.06105 1.46963 1.53403 1.51171 1.50965 1.51074 1.50567 1.50055 1.50151 1.5071 1.50974 1.50825 1.50876 1.50484 1.51115 1.51038 1.48517 1.30922 1.0396 0.964055 0.950612 0.94923 0.941622 0.936938 0.954113 0.980462 0.9325 0.902535 0.892675 0.886641 0.886815 0.879548 0.882356 0.0 0.0 0.0 0.0 0.0 0.0 0.0 0.0 0.0 0.0 0.0 0.0 0.0 0.0 0.0 0.0 0.0 0.0 0.0 0.0 0.0 0.0 0.0 0.0 0.0 0.0 0.0 0.0 0.0 0.0 0.0 0.0 0.873397 0.874178 0.87106 0.0 0.0 0.0 0.0 0.0 0.0 0.0 0.0 0.0 0.0 0.0 0.0 0.0 0.0 0.0 0.0 0.0 0.0 0.0 0.0 0.0 0.0 0.0 0.0 0.0 0.0 0.0 0.0 0.0 0.0 0.0 0.0 0.0 0.0 0.0 0.0 0.0 0.0 0.0 0.0 0.0 0.0 0.0 0.0 0.0 0.0 0.846883 0.845584 0.846576 0.845806 0.844145 0.841884 0.0 0.835858 0.837838 0.833476 0.83196 0.833848 0.831132 0.826967 0.82819 0.824546 0.824283 0.823421 0.81857 0.821035 0.818668 0.815147 0.811602 0.815872 0.811702 0.81169 0.811916 0.808489 0.808635 0.811777 0.807412 0.806874
1.47637 1.47832 1.47799 1.48199 1.47846 1.48121 1.48555 1.48817 1.48207 1.48202 1.48666 1.49237 1.48622 1.48843 1.4934 1.49409 1.49131 1.48449 1.48981 1.4874 1.49318 1.49208 1.49521 1.48712 1.49415 1.49598 1.4923 1.44163 1.20944 0.908197 0.990561 1.26871 1.49448 1.51102 1.50113 1.49786 1.50095 1.50079 1.50059 1.50181 1.50357 1.50559 1.5067 1.50455 1.49766 1.50452 1.50402 1.50347 1.47111 1.2514 1.00953 0.955707 0.946049 0.943148 0.939927 0.933134 0.949979 0.959128 0.913771 0.896792 0.886004 0.881119 0.88185 0.878111 0.874053 0.87889 0.878066 0.0 0.876661 0.0 0.877271 0.0 0.0 0.0 0.0 0.0 0.0 0.0 0.0 0.0 0.0 0.0 0.0 0.0 0.0 0.0 0.0 0.0 0.0 0.0 0.0 0.0 0.0 0.0 0.0 0.0 0.0 0.869694 0.870143 0.868788 0.0 0.865731 0.0 0.0 0.0 0.0 0.0 0.0 0.0 0.0 0.0 0.0 0.0 0.0 0.0 0.0 0.0 0.0 0.0 0.0 0.0 0.0 0.0 0.0 0.0 0.0 0.0 0.0 0.0 0.0 0.0 0.0 0.0 0.0 0.0 0.0 0.0 0.0 0.0 0.851895 0.846918 0.0 0.84825 0.0 0.0 0.0 0.839323 0.843463 0.840646 0.0 0.839839 0.838102 0.836914 0.0 0.83017 0.828051 0.8299 0.0 0.824957 0.823015 0.818213 0.812262 0.817305 0.812997 0.814011 0.812176 0.811152 0.810371 0.805926 0.811206 0.809197 0.805767 0.805352 0.805447 0.803292 0.802475
1.47346 1.4598 1.47183 1.46536 1.47398 1.46843 1.47415 1.47259 1.47179 1.47956 1.47805 1.48096 1.48436 1.47787 1.47776 1.47928 1.48075 1.48187 1.4818 1.48394 1.48774 1.48808 1.4835 1.49458 1.49132 1.49373 1.47973 1.22952 0.987234 0.889904 0.91962 0.97395 1.07758 1.46394 1.51029 1.48846 1.48689 1.49255 1.49788 1.48744 1.49358 1.50115 1.49378 1.49514 1.49237 1.49043 1.48405 1.49319 1.49408 1.49552 1.43835 1.20401 0.992011 0.951683 0.943161 0.943765 0.933413 0.927169 0.958773 0.953681 0.910943 0.895113 0.879248 0.879963 0.876506 0.873623 0.878146 0.874334 0.876152 0.0 0.0 0.0 0.0 0.0 0.0 0.0 0.0 0.0 0.0 0.0 0.0 0.0 0.0 0.0 0.0 0.0 0.0 0.0 0.0 0.0 0.0 0.0 0.0 0.0 0.0 0.0 0.0 0.0 0.0 0.0 0.0 0.0 0.0 0.0 0.864563 0.0 0.0 0.0 0.0 0.0 0.0 0.0 0.0 0.0 0.0 0.0 0.0 0.0 0.0 0.0 0.0 0.0 0.0 0.0 0.0 0.0 0.0 0.0 0.0 0.0 0.0 0.0 0.0 0.0 0.0 0.0 0.0 0.0 0.0 0.0 0.0 0.0 0.0 0.0 0.0 0.839162 0.0 0.0 0.0 0.0 0.0 0.0 0.0 0.829597 0.823216 0.0 0.0 0.824759 0.820001 0.816643 0.0 0.814942 0.813761 0.81086 0.812989 0.806942 0.809275 0.807649 0.809335 0.806244 0.805622 0.798591 0.804258 0.800206 0.799428 0.801076
1.46286 1.45826 1.46919 1.46413 1.47497 1.46669 1.46605 1.47228 1.46732 1.46812 1.47361 1.47344 1.47517 1.47177 1.47675 1.47518 1.47524 1.47949 1.47603 1.47392 1.48369 1.47692 1.47919 1.48427 1.48416 1.47311 1.3478 1.11494 0.933193 0.882859 0.868128 0.920034 0.946307 1.16799 1.502 1.49557 1.49315 1.48254 1.48409 1.48501 1.48649 1.48705 1.48991 1.49215 1.48851 1.48218 1.49105 1.49169 1.4826 1.48404 1.48515 1.48859 1.40658 1.15734 0.974676 0.942843 0.938705 0.934542 0.927989 0.920521 0.954162 0.945182 0.909808 0.888311 0.878341 0.875463 0.874346 0.868758 0.868791 0.875047 0.869997 0.0 0.0 0.0 0.0 0.0 0.0 0.0 0.0 0.0 0.0 0.0 0.0 0.0 0.0 0.0 0.0 0.0 0.0 0.0 0.0 0.0 0.0 0.0 0.0 0.0 0.0 0.0 0.0 0.0 0.0 0.0 0.0 0.861022 0.857211 0.863792 0.0 0.0 0.0 0.864966 0.0 0.0 0.0 0.0 0.0 0.0 0.0 0.0 0.0 0.0 0.0 0.0 0.0 0.0 0.0 0.0 0.0 0.0 0.0 0.0 0.0 0.0 0.0 0.0 0.0 0.0 0.0 0.0 0.0 0.0 0.0 0.0 0.0 0.0 0.0 0.0 0.0 0.0 0.833596 0.0 0.832203 0.0 0.0 0.824339 0.829377 0.822403 0.0 0.820069 0.818717 0.817336 0.81536 0.811664 0.809071 0.806452 0.806612 0.805333 0.800108 0.805742 0.801849 0.802654 0.803137 0.794447 0.798446 0.797703 0.791698 0.792252
1.45332 1.46049 1.45719 1.46285 1.45414 1.45496 1.45958 1.45915 1.45809 1.46669 1.46103 1.46002 1.46763 1.46312 1.46387 1.46879 1.46858 1.46548 1.46683 1.47097 1.46597 1.46659 1.46629 1.47964 1.4824 1.46708 1.18288 1.06716 0.928665 0.876377 0.888166 0.918991 0.942933 1.05797 1.48094 1.48929 1.48339 1.48325 1.4819 1.48342 1.47762 1.47672 1.47929 1.47423 1.47906 1.47771 1.48072 1.49015 1.47668 1.48105 1.47306 1.48238 1.48284 1.48033 1.3723 1.10109 0.961071 0.940105 0.93327 0.930545 0.926023 0.91911 0.964258 0.942811 0.900886 0.882613 0.877648 0.869696 0.868248 0.868267 0.867972 0.0 0.0 0.0 0.0 0.868029 0.0 0.0 0.0 0.0 0.0 0.0 0.0 0.0 0.0 0.0 0.0 0.0 0.0 0.0 0.0 0.0 0.0 0.0 0.0 0.0 0.0 0.0 0.0 0.0 0.0 0.0 0.0 0.0 0.0 0.855833 0.853777 0.0 0.0 0.0 0.0 0.0 0.0 0.0 0.0 0.0 0.0 0.0 0.0 0.0 0.0 0.0 0.0 0.0 0.0 0.0 0.0 0.0 0.0 0.0 0.0 0.0 0.0 0.0 0.0 0.0 0.0 0.0 0.0 0.0 0.841011 0.0 0.0 0.839598 0.83802 0.0 0.0 0.0 0.0 0.0 0.82836 0.0 0.821424 0.822778 0.820963 0.819123 0.818109 0.0 0.814577 0.813194 0.0 0.811747 0.804928 0.809607 0.799382 0.798945 0.798751 0.797683 0.795189 0.799044 0.795922 0.793323 0.794274 0.7971 0.794108 0.793546
1.4522 1.44191 1.43722 1.43024 1.44816 1.45258 1.45307 1.45183 1.46076 1.45326 1.45735 1.4558 1.45753 1.46145 1.46081 1.45927 1.46272 1.45484 1.4593 1.46316 1.46328 1.45567 1.46505 1.46728 1.46433 1.28182 1.08644 1.02117 0.897429 0.882241 0.881371 0.930023 0.975305 1.29011 1.44312 1.49021 1.47043 1.4787 1.47387 1.47452 1.47571 1.47046 1.47448 1.47614 1.4763 1.47994 1.47798 1.47482 1.47454 1.47159 1.47681 1.47203 1.46779 1.47821 1.47597 1.46426 1.34642 1.08186 0.954449 0.939639 0.936311 0.926459 0.922195 0.916429 0.958284 0.937984 0.896916 0.883055 0.868574 0.870374 0.865039 0.864431 0.866775 0.0 0.0 0.864209 0.0 0.0 0.0 0.0 0.0 0.0 0.0 0.0 0.0 0.0 0.0 0.0 0.0 0.0 0.0 0.0 0.0 0.0 0.0 0.0 0.0 0.0 0.0 0.0 0.0 0.0 0.0 0.0 0.0 0.0 0.0 0.0 0.0 0.84964 0.852262 0.85072 0.0 0.850547 0.0 0.0 0.0 0.0 0.0 0.0 0.0 0.0 0.0 0.0 0.0 0.0 0.0 0.0 0.0 0.0 0.0 0.0 0.0 0.0 0.0 0.0 0.0 0.0 0.0 0.0 0.837456 0.0 0.0 0.0 0.0 0.0 0.832093 0.0 0.0 0.819337 0.0 0.0 0.820134 0.815778 0.815674 0.812981 0.810265 0.810359 0.806743 0.809034 0.805083 0.803643 0.803015 0.800951 0.797179 0.796455 0.794303 0.792954 0.790182 0.793476 0.788974 0.796308 0.790357 0.791527 0.789358 0.78688
1.44313 1.43286 1.44651 1.43848 1.44297 1.44878 1.44708 1.45552 1.44536 1.44869 1.45001 1.44457 1.44742 1.45133 1.44537 1.45449 1.45092 1.45404 1.45174 1.45871 1.45686 1.45324 1.46404 1.4606 1.41062 1.11581 0.999913 0.922019 0.866812 0.867397 0.927446 0.956253 1.11417 1.38696 1.46195 1.47664 1.46614 1.46281 1.47046 1.46763 1.46534 1.46823 1.46236 1.47014 1.47031 1.46869 1.46936 1.47 1.46797 1.45858 1.46908 1.47193 1.46653 1.46784 1.46442 1.46979 1.46983 1.45187 1.31656 1.05544 0.948915 0.935835 0.925972 0.921398 0.917098 0.911591 0.958138 0.933366 0.893455 0.880749 0.865943 0.864745 0.866198 0.864077 0.0 0.865716 0.0 0.0 0.862413 0.0 0.0 0.0 0.864711 0.0 0.0 0.0 0.0 0.0 0.0 0.0 0.0 0.0 0.0 0.0 0.0 0.0 0.0 0.0 0.0 0.0 0.0 0.0 0.0 0.0 0.0 0.0 0.0 0.0 0.0 0.84996 0.847251 0.842456 0.850362 0.0 0.849559 0.84677 0.0 0.0 0.0 0.0 0.0 0.0 0.0 0.0 0.0 0.0 0.0 0.0 0.0 0.0 0.0 0.0 0.0 0.0 0.0 0.0 0.0 0.0 0.0 0.0 0.0 0.0 0.832572 0.0 0.0 0.83215 0.827358 0.0 0.0 0.0 0.0 0.81745 0.820531 0.815316 0.0 0.0 0.810633 0.805057 0.805962 0.804012 0.802878 0.802275 0.80276 0.799287 0.798306 0.794501 0.791785 0.791541 0.790981 0.788722 0.786155 0.78273 0.788619 0.78676 0.785412 0.782931
1.42372 1.42596 1.42104 1.42476 1.42842 1.43036 1.43554 1.43596 1.43355 1.43687 1.43791 1.43916 1.44118 1.43922 1.45148 1.44519 1.44219 1.4515 1.45035 1.43784 1.44814 1.44425 1.45107 1.4408 1.27729 0.962711 0.86503 0.857961 0.0 0.890116 0.934918 0.992736 1.31599 1.41238 1.48011 1.4619 1.45892 1.45416 1.44992 1.46013 1.45785 1.46103 1.45372 1.46149 1.46253 1.46121 1.44904 1.46604 1.46197 1.46517 1.45986 1.45772 1.46699 1.4642 1.46137 1.46116 1.46296 1.46327 1.46414 1.45053 1.29364 1.03511 0.941223 0.930171 0.924405 0.920388 0.913688 0.907261 0.95376 0.933101 0.894056 0.873031 0.864416 0.863779 0.860162 0.857416 0.0 0.862547 0.0 0.858421 0.0 0.0 0.0 0.0 0.0 0.0 0.0 0.0 0.0 0.0 0.0 0.0 0.0 0.0 0.0 0.0 0.0 0.0 0.0 0.0 0.0 0.0 0.0 0.0 0.0 0.0 0.0 0.0 0.0 0.0 0.0 0.0 0.843563 0.0 0.0 0.839092 0.837471 0.0 0.841248 0.0 0.0 0.0 0.0 0.0 0.0 0.0 0.0 0.0 0.0 0.0 0.0 0.0 0.0 0.0 0.0 0.0 0.0 0.0 0.0 0.0 0.0 0.0 0.0 0.0 0.0 0.0 0.0 0.0 0.818141 0.814158 0.812729 0.0 0.0 0.809426 0.807892 0.0 0.805028 0.801718 0.799232 0.797566 0.800369 0.794989 0.798556 0.795363 0.794098 0.7928 0.791747 0.78511 0.787872 0.781742 0.77918 0.782635 0.78219 0.779787 0.779806 0.78223
1.41894 1.4212 1.42257 1.42141 1.42754 1.42457 1.42672 1.42605 1.42613 1.42807 1.4294 1.43065 1.43212 1.43659 1.44213 1.44343 1.44634 1.44415 1.45117 1.4497 1.45522 1.45702 1.45282 1.43805 1.32622 0.956328 0.867614 0.0 0.849467 0.918477 0.964415 1.16516 1.33908 1.48719 1.47081 1.45291 1.45629 1.45675 1.45658 1.45493 1.45845 1.4512 1.4529 1.45165 1.45037 1.44729 1.45497 1.45386 1.45506 1.45359 1.45383 1.45463 1.45422 1.45407 1.45477 1.45544 1.45696 1.4605 1.44725 1.45102 1.45889 1.43669 1.27944 1.02412 0.931673 0.924125 0.919503 0.913678 0.909603 0.906689 0.959349 0.926537 0.887767 0.863756 0.863993 0.857106 0.855828 0.856902 0.854405 0.0 0.853509 0.857781 0.0 0.0 0.0 0.0 0.0 0.0 0.0 0.0 0.0 0.0 0.0 0.0 0.0 0.0 0.0 0.0 0.0 0.0 0.0 0.0 0.0 0.0 0.0 0.0 0.0 0.0 0.0 0.0 0.0 0.0 0.0 0.0 0.839788 0.0 0.833616 0.840809 0.0 0.0 0.0 0.840247 0.0 0.0 0.0 0.0 0.0 0.0 0.0 0.0 0.0 0.0 0.0 0.0 0.0 0.0 0.0 0.0 0.0 0.0 0.0 0.0 0.0 0.0 0.0 0.0 0.822144 0.0 0.0 0.0 0.0 0.810498 0.0 0.0 0.804826 0.799865 0.0 0.799489 0.798126 0.797014 0.790819 0.793578 0.791816 0.790303 0.792659 0.791075 0.78585 0.781991 0.78253 0.780543 0.778523 0.773723 0.777667 0.779361 0.781819 0.780139
1.41601 1.41585 1.41506 1.40955 1.41239 1.42366 1.41595 1.42024 1.42199 1.41649 1.42861 1.42822 1.42136 1.42555 1.43053 1.42707 1.42969 1.43002 1.41734 1.42175 1.45122 1.44908 1.44659 1.39782 1.13079 0.959881 0.915724 0.880818 0.895471 0.94988 1.03905 1.07939 1.01215 1.33903 1.46264 1.45254 1.45017 1.44601 1.44324 1.44593 1.44858 1.44511 1.44478 1.45254 1.44749 1.44792 1.44628 1.44663 1.44812 1.44665 1.45129 1.45092 1.45198 1.45653 1.4543 1.44823 1.45004 1.45035 1.44946 1.44941 1.45022 1.44363 1.44997 1.42594 1.26896 1.00743 0.931475 0.922123 0.916582 0.917515 0.903365 0.897462 0.944742 0.919002 0.886131 0.868312 0.859346 0.853614 0.851712 0.850978 0.853484 0.0 0.0 0.0 0.0 0.0 0.0 0.0 0.0 0.0 0.0 0.0 0.0 0.0 0.0 0.0 0.0 0.0 0.0 0.0 0.0 0.0 0.0 0.0 0.0 0.0 0.0 0.0 0.0 0.0 0.0 0.0 0.0 0.0 0.0 0.0 0.0 0.832227 0.829104 0.825673 0.830444 0.824633 0.832292 0.0 0.0 0.0 0.0 0.0 0.0 0.0 0.0 0.0 0.0 0.0 0.0 0.0 0.0 0.0 0.0 0.0 0.0 0.0 0.0 0.0 0.0 0.0 0.0 0.817134 0.0 0.0 0.0 0.808558 0.0 0.805832 0.803721 0.0 0.797448 0.794982 0.794742 0.78773 0.793321 0.787945 0.786741 0.781603 0.787855 0.781826 0.780216 0.782445 0.776621 0.77436 0.77344 0.772482 0.779962 0.766354 0.765557 0.774491
1.41114 1.40206 1.41132 1.41373 1.41006 1.4093 1.4079 1.4067 1.41037 1.41205 1.42141 1.41632 1.41475 1.41644 1.41138 1.42718 1.42703 1.36262 1.06569 1.08188 1.18459 1.29435 1.3151 1.0737 0.959953 0.94692 0.922723 0.914086 0.956154 1.10082 1.16006 0.962869 0.883541 0.921957 1.23891 1.44149 1.44228 1.44534 1.43971 1.43604 1.44505 1.44101 1.44272 1.43714 1.44109 1.43659 1.43698 1.44374 1.43853 1.44144 1.44403 1.43695 1.44181 1.44284 1.44559 1.43807 1.44339 1.44547 1.43812 1.44806 1.43682 1.43642 1.44216 1.44376 1.4362 1.41742 1.25246 1.01246 0.927649 0.91502 0.911509 0.912111 0.902065 0.896722 0.938626 0.924093 0.885297 0.865388 0.858761 0.852706 0.848999 0.848825 0.852185 0.0 0.0 0.0 0.0 0.0 0.0 0.0 0.0 0.0 0.0 0.0 0.0 0.0 0.0 0.0 0.0 0.0 0.0 0.0 0.0 0.0 0.0 0.0 0.0 0.0 0.0 0.0 0.0 0.0 0.0 0.0 0.0 0.0 0.0 0.0 0.0 0.0 0.829485 0.0 0.827812 0.819634 0.81905 0.0 0.0 0.828269 0.0 0.0 0.0 0.0 0.0 0.0 0.0 0.0 0.0 0.0 0.0 0.0 0.0 0.0 0.0 0.0 0.0 0.0 0.0 0.810903 0.0 0.0 0.0 0.806312 0.0 0.0 0.799198 0.0 0.79518 0.794962 0.0 0.786574 0.785429 0.782298 0.782209 0.784033 0.778589 0.780892 0.777335 0.777343 0.77428 0.777786 0.776022 0.774223 0.769111 0.768064 0.767792 0.765576
1.40029 1.4034 1.39315 1.39826 1.40059 1.40857 1.39352 1.40357 1.40588 1.4106 1.40754 1.40965 1.40837 1.41702 1.4106 1.41385 1.40755 1.29396 0.970453 0.915414 0.936111 0.946412 0.956707 0.959081 1.00361 0.962603 0.932795 0.941259 1.09952 1.23992 1.26844 1.2701 0.88923 0.0 0.890577 1.1037 1.40503 1.44089 1.44334 1.43912 1.43224 1.42965 1.43397 1.43303 1.43119 1.43046 1.4358 1.43064 1.43475 1.43184 1.43909 1.43202 1.43863 1.43937 1.43365 1.43754 1.4373 1.43498 1.4338 1.43728 1.43868 1.44679 1.43727 1.43387 1.43426 1.43521 1.43525 1.41347 1.24262 1.00797 0.924916 0.916088 0.905763 0.901018 0.895663 0.8956 0.926816 0.926726 0.889105 0.864156 0.853956 0.846987 0.846206 0.846 0.0 0.0 0.0 0.845608 0.0 0.84975 0.0 0.0 0.0 0.0 0.0 0.0 0.0 0.0 0.0 0.0 0.0 0.0 0.0 0.0 0.0 0.0 0.0 0.0 0.0 0.0 0.0 0.0 0.0 0.0 0.0 0.0 0.0 0.0 0.0 0.0 0.83114 0.0 0.0 0.818654 0.817775 0.823296 0.0 0.0 0.0 0.0 0.0 0.0 0.0 0.0 0.0 0.0 0.0 0.0 0.0 0.0 0.0 0.0 0.0 0.0 0.0 0.0 0.0 0.0 0.0 0.0 0.0 0.0 0.799708 0.793377 0.797199 0.0 0.0 0.0 0.782587 0.786231 0.781443 0.782217 0.779609 0.778365 0.77681 0.770794 0.773603 0.775534 0.773014 0.766073 0.767061 0.763084 0.765623 0.763754 0.766188 0.764233
1.38564 1.37876 1.39042 1.39147 1.38809 1.39607 1.39689 1.39956 1.40546 1.40112 1.40304 1.40129 1.40113 1.40617 1.40199 1.40134 1.40342 1.39147 1.35169 1.17906 1.00522 0.945004 0.940639 1.00143 1.08076 1.02805 1.00349 0.957247 1.2379 1.40708 1.41012 1.41856 1.38236 0.981888 0.0 0.0 0.971069 1.3294 1.43943 1.4381 1.42635 1.4203 1.42461 1.42484 1.42416 1.43213 1.43254 1.42624 1.42976 1.42424 1.43149 1.43347 1.43454 1.42653 1.43045 1.42937 1.43177 1.43356 1.4277 1.4259 1.43023 1.43189 1.43146 1.42191 1.43199 1.43265 1.42652 1.433 1.4221 1.41145 1.24739 1.00691 0.919148 0.908521 0.904944 0.900464 0.894488 0.892917 0.926142 0.931034 0.883965 0.859003 0.852321 0.844736 0.84481 0.842506 0.840775 0.841687 0.0 0.0 0.0 0.0 0.0 0.0 0.0 0.0 0.0 0.0 0.0 0.0 0.0 0.0 0.0 0.0 0.0 0.0 0.0 0.0 0.0 0.0 0.0 0.0 0.0 0.0 0.0 0.0 0.0 0.0 0.0 0.0 0.0 0.0 0.0 0.824657 0.0 0.81616 0.811164 0.813429 0.815962 0.811788 0.814566 0.814129 0.812222 0.816085 0.0 0.0 0.0 0.0 0.81306 0.0 0.0 0.0 0.0 0.0 0.0 0.0 0.0 0.0 0.0 0.0 0.0 0.0 0.0 0.795321 0.0 0.786555 0.0 0.785853 0.781672 0.782784 0.781904 0.776255 0.778098 0.769908 0.775005 0.76954 0.772333 0.766267 0.764031 0.768066 0.763291 0.763131 0.758847 0.764581 0.760222 0.759619
1.3812 1.37919 1.37736 1.3822 1.38373 1.38627 1.38955 1.38703 1.38826 1.39024 1.39491 1.39814 1.39496 1.38893 1.405 1.39966 1.39479 1.40435 1.40102 1.38138 1.35179 1.12311 0.94541 0.89169 0.893948 1.05226 1.04847 0.980529 1.24492 1.44176 1.43176 1.41171 1.41012 1.39562 1.18239 0.902974 0.0 0.910254 1.19682 1.42179 1.43713 1.42794 1.42101 1.42471 1.42173 1.4242 1.42143 1.41687 1.42417 1.42186 1.42358 1.42468 1.42313 1.42359 1.41963 1.42556 1.42563 1.42244 1.42712 1.42065 1.4197 1.42898 1.41977 1.43016 1.4244 1.42066 1.4207 1.42571 1.42041 1.42036 1.42205 1.40342 1.25409 1.01282 0.923012 0.904702 0.902271 0.89275 0.890869 0.883076 0.912407 0.929345 0.88995 0.864389 0.851783 0.843878 0.842151 0.841882 0.841596 0.0 0.0 0.0 0.0 0.0 0.0 0.0 0.0 0.0 0.0 0.0 0.0 0.0 0.0 0.0 0.0 0.0 0.0 0.0 0.0 0.0 0.0 0.0 0.0 0.0 0.0 0.0 0.0 0.0 0.0 0.0 0.0 0.0 0.0 0.0 0.0 0.0 0.813043 0.0 0.814917 0.810163 0.809455 0.809016 0.808557 0.0 0.801509 0.809936 0.0 0.81112 0.0 0.0 0.0 0.805159 0.807909 0.0 0.0 0.0 0.0 0.0 0.0 0.0 0.0 0.793496 0.0 0.0 0.788907 0.784513 0.785713 0.0 0.0 0.7782 0.773415 0.772784 0.770453 0.769757 0.767643 0.768258 0.766078 0.761394 0.761625 0.765095 0.763594 0.756338 0.75532 0.753719 0.761541 0.753369
1.37214 1.37392 1.3651 1.37534 1.37227 1.37698 1.37918 1.38076 1.38283 1.38235 1.38592 1.38558 1.39179 1.39104 1.39354 1.38544 1.39503 1.39986 1.38874 1.39877 1.39728 1.32251 1.01392 0.891728 0.830285 0.982066 1.0387 0.912808 1.19346 1.40444 1.42087 1.40655 1.4101 1.40791 1.40109 1.34699 0.935725 0.0 0.0 1.04642 1.36956 1.42025 1.42659 1.41645 1.41117 1.4174 1.4129 1.41327 1.40926 1.41334 1.41506 1.41704 1.41578 1.42119 1.41317 1.41618 1.4142 1.41365 1.41277 1.418 1.41385 1.41638 1.41391 1.41756 1.41533 1.41745 1.41691 1.41047 1.41193 1.40777 1.41181 1.40818 1.41363 1.39525 1.26684 1.02333 0.91913 0.901385 0.894212 0.890846 0.887755 0.881113 0.898602 0.929628 0.892298 0.863489 0.851159 0.839695 0.83941 0.835868 0.0 0.836396 0.0 0.837742 0.0 0.0 0.0 0.0 0.0 0.0 0.0 0.0 0.0 0.0 0.0 0.0 0.0 0.0 0.0 0.0 0.0 0.0 0.0 0.0 0.0 0.0 0.0 0.0 0.0 0.0 0.0 0.0 0.0 0.0 0.0 0.0 0.0 0.0 0.0 0.0 0.806357 0.801866 0.0 0.803237 0.802157 0.0 0.0 0.795054 0.803085 0.0 0.80068 0.0 0.0 0.0 0.800165 0.0 0.0 0.0 0.79724 0.0 0.789255 0.0 0.0 0.786152 0.780096 0.781604 0.785036 0.780033 0.778084 0.774435 0.0 0.766515 0.767512 0.767362 0.765518 0.762541 0.76146 0.761442 0.757277 0.762646 0.757323 0.754155 0.755838 0.754492 0.752567 0.751949
1.36065 1.35732 1.36224 1.36277 1.36701 1.36902 1.3696 1.37309 1.37325 1.37607 1.38322 1.37712 1.3803 1.38894 1.38372 1.38228 1.38855 1.38755 1.39038 1.39064 1.39197 1.38175 1.30326 1.05529 0.950021 0.987313 1.07211 1.19671 1.29331 1.39808 1.40684 1.40163 1.39637 1.39645 1.39964 1.39792 1.37642 1.07297 0.909589 0.0 0.937162 1.25488 1.41916 1.42287 1.41271 1.40768 1.40839 1.41022 1.4042 1.40537 1.40593 1.40327 1.41102 1.40596 1.41308 1.40532 1.4115 1.41242 1.41505 1.41123 1.3989 1.40786 1.41037 1.40876 1.41325 1.4148 1.40518 1.40666 1.40987 1.40602 1.41094 1.40585 1.4066 1.40644 1.40978 1.39899 1.27533 1.0343 0.918688 0.898571 0.893723 0.890325 0.88691 0.879946 0.897678 0.927165 0.893078 0.862796 0.846621 0.838375 0.835998 0.833311 0.832079 0.0 0.835744 0.0 0.0 0.0 0.0 0.0 0.0 0.0 0.0 0.0 0.0 0.0 0.0 0.0 0.0 0.0 0.0 0.0 0.0 0.0 0.0 0.0 0.0 0.0 0.0 0.0 0.0 0.0 0.0 0.0 0.0 0.0 0.0 0.0 0.0 0.0 0.0 0.802219 0.0 0.801267 0.796438 0.795625 0.79709 0.794796 0.792483 0.0 0.0 0.797148 0.794173 0.0 0.0 0.0 0.0 0.0 0.0 0.789784 0.0 0.78402 0.785328 0.0 0.785594 0.777272 0.0 0.77681 0.0 0.772876 0.770866 0.762453 0.766485 0.764665 0.75758 0.760109 0.756276 0.756253 0.758647 0.751449 0.752399 0.750859 0.752259 0.752526 0.747629 0.750499
1.35287 1.35653 1.36147 1.35826 1.3609 1.36319 1.36134 1.36675 1.37564 1.37576 1.36868 1.37166 1.36632 1.38018 1.3896 1.37908 1.37732 1.37993 1.38166 1.37914 1.37851 1.38146 1.37371 1.30162 1.02579 0.980402 1.19108 1.33121 1.41713 1.40189 1.39704 1.39185 1.39171 1.39409 1.39443 1.39672 1.38841 1.38346 1.28597 0.920469 0.0 0.897745 1.09221 1.39238 1.42371 1.40862 1.40298 1.40135 1.39534 1.40288 1.39911 1.39123 1.40101 1.40495 1.40103 1.40288 1.40615 1.39833 1.40096 1.40151 1.40175 1.40224 1.40387 1.40431 1.40442 1.40392 1.40748 1.40282 1.40193 1.40716 1.4027 1.40553 1.40424 1.40115 1.40185 1.40163 1.40227 1.3976 1.30188 1.06307 0.922853 0.901546 0.88991 0.880605 0.881272 0.878689 0.885788 0.923729 0.901403 0.862012 0.844355 0.83638 0.826333 0.834195 0.831757 0.83224 0.829475 0.828164 0.830653 0.82696 0.0 0.0 0.0 0.0 0.0 0.0 0.0 0.0 0.0 0.0 0.0 0.0 0.0 0.0 0.0 0.0 0.0 0.0 0.0 0.0 0.0 0.0 0.0 0.0 0.0 0.0 0.0 0.0 0.0 0.0 0.0 0.0 0.0 0.795244 0.797899 0.794205 0.789634 0.792504 0.791907 0.791288 0.78693 0.790548 0.789287 0.788857 0.0 0.785364 0.0 0.0 0.783771 0.0 0.781727 0.777991 0.780138 0.0 0.0 0.0 0.771028 0.769384 0.771886 0.7699 0.762341 0.760585 0.759628 0.757535 0.756237 0.758475 0.760115 0.755148 0.751797 0.749236 0.749087 0.744832 0.747577 0.745682 0.74375 0.743924
1.34772 1.35086 1.35259 1.34698 1.34881 1.35326 1.35413 1.359 1.3562 1.36284 1.36617 1.36094 1.3633 1.36561 1.36868 1.36838 1.37243 1.36702 1.37818 1.37207 1.37536 1.37106 1.37311 1.35551 1.12343 1.07042 1.18326 1.3663 1.41207 1.39517 1.38468 1.38687 1.39157 1.38571 1.39289 1.38807 1.38434 1.38997 1.38243 1.36251 1.02672 0.912789 0.0 0.966693 1.29536 1.41554 1.40994 1.3988 1.39887 1.39486 1.39254 1.39047 1.39126 1.39984 1.39941 1.39168 1.39902 1.40313 1.39413 1.39964 1.39347 1.40184 1.40056 1.4007 1.39498 1.39565 1.39745 1.39952 1.39718 1.39919 1.40146 1.3961 1.40125 1.39846 1.39506 1.39455 1.39549 1.3964 1.39493 1.38933 1.30918 1.09579 0.93513 0.897963 0.886892 0.887249 0.880837 0.874407 0.886159 0.91756 0.897575 0.860843 0.84523 0.834005 0.829514 0.83205 0.825475 0.825044 0.0 0.822081 0.0 0.0 0.0 0.0 0.0 0.0 0.0 0.0 0.0 0.0 0.0 0.0 0.0 0.0 0.0 0.0 0.0 0.0 0.0 0.0 0.0 0.0 0.0 0.0 0.0 0.0 0.0 0.0 0.0 0.0 0.0 0.0 0.0 0.0 0.0 0.0 0.79077 0.0 0.787015 0.783536 0.781753 0.783369 0.783247 0.781394 0.782359 0.77904 0.0 0.774893 0.779139 0.778269 0.777653 0.0 0.773811 0.77003 0.772385 0.767718 0.769446 0.767795 0.763336 0.760801 0.75907 0.759795 0.757173 0.755898 0.755415 0.751606 0.749688 0.747737 0.749837 0.742923 0.744126 0.743387 0.745034 0.74313 0.741726 0.747237
1.34013 1.327 1.34208 1.3389 1.35446 1.35275 1.35067 1.35339 1.35577 1.35508 1.35814 1.34965 1.36024 1.35926 1.36592 1.36316 1.36502 1.36433 1.36108 1.36553 1.37188 1.36955 1.37135 1.36078 1.29271 1.04873 1.21869 1.35479 1.39457 1.38983 1.37513 1.38665 1.37889 1.3793 1.38363 1.38309 1.37823 1.38159 1.37862 1.38019 1.36626 1.2268 0.911812 0.0 0.896987 1.14345 1.38948 1.40889 1.39168 1.38595 1.38161 1.38735 1.3893 1.38862 1.39195 1.38946 1.39041 1.39104 1.38931 1.39336 1.39099 1.39207 1.39342 1.38366 1.38494 1.38794 1.39383 1.39035 1.39444 1.39411 1.39376 1.39308 1.38799 1.39252 1.39234 1.38687 1.39278 1.38695 1.37201 1.38546 1.38686 1.37887 1.32864 1.1377 0.944645 0.894587 0.886132 0.879124 0.877375 0.867694 0.86767 0.901339 0.901278 0.864271 0.843957 0.833007 0.828783 0.826594 0.824095 0.0 0.824322 0.0 0.825358 0.0 0.0 0.0 0.0 0.0 0.0 0.0 0.0 0.0 0.0 0.0 0.0 0.0 0.0 0.0 0.0 0.0 0.0 0.0 0.0 0.0 0.0 0.0 0.0 0.0 0.0 0.0 0.0 0.0 0.0 0.0 0.0 0.0 0.0 0.782709 0.784107 0.783195 0.779981 0.783295 0.776628 0.775344 0.78084 0.77299 0.775028 0.77562 0.772518 0.771366 0.769626 0.769825 0.770273 0.767612 0.0 0.762219 0.765053 0.760065 0.75922 0.754745 0.756606 0.750978 0.748087 0.750663 0.751272 0.746095 0.747997 0.746581 0.744316 0.741747 0.741851 0.741641 0.740042 0.742967 0.745294 0.745425
1.3394 1.32714 1.3286 1.33507 1.34095 1.34436 1.345 1.34313 1.34199 1.35299 1.35552 1.3509 1.34892 1.36001 1.35926 1.35487 1.35426 1.36103 1.36472 1.3595 1.35974 1.36243 1.35866 1.35426 1.35062 1.25729 1.26517 1.36545 1.39058 1.37205 1.37147 1.36633 1.36734 1.36973 1.37321 1.37182 1.36982 1.37317 1.37507 1.37864 1.36817 1.36908 1.3439 0.994767 0.920026 0.0 0.996526 1.32541 1.39425 1.39574 1.38538 1.38593 1.38095 1.38143 1.38158 1.38285 1.38323 1.38473 1.38156 1.38416 1.38527 1.38229 1.38044 1.38553 1.38216 1.38632 1.38609 1.38641 1.38029 1.39192 1.38515 1.38477 1.38582 1.38246 1.37615 1.37711 1.38681 1.38713 1.38655 1.38565 1.38237 1.38492 1.39008 1.37794 1.33972 1.17003 0.973064 0.896683 0.883812 0.875315 0.876168 0.866466 0.863479 0.886234 0.899894 0.865248 0.845808 0.831038 0.823862 0.824859 0.824377 0.817448 0.0 0.821954 0.817901 0.0 0.0 0.0 0.0 0.0 0.0 0.0 0.0 0.0 0.0 0.0 0.0 0.0 0.0 0.0 0.0 0.0 0.0 0.0 0.0 0.0 0.0 0.0 0.0 0.0 0.0 0.0 0.0 0.0 0.0 0.0 0.0 0.0 0.0 0.0 0.779323 0.780919 0.775106 0.773816 0.77307 0.771732 0.767831 0.768985 0.764198 0.766421 0.765521 0.763473 0.76224 0.759863 0.758577 0.759767 0.759809 0.754271 0.756746 0.75144 0.754668 0.747662 0.743669 0.748702 0.746835 0.744119 0.738105 0.741318 0.741491 0.739187 0.73874 0.736635 0.738254 0.733927 0.739192 0.740918
1.32139 1.32322 1.32017 1.33038 1.33815 1.33648 1.34386 1.33474 1.33659 1.3343 1.3447 1.34309 1.34167 1.34318 1.34435 1.3504 1.34898 1.3508 1.3567 1.35398 1.35646 1.3536 1.3518 1.35299 1.3558 1.34347 1.34785 1.37238 1.36547 1.3644 1.36073 1.36237 1.36057 1.36777 1.3639 1.37245 1.36706 1.37298 1.3672 1.36849 1.36461 1.36867 1.36669 1.35551 1.20392 0.917223 0.0 0.91895 1.16905 1.38215 1.39455 1.38388 1.38209 1.3719 1.37956 1.37333 1.37602 1.37231 1.38102 1.38363 1.37692 1.37858 1.37993 1.3795 1.3744 1.37943 1.37717 1.37749 1.37807 1.38212 1.38323 1.37819 1.37807 1.37326 1.37833 1.37696 1.37906 1.37296 1.37355 1.37878 1.38019 1.37689 1.37328 1.37548 1.37648 1.37044 1.35502 1.2118 1.00686 0.908323 0.8814 0.876972 0.872234 0.864849 0.864463 0.87604 0.899577 0.873715 0.84434 0.828976 0.827033 0.821862 0.821054 0.81702 0.816471 0.0 0.811826 0.0 0.0 0.0 0.0 0.0 0.0 0.0 0.0 0.0 0.0 0.0 0.0 0.0 0.0 0.0 0.0 0.0 0.0 0.0 0.0 0.0 0.0 0.0 0.0 0.0 0.0 0.0 0.0 0.0 0.0 0.0 0.0 0.0 0.0 0.0 0.0 0.770282 0.765858 0.767626 0.768516 0.765998 0.765988 0.76146 0.759157 0.758788 0.754201 0.756568 0.754163 0.754235 0.754273 0.750954 0.748443 0.746733 0.744994 0.742951 0.738959 0.742882 0.742926 0.741569 0.742895 0.741463 0.736747 0.733631 0.739912 0.736715 0.733757 0.737716 0.73681 0.73453
1.31633 1.30943 1.32314 1.31765 1.31231 1.32615 1.31848 1.32955 1.32521 1.33375 1.33385 1.3366 1.34146 1.34054 1.33927 1.34259 1.34119 1.34604 1.34174 1.35201 1.34565 1.34531 1.34934 1.34888 1.35366 1.3556 1.35834 1.36074 1.36198 1.357 1.357 1.36119 1.3611 1.36294 1.36192 1.36254 1.35574 1.3591 1.36243 1.36117 1.36499 1.36307 1.3631 1.36224 1.35275 1.33176 0.997194 0.917529 0.893962 1.00422 1.32975 1.39013 1.38261 1.37676 1.36308 1.36725 1.37312 1.37231 1.37118 1.36886 1.37404 1.37339 1.37503 1.37519 1.37445 1.37658 1.37432 1.37668 1.36796 1.36881 1.36875 1.37594 1.36767 1.37103 1.36677 1.37123 1.36605 1.37133 1.37133 1.37072 1.37125 1.37614 1.37019 1.36772 1.3731 1.36298 1.37006 1.36222 1.36136 1.28223 1.08775 0.932088 0.883856 0.870933 0.873756 0.863428 0.863006 0.867234 0.892736 0.882048 0.852103 0.835855 0.825426 0.819647 0.815018 0.81154 0.809793 0.810357 0.0 0.0 0.0 0.0 0.0 0.0 0.0 0.0 0.0 0.0 0.0 0.0 0.0 0.0 0.0 0.0 0.0 0.0 0.0 0.0 0.0 0.0 0.0 0.0 0.0 0.0 0.0 0.0 0.0 0.0 0.0 0.0 0.0 0.0 0.0 0.0 0.0 0.7666 0.765791 0.76636 0.759045 0.762645 0.756137 0.760508 0.755635 0.755477 0.754177 0.753125 0.748722 0.751208 0.750065 0.74724 0.746587 0.742335 0.744905 0.739232 0.738178 0.736817 0.740576 0.737239 0.736576 0.736142 0.738623 0.731395 0.738599 0.736116 0.740515 0.736087
1.31254 1.30728 1.30799 1.30836 1.31851 1.3206 1.31646 1.31249 1.32889 1.32206 1.31784 1.33088 1.32787 1.33022 1.32678 1.33721 1.34021 1.33766 1.33119 1.34806 1.34173 1.34445 1.34601 1.34223 1.33811 1.34618 1.3478 1.34713 1.34194 1.35181 1.34762 1.35742 1.35031 1.35187 1.35396 1.35487 1.35743 1.35684 1.35762 1.35211 1.3565 1.35032 1.35976 1.34892 1.3623 1.35336 1.34666 1.20531 0.922937 0.0 0.918238 1.16729 1.37904 1.3853 1.36849 1.36632 1.36671 1.36505 1.36594 1.36508 1.3636 1.3644 1.36517 1.36331 1.36286 1.36353 1.36447 1.36538 1.36335 1.36652 1.36705 1.36668 1.36802 1.3673 1.36335 1.36373 1.36408 1.36412 1.35859 1.36381 1.36055 1.36397 1.36095 1.36547 1.36706 1.36512 1.36636 1.36086 1.36817 1.36612 1.35646 1.30858 1.12892 0.945178 0.885908 0.875592 0.86701 0.86686 0.861741 0.8601 0.87853 0.889657 0.864386 0.845219 0.832444 0.821694 0.812388 0.816142 0.812036 0.807624 0.0 0.0 0.0 0.0 0.0 0.0 0.0 0.0 0.0 0.0 0.0 0.0 0.0 0.0 0.0 0.0 0.0 0.0 0.0 0.0 0.0 0.0 0.0 0.0 0.0 0.0 0.0 0.0 0.0 0.0 0.0 0.0 0.0 0.0 0.0 0.0 0.0 0.0 0.756293 0.755685 0.755607 0.752712 0.756195 0.749912 0.752215 0.747833 0.748959 0.748668 0.745865 0.741389 0.744299 0.741686 0.742597 0.738287 0.739395 0.737745 0.736333 0.734615 0.733133 0.732958 0.732205 0.731944 0.730839 0.730225 0.732486 0.728598
1.29001 1.30004 1.2968 1.29903 1.30199 1.30754 1.31143 1.31393 1.3228 1.31332 1.32775 1.31051 1.31725 1.32668 1.32436 1.32523 1.33124 1.32706 1.32885 1.33058 1.33859 1.33386 1.33487 1.33361 1.34366 1.33673 1.33808 1.33854 1.34174 1.34126 1.34409 1.34014 1.34709 1.34472 1.35048 1.35196 1.35341 1.35028 1.34852 1.35182 1.34741 1.35006 1.35694 1.34955 1.35066 1.35201 1.34505 1.34318 1.32095 1.00362 0.915913 0.898037 1.00903 1.32106 1.37297 1.3665 1.36373 1.35573 1.35663 1.35779 1.35863 1.35944 1.36252 1.3598 1.35964 1.36119 1.35402 1.36391 1.35929 1.35318 1.36009 1.36146 1.35758 1.35947 1.35407 1.36056 1.35394 1.36211 1.35863 1.36094 1.36147 1.36139 1.3607 1.35853 1.35575 1.35731 1.35796 1.35713 1.35511 1.35539 1.35244 1.35325 1.35344 1.31927 1.16516 0.979355 0.896866 0.871693 0.87065 0.865519 0.857464 0.853755 0.861943 0.882307 0.882023 0.854142 0.83671 0.825653 0.814296 0.807569 0.806333 0.803632 0.0 0.0 0.0 0.0 0.0 0.0 0.0 0.0 0.0 0.0 0.0 0.0 0.0 0.0 0.0 0.0 0.0 0.0 0.0 0.0 0.0 0.0 0.0 0.0 0.0 0.0 0.0 0.0 0.0 0.0 0.0 0.0 0.0 0.0 0.0 0.0 0.0 0.0 0.753095 0.748527 0.749775 0.748215 0.748841 0.748603 0.747781 0.743899 0.739997 0.742929 0.737877 0.737452 0.741078 0.737308 0.737313 0.736466 0.734231 0.731964 0.734238 0.736993 0.729789 0.728715 0.728399 0.72671 0.737428 0.736155
1.28511 1.28908 1.29246 1.2955 1.29928 1.28861 1.29835 1.30325 1.30541 1.31664 1.30953 1.31635 1.32204 1.31602 1.31181 1.32168 1.31978 1.32109 1.32453 1.32765 1.32962 1.32463 1.3309 1.33159 1.32724 1.33475 1.33667 1.33882 1.33506 1.33404 1.33575 1.33771 1.33344 1.34147 1.34329 1.34253 1.34116 1.34595 1.34308 1.34439 1.34511 1.34265 1.34555 1.34074 1.34954 1.35005 1.35024 1.34553 1.34535 1.33827 1.21952 0.931239 0.901904 0.918405 1.16318 1.36231 1.37106 1.36165 1.35479 1.35538 1.35017 1.35097 1.348 1.3525 1.35003 1.34753 1.34963 1.35575 1.34911 1.35401 1.35715 1.35534 1.35755 1.3493 1.35087 1.35822 1.35219 1.3531 1.35253 1.35135 1.35798 1.35267 1.35286 1.35098 1.35227 1.35092 1.35681 1.35511 1.35367 1.35192 1.35159 1.35239 1.35142 1.34985 1.34505 1.33731 1.22061 1.02956 0.907673 0.875537 0.866039 0.860879 0.855705 0.849064 0.848208 0.87342 0.885557 0.868123 0.84663 0.826584 0.815503 0.80875 0.802563 0.802429 0.804009 0.0 0.0 0.0 0.0 0.0 0.0 0.0 0.0 0.0 0.0 0.0 0.0 0.0 0.0 0.0 0.0 0.0 0.0 0.0 0.0 0.0 0.0 0.0 0.0 0.0 0.0 0.0 0.0 0.0 0.0 0.0 0.0 0.0 0.0 0.0 0.0 0.0 0.0 0.0 0.745445 0.738857 0.742993 0.739113 0.738777 0.741416 0.74237 0.737558 0.737625 0.734395 0.733306 0.732451 0.732908 0.732782 0.732615 0.729995 0.729212 0.725725 0.730179 0.730322 0.736493 0.732305
1.26679 1.28204 1.28358 1.29086 1.28962 1.28483 1.27913 1.29255 1.29819 1.30164 1.30368 1.30673 1.30621 1.30589 1.30902 1.31345 1.31729 1.31863 1.31497 1.3222 1.32446 1.32308 1.32715 1.32896 1.31662 1.32689 1.32965 1.33098 1.33114 1.32902 1.33158 1.33354 1.33126 1.33285 1.33467 1.3342 1.341 1.33481 1.33533 1.34033 1.34303 1.33607 1.33784 1.34127 1.34041 1.33978 1.34282 1.34184 1.34538 1.34546 1.33693 1.31463 1.05354 0.931502 0.891522 0.983423 1.28501 1.36261 1.36009 1.3532 1.34801 1.34854 1.34845 1.34574 1.34213 1.3382 1.34376 1.35103 1.34527 1.34554 1.34608 1.34282 1.3459 1.3475 1.34792 1.34772 1.34895 1.35044 1.33972 1.3487 1.34865 1.34944 1.34789 1.34631 1.34818 1.34509 1.34893 1.34462 1.34232 1.3397 1.34604 1.3451 1.34501 1.34837 1.34589 1.34542 1.34579 1.3296 1.27338 1.09626 0.942667 0.878962 0.864807 0.85904 0.853837 0.851223 0.846278 0.850571 0.878834 0.874981 0.85465 0.831719 0.817737 0.81067 0.800421 0.800246 0.797173 0.0 0.0 0.796193 0.0 0.0 0.0 0.0 0.0 0.0 0.0 0.0 0.0 0.0 0.0 0.0 0.0 0.0 0.0 0.0 0.0 0.0 0.0 0.0 0.0 0.0 0.0 0.0 0.0 0.0 0.0 0.0 0.0 0.0 0.0 0.0 0.0 0.0 0.0 0.0 0.0 0.734583 0.733693 0.730039 0.729362 0.733275 0.73279 0.736331 0.733871 0.732459 0.731013 0.73302 0.732297 0.727795 0.731262 0.737323 0.732174 0.739691 0.737102 0.731322
23237 17415 21372 20666 18347 17810 17561 17490 18006 18326 18808 18389 18653 18394 18487 18753 18733 19164 19491 19415 20237 20183 20179 20478 20371 20642 20131 20437 20324 20499 20506 20495 21003 21135 20790 20930 21132 21028 20812 20631 21281 21059 21225 21210 21254 20955 21214 21139 21146 20830 21367 21503 21222 21498 21230 21042 20767 21317 20783 21478 21264 21294 21178 20970 21277 21728 21022 21306 21591 21409 21467 21214 21438 21294 21545 20908 21236 21265 20785 20555 21148 20899 20660 20986 21168 20765 20986 21148 21177 20986 20957 20813 20871 20660 20813 20124 20258 20698 20143 21034 19683 20570 20358 20937 21097 20854 20961 20679 21091 20551 20679 20973 21158 20535 20406 16590 13224 13244 13220 13028 12924 12843 12977 12771 12997 12369 12483 12550 12340 12208 12251 12271 12164 12176 12293 12105 12080 11509 11537 12128 12169 11912 11794 11781 11722 11965 12407 12062 12242 12369 12574 12455 12735 12496 13019 12739 13113 13614 13856 14101 14221 15070 15330 15550 16325 18672 20080 22556 31195 38479 38122 37377 37568 37269 37715 38446
25555 21220 21205 21080 17790 17102 17104 17384 18183 18155 18289 18297 18604 18739 18020 18167 18628 18939 19018 19486 19323 19718 19707 19720 19887 19773 19735 20224 19767 19964 20193 20409 20254 20579 20638 20497 20380 20471 20822 20923 20882 20687 20850 20244 20934 20990 20606 20588 21125 21180 21014 21210 21354 21001 21358 21015 21186 20645 21184 20974 20465 21099 20792 20865 20904 21385 21059 20971 21399 21227 20976 21265 20667 20928 20947 20938 21062 20832 20621 20108 20897 20488 20612 20973 20498 20621 20488 20707 20393 20964 20992 20574 20441 20659 20564 20127 20574 20374 20346 19875 20000 20402 20287 19875 20493 20551 20628 20773 20718 20669 20407 20864 20747 20983 20679 16665 12756 12864 13334 12814 12857 12584 12914 12670 13121 12380 12629 12702 12582 12140 12166 12166 12207 12207 12143 11947 11861 11475 11475 12116 12082 11881 11892 11900 12114 12019 12256 12160 12591 12492 12523 12255 12559 12456 12496 12707 13182 13044 13345 14030 14206 14578 15314 15958 17101 17731 19888 23416 31995 37203 37209 37797 37509 36892 37497 38257
25382 24688 21827 20752 18000 16699 17638 17704 17605 17490 18256 17440 17985 18096 18112 18316 18518 18195 18833 18991 19027 18857 19521 19548 19480 19952 20086 19779 20210 19975 20195 20302 20204 20544 20659 20278 20494 20037 20330 20352 20490 20523 20470 20244 20692 20241 20641 20629 20566 20911 20675 20899 20716 20198 21065 20795 20795 20695 20762 20841 20855 20688 21316 20455 20942 20981 21333 20850 21034 20488 20593 20488 21340 20964 20678 20802 20887 20593 20636 20646 20230 20259 20872 20306 20268 20579 20466 20976 20712 20683 20259 20127 20287 20334 20202 20278 20240 19881 20315 20089 20365 20184 19909 19899 19607 20306 20057 20201 20464 20484 20638 19837 20592 20864 20531 16245 12948 13122 13122 12716 12604 12455 12514 12685 12965 12802 12246 12452 12109 11849 12214 11825 12230 12049 12045 12023 11609 11342 11563 11699 11845 11616 11650 11742 12228 11876 12091 12256 12394 12234 12605 12484 12612 12924 12801 13200 13046 13543 13460 14054 14219 14771 15084 15804 17215 18588 19752 22553 32218 38714 37932 36601 38084 38423 38492 37000
25772 25185 22243 19567 18211 17140 17312 17467 17306 18406 17570 17639 17622 18157 18092 17937 18011 18493 18741 18579 18738 19402 19210 19620 19416 19798 19595 20050 19612 19993 20076 19829 19955 20025 20278 20161 20261 20374 20661 20414 20686 20514 20436 20489 20420 20369 20390 20438 20603 20492 20940 20783 20702 20615 20335 20565 20911 20891 19972 20855 20329 20699 21078 20918 20995 20966 21101 21053 20689 20983 20678 21040 20868 20787 20344 20683 20825 20513 20646 20477 20618 19784 20590 20721 20637 20599 20131 20721 20824 20459 20243 19709 20515 20037 20402 20393 20515 19981 19878 20353 19881 20136 20108 19428 20013 20222 20384 20061 20450 20287 20095 20754 20378 20590 20319 16740 13160 13056 12919 12885 12885 12756 12624 12684 12544 12252 12578 12537 11855 12359 12161 12067 12235 12035 12038 11873 11614 11129 11478 11762 11621 11666 11798 11904 12008 11654 11408 11888 12231 12365 12382 12330 12484 12625 12520 12735 13240 13507 13778 14054 14196 14190 15114 16052 17408 18409 20738 23130 31598 37565 37754 37890 37301 38027 37866 38306
24791 25085 24966 19491 16846 16353 17072 17330 17023 17877 17608 17347 17806 17794 17835 17812 17826 18270 17725 18308 18565 19184 18918 19582 19171 18906 19324 19805 19755 19513 19935 19875 20324 20073 20183 20564 20108 20228 20130 20083 20115 20213 20188 20136 20275 20296 20098 20788 20319 20156 20137 20793 20475 20585 20693 20713 20522 20600 20261 21039 20802 20252 20850 20660 20804 21034 20735 20792 20526 20598 20400 20287 20542 21068 21115 20402 20524 19896 20941 20029 20336 20671 21090 20755 20503 20764 20476 20066 20541 20364 20103 20755 20019 20364 20392 19973 19461 20010 20215 20271 20271 20421 19700 20074 20145 20410 20013 20089 20270 20289 20374 20612 20354 20153 20059 16730 12880 12635 12829 12752 12654 12786 12825 12568 12485 12395 12514 12080 12252 11784 11742 11973 12057 11993 11919 12080 11740 11226 11521 11903 11386 11463 11643 11957 11900 11546 12134 12146 12138 12486 12183 12197 12417 12543 12637 12715 13080 12868 13710 14222 14437 14394 15584 15933 17531 18753 19791 23825 32414 36729 37720 38287 37467 38715 37396 37588
25744 25423 24975 21964 16264 16993 17089 17140 17359 17309 18032 17714 17556 17937 18329 17869 18089 17955 18525 17821 18091 18305 18752 19058 19029 19656 19515 19160 19701 19701 19529 19653 20232 19667 19710 19976 19781 19923 19942 19616 20287 19757 20262 20057 20139 19975 19972 20268 19794 20218 19586 20245 20475 20337 20355 20473 19998 20504 20590 20648 20619 20708 20114 20175 20431 20916 20655 20721 20768 20609 20712 20365 20431 20652 20643 20503 20755 20839 20562 20636 20183 20525 20340 20275 20571 20738 20905 20608 20349 20322 20248 20414 20312 20062 20090 20349 19776 20211 20016 20206 20401 20317 19479 20280 20477 20328 20459 20412 20325 20306 19796 20194 19994 20194 20287 16562 12784 12649 12890 12547 12781 12939 12841 13003 12370 12415 12365 12423 12201 12323 12089 12071 12020 12296 11859 11688 11900 11240 11474 11549 11521 11574 11596 11778 11946 12094 12250 12052 12298 12638 12110 12340 12123 12969 12689 12765 13249 13532 13811 13941 14485 14976 15302 15657 17377 19197 19930 23576 32618 37995 37944 38219 37612 38148 38600 39019
25483 24153 25168 25094 19054 16934 16390 16826 17068 17592 17424 17184 17647 17937 17770 17854 18010 18281 18100 18247 18305 18561 18469 18450 19386 19394 19064 19162 19361 19344 19414 19550 19847 20064 19843 19770 19641 19695 19968 19659 19683 19516 19963 20057 20170 20176 19099 20178 20006 20115 20050 19802 20070 20473 20018 20465 20416 19876 20001 20450 20641 20583 19937 20441 20419 20815 20215 20787 20440 20477 20662 20513 20503 20220 20636 20757 20377 20312 20571 20993 20193 20156 19760 20478 20552 20147 20404 20018 20570 20450 20119 20515 20156 19944 19576 19908 19668 19852 20082 20562 19711 19924 19665 19517 19870 20112 20187 20420 20159 19662 20318 20079 20174 19447 18844 16231 12972 13001 12589 12716 12495 12771 12635 12615 12252 12400 12202 11985 11666 12090 12120 11855 11987 12009 11932 11484 11646 11509 11612 11593 11603 11358 11408 11651 12204 12139 12162 12054 12392 12298 12281 12377 12244 12480 12806 13135 12893 13548 13944 13797 14619 14818 15855 16601 17356 19194 20695 23796 32200 37742 38394 38081 37345 37612 37209 37912
24727 25548 25683 24974 22178 15990 16540 17311 16964 17256 17333 18003 17298 17699 17646 17576 18376 18525 18130 18497 18573 18820 18389 19176 19164 19362 19337 19361 19229 19312 19641 19589 19224 19699 19432 19458 19770 19819 19389 19999 19349 19370 19306 19738 19891 19976 19754 19976 19546 19911 19855 19933 19862 20134 19789 20242 19952 19425 20277 20118 20393 20108 19900 20079 20309 20590 20009 20513 20541 20625 20729 20590 20303 20562 20598 20156 20165 20423 20598 20637 20592 20527 20116 20281 20079 20317 20610 20573 20189 20491 19604 20226 20436 20070 20317 19841 19997 19777 19988 19567 19834 20165 19733 19751 19914 19072 19692 20289 20140 19693 20224 20084 19775 19718 19900 16314 12515 12952 12292 12513 12360 12379 12369 12275 12265 12330 11918 12053 11707 12085 11735 11818 11916 11957 11659 11855 11745 11277 11540 11484 11496 11312 11576 12023 12315 12114 11957 12173 12388 12450 12345 12340 12498 12715 13034 12881 13391 13301 13483 13917 14836 14972 15677 16465 18271 18591 20430 23950 33504 38615 37209 37911 38322 38892 38203 38019
25682 25499 25347 25084 24224 19272 16163 16744 16843 17271 17690 17560 17756 17507 17466 17806 17981 17713 18897 18854 18169 18352 18869 18850 18636 19162 19572 19286 19596 19505 19623 19202 19843 19912 19253 19727 19521 19904 19631 19641 19573 19553 19687 19585 19704 19756 19516 19852 19624 19933 19933 19814 19989 19876 20233 19454 20229 19880 19928 19693 19928 19943 20318 20196 20215 20271 20271 20081 20442 20081 20607 20101 20616 20432 20079 20774 20143 20052 20143 20045 19954 20008 20518 20318 20500 20163 20172 20081 19390 20291 20145 19945 20118 20209 19645 20118 20118 19981 19817 19375 19869 19247 19439 20070 19908 20073 19751 19507 20146 19914 20010 20140 19945 20224 20140 16157 12587 12615 12534 12373 12513 12513 12245 12166 12205 12440 12090 11967 11954 12063 11875 11606 11727 11556 11763 11773 11443 11474 11308 11383 11421 11005 11399 11816 11914 12094 12226 12293 12355 12561 12403 12450 12245 12280 12389 12997 13370 13735 13684 14212 14700 15012 15514 16676 17713 18896 20728 23319 32953 38499 38599 38244 37512 37359 37701 38461
24910 24831 25454 25187 25019 21465 16178 17058 17500 17273 17298 17146 17600 17563 17603 17781 17635 18624 18484 18332 18672 18942 18620 18612 19033 19092 19252 19152 19448 19443 19456 19530 19617 19835 19233 19765 19568 19745 19547 19306 19512 19484 19653 19421 19396 19416 19624 19609 19698 19940 20125 19799 19490 19674 20000 19804 19880 20127 20117 20056 20121 20299 20084 19805 19803 19942 20201 20110 19862 19972 20143 20088 20034 20162 20372 19808 20036 19954 20473 19898 19744 20142 20387 20314 19952 20251 20088 19844 20043 20115 19382 20170 20007 20206 19826 20097 19916 19961 19836 19908 19426 19717 20172 19823 19613 19851 20052 20193 19770 19760 20312 19766 20035 19945 20271 16378 12567 12455 12465 12238 12344 12164 12388 12427 12051 12080 12090 11730 11869 11987 11826 11677 11755 12020 11425 11600 11142 11052 11495 11474 11530 11314 11410 11754 12121 11914 12005 12170 12002 12173 12296 12591 12263 12686 12546 13224 13157 13645 14284 14004 14472 14886 15962 16676 17438 18989 21089 24897 34130 37890 37933 38195 38744 38305 37187 37523
25278 25169 25118 24486 24439 23405 19273 16919 16603 16935 17516 16933 17355 17521 17994 17888 17804 18139 18018 17847 18302 18487 18422 18611 18892 18733 18845 19232 19477 19335 19552 19323 19522 19372 19851 19547 19578 19526 19687 19422 19514 19583 19189 19246 19585 19971 19707 19953 19366 19683 19673 19607 19684 19329 19994 19570 19655 19475 19625 19768 19805 19656 19924 20053 20193 20239 19668 19896 20281 20216 20081 20045 20245 19981 20070 19807 19717 20079 20414 20325 19974 20118 20388 20244 20316 20325 20298 19865 20334 19784 19884 19838 19902 20235 19298 19875 19730 20073 19482 19998 19699 19337 19826 19963 19699 19481 19890 20125 20162 19732 20018 19678 19622 19877 19822 16509 12700 12440 12455 12361 12474 12266 12487 12629 12044 11900 11877 11771 11954 11565 11712 11529 11618 11735 11436 11536 11397 10989 11454 11745 11360 11751 11772 11623 12185 11969 11991 11961 12405 12181 12332 12296 12743 12439 12805 13078 13514 13564 13846 14335 14837 14824 15962 17155 17632 19259 20677 24139 34175 39112 38546 37352 37839 37661 37789 38589
25560 25255 24352 23719 23550 22131 20312 17348 16752 16310 16522 16648 16938 17535 17463 17726 17080 17843 17981 18155 18136 18386 18362 18588 18779 18914 19118 19802 19102 19421 19345 19307 19340 19670 19694 19536 19474 19615 19667 19209 19956 19047 19746 19723 20030 19629 19600 19483 19750 19683 19291 19521 19814 19551 19287 19287 20046 19433 19675 20010 19711 19702 19834 19926 19851 19384 20262 19917 20136 20218 19934 19844 19934 19889 19847 20262 20145 20181 20028 19909 19954 19882 19810 20017 19461 19541 20250 19766 19694 20017 20187 20017 19344 20097 19882 19452 19667 19586 19739 20091 19757 19766 19154 19454 19581 19916 19418 19872 19826 19927 19732 19640 19622 19963 19908 16490 12456 12511 12291 12151 12333 12474 12323 12163 11983 11726 11967 11665 11655 11876 11536 11516 11663 11479 11556 11306 11193 11285 11376 11351 11402 11318 11709 11900 11772 12013 12394 12100 12237 12338 11811 12537 12538 12708 12778 13043 13272 13539 13785 13958 14463 15149 15776 16520 17928 18893 21301 25287 34422 38061 38363 38012 38356 36093 37362 37600
25631 24980 23470 22386 21723 20725 20802 18599 17196 15515 15761 15885 15636 15789 16255 15905 16263 16740 16899 17797 17958 18564 18096 18490 18641 18959 18726 19169 19366 18984 19188 19042 19765 19620 19287 19557 19460 19860 19962 19532 19916 19546 19476 19678 19953 19395 19823 19982 19885 19923 19690 19823 19438 20004 19522 19559 19861 19395 19637 19720 19632 19843 19796 19768 19896 19417 19645 19672 19998 19590 20082 19730 19820 20028 19586 19658 20205 20115 19550 19992 19965 19590 20117 20215 20171 19992 20054 19742 20233 20072 19706 19787 20135 19840 20054 19876 19813 19465 19936 19792 19236 19936 19389 19893 19838 19379 19902 19273 19472 19681 20018 19799 19708 20006 20034 16559 12419 12826 12308 12337 12393 12188 12380 12172 12078 11964 11812 11364 11814 11568 11288 11614 11644 11526 11687 11301 11146 11233 11435 11570 11464 11248 11557 11804 11961 11942 12228 12176 12558 12226 12226 12673 12344 12481 13059 13257 13197 13611 14007 13933 14598 15242 15995 17157 18118 19162 21098 25570 33899 39744 38151 38379 37650 37887 37778 37909
23932 23703 22257 21189 20749 19655 19090 17923 16195 15969 15345 14700 14528 14433 14550 14808 15600 16308 16164 16430 16696 17229 17498 18387 18300 18491 18804 19136 19126 19253 18829 19318 19010 19422 19245 19254 19412 19401 19018 19546 19822 19763 19855 19982 20018 19635 19760 19435 19961 19918 19485 20117 19859 19981 20159 19582 20146 20035 19632 19549 19686 19924 20072 19535 19626 19626 20061 19807 19775 20064 19604 19963 19936 20088 19938 19822 19412 20081 19760 19839 19866 19821 19830 19999 19225 19652 19359 19634 19803 19848 19483 19679 19697 19545 19456 19750 19857 19465 19929 19349 19474 19662 19938 19873 19541 19461 19344 19415 19685 19370 19527 19491 19617 19535 19599 16383 12386 12511 12235 12122 11984 12253 12440 11977 11808 12049 11653 11631 11859 11814 11414 11221 11750 11302 11654 11479 11380 11186 11112 11324 11478 11608 11680 11745 12098 12172 12080 12239 12416 12372 12182 12428 12492 12389 12930 12977 13269 13578 13901 14241 14623 15382 16314 17232 17954 19583 21014 24258 33739 37414 37793 38990 37507 37478 36336 36912
23070 22353 20867 20121 18967 17869 16949 16238 15472 14402 14375 14156 14355 14707 14871 15650 16419 17293 17071 17053 16140 15607 15768 16220 16843 17389 17842 18243 18423 18882 19052 18831 18756 19316 19512 19402 18937 19421 19206 19644 19921 19472 19755 20115 19461 19760 19961 19329 20023 19636 19976 19372 19852 20084 19665 19563 19843 19797 19832 19814 19362 19972 20018 20052 19780 19694 19766 19721 19766 19380 19891 20108 19787 19581 19785 20070 19661 19803 20043 20089 19664 19744 19522 20072 19948 19620 19770 20001 19832 19531 19407 19531 19903 19398 19815 19699 19451 19540 19207 19705 19679 19590 19465 19438 19831 19590 19846 19488 19730 19433 19433 19775 19246 19536 19029 15978 11938 11901 11471 11324 11352 11521 11604 11937 11825 11977 11593 11502 11498 11660 11594 11498 11501 11409 11448 11251 11143 10826 11336 11445 11425 11458 11711 11680 11994 11867 12161 12474 12153 12340 12121 12326 12405 12730 12958 12896 13036 13626 14385 14179 14918 15324 16161 16880 17869 19136 20532 22775 30576 34122 35352 36855 36911 38279 38405 37079
21604 20479 19540 17791 17653 16335 15424 14465 14139 14253 14077 14116 14602 15395 16039 16728 16825 16055 15804 15554 15472 14776 15231 15364 14946 15266 15253 15493 15934 16413 17348 17758 18392 18833 19158 19179 18857 19216 19228 19337 19433 19658 19648 19229 19569 19751 19443 19890 20136 19765 19821 19805 19693 19609 19877 20092 19969 19658 20227 19590 19790 20450 19608 19640 20046 19541 19568 19837 19563 19671 19581 19830 20203 20034 20052 19770 19832 20045 20258 19936 19786 19442 19618 19654 19698 20192 19954 19689 19592 19980 19760 19645 19698 20174 19680 19574 19407 19689 19434 20080 19806 19478 19106 19785 19279 19127 19358 19331 19144 18627 18349 18017 17118 16910 16766 13289 9505 9253 9490 9815 9751 10699 10809 11484 11360 11509 11930 11358 11313 11389 11308 11354 11450 11260 11341 11088 11310 10908 11192 11825 11505 11536 11641 11927 11742 11807 12130 12485 11963 12379 12503 12757 12492 12585 13014 12550 12907 13540 14007 14567 15102 15471 16151 17182 18078 19056 19973 21956 28569 31186 32345 33877 34189 35796 36252 37483
19719 19024 17875 16293 15382 14655 13912 14236 13986 14199 14276 14707 15165 16480 16841 16259 15873 15316 15304 15320 15318 14685 14916 14916 14913 15067 15019 14739 14518 14528 14751 14533 14870 15797 16305 17263 18188 18407 18724 19158 19103 19279 19307 19396 19559 19091 19391 19721 19971 19981 19861 19785 19803 19779 19889 19722 19869 19726 20190 20097 19744 20064 20181 19775 20268 19804 19447 19938 19963 19794 19625 19912 19434 19850 19540 20042 19557 19565 19945 19937 19656 19823 20183 19708 19761 19550 19647 19779 19708 19919 19409 19752 19594 19401 19620 19550 19568 19401 19654 19204 19627 19460 19177 19567 18654 18353 18238 17811 17047 16536 16045 15402 14959 14232 14613 11865 8536 8274 8398 9390 9477 9943 10404 10736 10521 11188 11499 11443 11349 11700 11606 11422 11403 11230 11424 11105 11195 10986 11349 11321 11496 11828 11616 11885 11999 11701 11849 12161 12464 12410 12379 12580 12547 12160 12786 12833 13496 13575 14125 14530 14978 15311 16289 16803 18012 18767 19428 22390 29076 31397 31427 31881 32358 32708 34682 34902
18345 16964 15513 14369 13987 14698 14224 13959 14144 14488 14915 15735 16174 16227 16001 15389 15305 14816 14769 14857 14719 14935 14871 14703 14664 14685 14728 15050 14960 15115 14938 14551 14849 14914 14964 15041 15161 15349 16205 16672 17570 18428 18123 18683 19253 19315 19928 19390 19554 19768 19628 19933 19733 19658 19274 19854 20163 19690 19961 20091 19523 19757 20375 19840 20287 20197 19866 19723 19797 19912 20036 20201 20280 20324 20113 20201 19867 19620 19867 19916 19977 19626 19951 19994 19056 19600 19740 19565 19626 19504 19986 19968 19986 19670 19661 19521 19731 19013 19700 19295 19181 18495 18604 17774 17227 16741 16015 15448 14766 14245 13899 13759 13125 13027 12725 10080 8135 7135 7405 8935 9717 8817 9788 10099 10101 10782 11530 11462 11294 11583 11255 11313 11308 11090 11412 11298 11095 11049 11457 11644 11400 11586 11768 11687 11763 11979 12071 12483 12750 12325 12198 12562 12438 12282 12798 13201 13094 13565 14078 14530 14947 15244 16222 17329 17833 17795 18910 22801 31164 32326 32377 32122 31793 31524 31363 32514
16445 15471 14657 14325 14190 14111 14153 13982 14606 15099 15800 15765 15700 14918 15201 14917 14804 14969 14822 14822 14753 14535 14526 14282 14882 14642 15050 15002 14928 14886 14716 14931 14873 14904 15201 15250 15359 14822 14911 14405 15158 15739 15908 16469 17060 17282 18069 17710 17850 18915 18859 19411 19695 19540 20099 19536 19509 19595 20082 19891 20115 19867 20144 20322 20195 20195 20293 20142 20461 19989 19963 19867 20025 20306 20262 20284 19582 19924 19723 19775 19374 19942 19461 19828 19365 19872 19610 19863 19190 19470 19549 19645 19636 19872 19514 19470 19164 18946 18697 18136 17610 16812 15883 15478 15047 14177 13961 13397 12779 12542 11940 11542 10911 65533 65533 65533 65533 65533 65533 65533 65533 65533 8498 9472 9559 10340 11462 11419 11419 11462 11480 11368 11257 11650 11460 11354 11067 10922 11623 11634 11300 11608 11666 11798 11556 12018 12390 12681 12473 12298 12357 12347 12325 12602 12547 13055 13389 13628 13899 14360 14851 15680 16224 16333 17367 17731 19106 23545 30969 32751 32464 33186 32389 32194 32097 31531
14796 14031 14369 14640 14139 14196 14679 14877 15046 15553 15254 15242 15149 14241 14240 14173 14441 14769 14442 14310 14243 14238 14758 14576 14889 14912 15191 15317 14886 14984 14972 14972 15337 15051 14815 14765 14489 14833 14694 14733 14801 15490 15328 15503 15473 14545 14786 15204 15907 16200 17341 18350 19381 19217 19934 19282 19298 19604 19488 19532 19778 20465 19172 20203 20045 20178 20139 20245 20475 20183 20192 20262 20196 20310 19854 20029 19986 20423 19863 19916 19980 19788 19692 19692 20023 19884 19710 19936 19771 19535 19501 19718 19379 19291 18690 18159 17976 17139 16376 15948 15118 14428 13964 13744 13104 12517 12189 11213 10608 65533 65533 65533 65533 65533 65533 65533 65533 65533 65533 65533 65533 65533 7160 8889 9217 9742 10693 11416 11447 11447 11499 11452 11349 11625 11232 11175 11057 11028 11404 11526 11712 11487 11707 11735 11747 11929 12028 12596 12473 12129 12024 12442 12347 12667 12776 12890 13403 13856 14038 14661 14875 15720 15825 16099 16013 16715 18778 24377 32403 33660 33074 32354 31867 32694 31226 31929
13786 14428 14295 14393 14082 14485 14592 15205 15431 15448 15446 14823 14462 14373 14233 14435 14231 14061 13844 13874 14523 14504 14347 15051 15050 15444 15423 15167 14798 14513 15094 15216 15002 14795 14785 14891 14610 14665 15061 15079 14634 15015 14918 14329 13955 14255 15019 15972 16384 16704 16841 16669 16614 17254 18181 18775 18671 19290 19528 19679 19839 19679 20018 19983 20051 19733 20192 19788 20271 20170 20152 20056 20222 20458 20064 20302 19989 20389 20119 20076 19612 19890 19821 19473 19838 19273 20151 19612 19438 19447 18622 18856 18178 17605 16640 15797 15224 14685 14307 13924 12573 12835 12260 11640 10574 11518 65533 65533 65533 65533 65533 65533 65533 65533 65533 65533 65533 65533 65533 65533 65533 65533 65533 8066 8609 9108 10355 11261 11407 11573 11373 11527 11285 11462 11474 11276 11280 11124 11317 11481 11653 11634 11654 11727 11656 11919 12131 12446 12153 12109 12203 12308 12485 12982 13049 13321 13144 13806 14106 14718 14922 15144 15113 15063 14844 16414 18752 23310 31808 33067 33931 33268 32973 32839 31067 31301
14046 13952 14030 14366 14471 15040 15229 15046 15201 14910 14786 14376 14524 14421 14221 13996 13969 13742 14492 14389 14426 14816 14965 15320 15401 15328 14918 14593 14695 14615 14641 14462 14478 14617 14234 14075 14473 14858 14954 14862 15091 15003 13636 13467 14581 15537 15897 16081 16365 16475 16478 15706 16241 15568 15289 14994 15242 16358 17536 18398 19106 19106 19433 20051 20007 20315 19919 20100 20354 20449 20300 20099 19666 20224 20450 19543 19708 20264 20359 20003 20004 20004 20117 19683 19631 19614 19293 18877 18149 17837 17438 16424 15748 15003 14266 14032 13937 13164 12686 12165 11435 10783 65533 65533 65533 65533 65533 65533 65533 65533 65533 65533 65533 65533 65533 65533 65533 65533 65533 65533 65533 65533 65533 6802 8093 8681 10090 11155 11306 11490 11600 11678 11630 11350 11499 11257 10917 11204 11469 11559 11452 11925 11575 11865 11757 12045 12352 12313 12527 12256 12005 12245 12400 12623 12799 13071 13475 13672 14187 14560 14591 14664 15185 14542 14567 16025 17956 21803 28737 31420 32968 32751 32617 32732 31053 31762
13833 14131 14408 14267 14901 15460 14900 14550 14795 14412 14334 14241 14058 14173 14055 14055 14015 14049 14658 14802 14489 14947 14814 15061 14918 14377 14522 14222 14452 14399 14442 14432 14241 14234 14133 14269 14617 14743 15110 14872 14371 13092 13324 14432 15389 15805 15915 16036 15732 16078 15679 15706 15280 15344 15003 15393 15474 15197 15058 15040 15294 16071 16841 17395 18241 18881 19749 20178 19977 19840 20233 20372 20420 19829 20525 20290 20065 19657 20264 19822 20016 19964 19696 19497 19065 18451 17422 16955 16385 15606 15191 14673 13817 13773 13177 12520 11750 10340 65533 65533 65533 65533 65533 65533 65533 65533 65533 65533 65533 65533 65533 65533 65533 65533 65533 65533 65533 65533 65533 65533 65533 65533 65533 5623 7685 8432 9568 11055 11483 11078 11527 11637 11447 11369 11229 11077 10936 10945 11612 11440 11703 11703 11769 11791 12113 11974 12335 12272 12547 12462 12051 12379 12445 12453 13155 13004 13442 13807 14232 14674 14695 14615 13938 13269 14893 15644 18394 20650 23029 25249 27529 29686 31148 33186 32055 32055
14518 14466 14607 14319 14782 15040 14953 14407 14476 14159 14019 14058 14070 14173 14207 14476 14287 14781 14548 14769 14413 14728 14635 14265 14339 14491 14387 14126 14218 14107 13903 13825 13753 13773 14415 14830 14734 15072 14710 13795 12905 13399 14833 15667 16062 16476 16466 16205 15668 15507 14964 15108 15299 15246 14786 15268 15019 14943 15023 14897 14685 15232 15461 15822 16085 16254 17163 18455 19326 19682 19777 19899 20021 20073 20299 19848 20198 19826 19912 19938 19712 18927 18289 17624 17245 16434 15588 14855 14407 14018 13509 13087 11827 11560 10861 65533 65533 65533 65533 65533 65533 65533 65533 65533 65533 65533 65533 65533 65533 65533 65533 65533 65533 65533 65533 65533 65533 65533 65533 65533 65533 65533 65533 65533 7291 8243 9090 10392 11228 11146 11297 11462 11545 11771 11276 11369 11105 11153 11783 11869 11881 11617 11781 11876 11948 12241 12215 11955 12100 12334 12359 12244 12192 12835 12985 13306 13409 13867 14039 14333 14651 13680 12931 13459 14494 16599 19102 21214 21599 22490 23532 24182 25333 28611 29654 30922
14742 14393 14650 14735 14606 14594 14303 14157 13883 14109 14031 14179 14173 14149 14442 14140 14594 14568 14504 14216 14200 14539 14624 14602 14252 14109 14065 13861 14087 14013 13746 14224 14371 14561 14752 14868 14996 14872 13701 12792 13392 14721 15695 16035 16237 16301 15978 15814 15154 14829 14937 15048 15081 15001 15224 15366 15049 14729 14676 14651 14836 15173 15664 16193 16674 16921 16538 16232 15780 15485 16979 18383 19151 20154 19523 20016 19419 19246 18893 17978 17440 16691 15736 15236 14668 14479 13980 13730 12792 12008 11079 10924 65533 65533 65533 65533 65533 65533 65533 65533 65533 65533 65533 65533 65533 65533 65533 65533 65533 65533 65533 65533 65533 65533 65533 65533 65533 65533 65533 65533 65533 65533 65533 65533 6437 8008 8636 10081 11062 11117 11501 11489 11591 11186 11354 11173 11117 11134 11408 11878 11574 11747 11916 11701 11964 12272 12390 12025 12272 12191 12089 12349 12473 12950 12708 13400 13543 13813 14647 14479 14086 12764 13103 13540 14923 17422 20050 20678 20850 21331 22112 22257 22661 23496 23996 26704
14262 14451 14333 14429 14361 14315 14030 13952 13808 14007 13865 13923 14352 14196 14615 14174 14311 14039 14129 14129 14415 14507 14318 14064 13903 13975 13994 14057 13943 14250 14043 14587 14619 14984 15107 15059 14520 13248 13111 13711 14414 15750 16200 16421 15935 15632 15122 15218 14937 14973 15156 14858 15009 14930 15155 15005 14994 14623 14687 14761 14884 15380 16210 16198 16582 16536 16606 16502 16338 15861 14993 14024 13765 15330 16365 17624 17810 17225 16244 15701 15799 14716 13926 13952 12904 12431 11735 11048 65533 65533 65533 65533 65533 65533 65533 65533 65533 65533 65533 65533 65533 65533 65533 65533 65533 65533 65533 65533 65533 65533 65533 65533 65533 65533 65533 65533 65533 65533 65533 65533 65533 65533 65533 65533 5353 7598 8322 9380 10775 11252 11533 11355 11654 11407 11490 11308 10941 11117 11508 11870 11593 11527 11871 11974 11760 11889 12164 12063 12355 12060 12211 12222 12298 12962 12940 13422 13661 13898 14020 13896 12574 12219 12780 14153 16257 18612 19309 19164 20424 20693 21058 20498 21301 21319 21860 21755
14451 14366 14555 14402 14090 13978 13646 13958 13958 13785 14191 14149 14125 14015 14174 13997 14266 14061 14271 14060 14284 14023 14085 14085 13800 13780 14097 14232 14392 14359 14597 14707 14714 15187 15203 13922 13125 13467 14001 14488 15602 16476 15611 15304 15040 14813 15000 14676 14663 15048 14661 14646 14797 14872 15085 14800 14748 14291 14489 14831 15328 15771 16102 16136 16406 15922 16251 16147 15632 15727 15873 15338 15079 14152 12972 11991 12276 13024 13789 13960 13771 12931 12176 11190 10736 65533 65533 65533 65533 65533 65533 65533 65533 65533 65533 65533 65533 65533 65533 65533 65533 65533 65533 65533 65533 65533 65533 65533 65533 65533 65533 65533 65533 65533 65533 65533 65533 65533 65533 65533 65533 65533 65533 65533 7380 7309 8125 9165 10205 11081 11089 11189 11437 11370 11334 11232 11086 11052 11396 11611 11559 11688 11948 11996 12147 12080 12272 12152 12232 12165 12383 12466 12699 12894 12702 13266 13645 14189 14053 12580 11972 12450 13037 14580 17288 18933 18825 18898 19152 19773 20195 20121 20677 21183 20529 20989
14182 14167 14077 13957 14289 14108 13876 13933 13576 13913 14018 14032 14278 14084 14106 13997 14150 14042 14124 13933 14284 14307 14148 14129 14197 14309 14631 14442 14340 14126 14590 14308 15187 14533 13465 13672 13993 13880 14507 14889 16081 15271 14481 14867 14740 14665 14559 14788 14510 14447 14459 14654 15076 14985 14959 14634 14177 14218 14585 14725 15667 15841 15867 15980 15887 15644 15537 15736 15407 15183 15073 14582 13833 13316 12869 12629 12151 11430 10187 9758 9921 65533 65533 65533 65533 65533 65533 65533 65533 65533 65533 65533 65533 65533 65533 65533 65533 65533 65533 65533 65533 65533 65533 65533 65533 65533 65533 65533 65533 65533 65533 65533 65533 65533 65533 65533 65533 65533 65533 65533 65533 65533 65533 65533 65533 6660 7816 8464 9900 10896 11243 11361 11180 11246 11187 11104 10910 11188 11471 11996 11508 11559 12040 11804 11800 11983 12090 12330 12271 12145 12295 12262 12761 12864 13295 13550 13550 13901 12778 11849 11917 12674 13992 15833 17510 18506 18600 18523 18856 19610 19390 19678 19483 20013 19786 20169
14380 13806 14199 13651 13835 13378 13658 13551 13761 14119 14149 14289 14026 13844 14109 14139 14117 14064 14394 14294 14013 13867 13790 14418 14248 14450 14322 14102 14096 13988 14259 14164 14341 13684 13656 13823 13861 13892 14852 15621 14903 14627 14503 14640 15000 14937 14887 14815 14688 14770 14788 14890 14950 15100 15012 14665 14568 14987 15590 15640 15858 15702 15662 15298 15269 15036 15140 15028 14238 13739 13153 12826 12319 12073 11936 11507 11136 10374 65533 65533 65533 65533 65533 65533 65533 65533 65533 65533 65533 65533 65533 65533 65533 65533 65533 65533 4324 3381 3329 4571 65533 65533 65533 65533 65533 65533 65533 65533 65533 65533 65533 65533 65533 65533 65533 65533 65533 65533 65533 65533 65533 65533 65533 65533 65533 5314 7440 8287 9581 10887 11264 11478 11506 11108 11019 11078 10920 11048 11169 11490 11715 11879 11795 11859 11766 11771 11886 12217 12036 12093 12215 12534 12904 12965 13337 13659 13634 13038 11776 11729 11849 13166 14759 17288 17960 17944 18529 18462 18257 18081 18557 18676 19002 19136 19298 19739
13806 13629 14158 13744 13587 13723 13896 13711 14022 14245 14172 13657 13749 14003 14019 14128 13987 14135 13773 13855 14244 13981 14129 14371 14127 14193 13815 13568 13920 13705 14058 13384 13307 13437 13757 13936 14293 14414 15047 15657 14700 14576 14749 14511 14676 14672 14851 15027 14957 15055 14766 15020 15268 14906 14700 14498 14987 15527 15841 15737 15493 15168 15286 14794 14553 14001 13411 12938 12423 12165 11941 11610 10924 10751 10357 10708 65533 65533 65533 65533 65533 65533 65533 65533 65533 65533 65533 65533 65533 65533 65533 65533 65533 65533 3839 3191 3097 3264 3255 3597 65533 65533 65533 65533 65533 65533 65533 65533 65533 65533 65533 65533 65533 65533 65533 65533 65533 65533 65533 65533 65533 65533 65533 65533 65533 6654 7033 7750 9034 10500 11291 11308 11333 10990 11401 11555 10977 10938 11752 11762 11695 11640 11200 11907 11831 11977 11964 12022 12183 11967 12479 12684 13210 12924 13615 13680 13035 12024 11580 12142 12558 13873 15924 17879 17675 17429 18131 18077 18112 17675 18119 18497 18611 18377 17928 18959
13972 13751 13691 13431 13033 13370 13674 14167 14325 14007 13821 13646 13708 13829 14006 13529 13878 13737 14018 13676 13804 13996 14004 14188 14198 13573 13192 13213 13617 14029 13102 13221 13427 13710 13748 14198 14758 15139 15345 14673 14389 14485 14213 14199 14370 14304 14340 14521 14672 14491 14614 14660 15003 14542 14541 15275 15675 15231 15094 14908 14674 14137 13626 13069 12707 12258 11948 11709 11452 11182 10658 10092 10314 65533 65533 65533 65533 65533 65533 65533 65533 65533 65533 65533 65533 65533 65533 65533 65533 65533 65533 65533 65533 65533 65533 3203 3203 3157 3276 3387 65533 65533 65533 65533 65533 65533 65533 65533 65533 65533 65533 65533 65533 65533 65533 65533 65533 65533 65533 65533 65533 65533 65533 65533 65533 65533 6707 7706 8742 9933 11054 11183 11004 11324 11098 11519 10800 11105 11757 11613 11471 11769 11555 11511 11869 11919 11843 12350 12003 11928 12726 12505 12774 13149 13586 13213 12213 11341 12038 11937 13122 15286 16770 17527 17288 17187 17698 17220 17101 17579 17687 17830 17233 17544 17795 18579
13626 13480 13465 13210 13531 13921 14265 13950 14114 13856 13415 13703 14083 13795 13918 13496 13489 13805 13624 13315 13877 13944 13546 13835 13254 13102 12811 13616 13763 13199 13374 13570 13889 14559 14564 14563 14852 15225 14443 14444 14240 14158 13982 14316 14214 14143 14379 14148 14447 14288 14511 14388 14919 14620 14550 14961 14815 14424 13798 13573 12770 12345 11887 11664 11208 11160 10773 10487 10153 10511 65533 65533 65533 65533 65533 65533 65533 65533 65533 65533 65533 65533 65533 65533 65533 5479 3326 3471 65533 65533 65533 65533 65533 65533 65533 3139 3126 3135 3237 3424 5196 65533 65533 65533 65533 65533 65533 65533 65533 65533 65533 65533 65533 65533 65533 65533 65533 65533 65533 65533 65533 65533 65533 65533 65533 65533 5391 7792 8547 9752 10653 10956 11183 11282 11333 11442 10846 11306 11709 11508 11243 11462 11518 11424 11823 12145 12015 12041 12246 12411 12487 12736 12984 13189 13118 12431 11021 11380 11688 12623 14243 15973 17367 17180 16642 17186 16887 17370 17589 17991 17527 17404 17667 17843 17051 17264
13453 13319 13249 13710 13871 14222 14117 13986 13757 13844 14026 14049 13672 13940 13594 13660 13629 13656 13455 13846 13707 13688 13109 12714 12554 12647 13351 13326 13421 13997 14330 14596 14474 14985 15159 15241 15186 14388 14298 14458 14376 14167 13847 14286 14465 14299 14388 14402 14456 14291 14273 14437 14122 13991 13863 13425 13199 12481 12312 11586 11422 11422 10829 10404 10232 10393 65533 65533 65533 65533 65533 65533 65533 65533 65533 65533 65533 65533 65533 65533 65533 65533 65533 2956 2931 2990 3050 3143 65533 65533 65533 65533 65533 65533 65533 3594 3215 3301 3760 5011 6577 65533 65533 5264 3796 3540 3700 65533 65533 65533 65533 65533 65533 65533 65533 65533 65533 65533 65533 65533 65533 65533 65533 65533 65533 65533 5839 7457 8269 9052 10404 11160 11206 11416 11207 11108 10963 11082 11489 11352 11085 11382 11509 11490 11710 11766 11593 11881 11983 12149 12605 12449 13192 13054 13008 11366 11340 11557 12277 13730 15561 17324 17206 17146 16608 16913 16933 17112 16518 17132 17410 17736 17317 17105 16841 17064
13249 13160 13600 14067 13796 13674 13623 13376 13739 13507 13992 13662 13918 13697 13605 13629 13847 13655 13544 13680 13646 12904 12302 12135 12924 13753 13647 14415 14608 15021 15157 15012 14939 15028 15187 14547 14333 14032 14130 14649 14348 14307 14017 14251 14251 14379 14278 14570 14288 14388 13972 13860 13554 13192 12408 12061 11458 11093 11128 10723 10243 10071 10369 65533 65533 65533 65533 65533 65533 65533 65533 65533 65533 65533 65533 65533 65533 65533 65533 65533 65533 65533 65533 2868 2893 2885 2961 3020 65533 65533 65533 65533 65533 65533 65533 5982 6168 65533 65533 65533 65533 65533 3437 3382 3450 3501 3481 6237 65533 65533 65533 65533 65533 65533 65533 65533 65533 65533 65533 65533 65533 65533 65533 65533 65533 65533 65533 6815 7862 8640 9982 10706 11266 11322 11488 11279 10890 11207 11346 11261 11508 11604 11456 11527 11799 11917 11945 12072 12264 12388 12304 12546 12716 12884 11283 10806 11274 11999 12879 14970 16796 17454 16780 16073 16574 16608 16686 16725 16714 16732 16902 17268 17204 17246 16919 17051
12974 13483 13561 13659 13570 13822 13671 13614 13422 13646 13583 13448 13531 13420 13867 13564 13688 13297 13461 12997 12558 11959 12435 13683 14072 14538 14862 14945 15433 14919 15116 15097 14929 14702 14316 13928 13767 14472 14567 14702 14171 14098 14116 14054 14148 14013 14147 13961 14036 13595 12890 12566 11885 11583 11148 10929 10479 10188 9774 9727 65533 65533 65533 65533 65533 65533 65533 65533 65533 65533 65533 65533 65533 65533 65533 65533 65533 65533 65533 65533 65533 65533 65533 3152 2940 2923 2983 3093 4559 65533 65533 65533 65533 65533 65533 65533 65533 65533 65533 65533 65533 65533 3636 3462 3377 3339 3467 3995 65533 65533 65533 65533 65533 65533 65533 65533 65533 65533 65533 65533 65533 65533 65533 65533 65533 65533 65533 5627 7633 8574 9469 10850 11142 11206 11304 11237 10595 11171 11301 11355 11343 11380 11271 11741 11986 11827 12002 12173 12197 12195 12829 12585 12939 11865 10737 11102 11672 12277 14096 16159 17211 16732 16613 16169 16140 16451 16345 16645 17206 16887 16974 16899 16924 16778 16646 16724
