1.12211 1.11966 1.11628 1.11939 1.11959 1.12404 1.11929 1.11877 1.12193 1.1219 1.11605 1.12457 1.11804 1.12448 1.12132 1.12509 1.12038 1.11913 1.11811 1.12115 1.11568 1.11719 1.11837 1.11834 1.11005 1.11142 1.12013 1.11201 1.11683 1.1104 1.11369 1.10867 1.11576 1.11186 1.11416 1.10662 1.10738 1.10751 1.10971 1.10114 1.0985 1.05694 0.0 0.0 0.0 0.0 0.0 0.0 0.0 0.0 0.0 0.0 0.0 0.0 0.0 0.0 0.0 0.0 0.0 0.0 0.0 0.0 0.0 0.0 0.0 0.0 0.0 0.712515 0.71215 0.714506 0.712901 0.712499 0.0 0.0 0.0 0.0 0.0 0.0 0.0 0.715242 0.724177 0.0 0.0 0.0 0.0 0.708964 0.697717 0.697735 0.697742 0.70749 0.0 0.0 0.0 0.0 0.0 0.0 0.0 0.664397 0.692618 0.693718 0.693285 0.701363 0.701818 0.0 0.0 0.0 0.0 0.714247 0.69974 0.0 0.0 0.0 0.0 0.0 0.0 0.0 0.0 0.0 0.0 0.0 0.0 0.0 0.0 0.0 0.0 0.0 0.0 0.0 0.0 0.0 0.0 0.0 0.0 0.0 0.0 0.99368 1.10019 1.08281 1.07768 1.07581 1.07809 1.07677 1.06888 1.07376 1.06881 1.07332 1.06596 1.06923 1.07483 1.06681 1.07145 1.06928 1.07503 1.06722 1.07201 1.06591 1.06741 1.06361 1.06882 1.06292 1.06922 1.06064 1.06858 1.06546 1.06548 1.06489 1.07146 1.06617 1.06201 1.06899 1.06875 1.06132 1.05901 1.06177 1.06675 1.06626
1.11661 1.11499 1.11672 1.11498 1.11632 1.11247 1.10913 1.11088 1.11317 1.10737 1.11763 1.11143 1.11789 1.1168 1.11189 1.11215 1.11412 1.10789 1.1092 1.10989 1.10352 1.10706 1.105 1.1076 1.10723 1.10654 1.10581 1.1074 1.10779 1.10342 1.107 1.10374 1.10431 1.10514 1.10833 1.10554 1.1057 1.10435 1.10535 1.10185 1.08636 1.09475 0.0 0.0 0.0 0.0 0.0 0.0 0.0 0.0 0.0 0.0 0.0 0.0 0.0 0.0 0.0 0.0 0.0 0.0 0.0 0.0 0.0 0.0 0.0 0.0 0.0 0.707115 0.707355 0.707583 0.707799 0.711957 0.0 0.0 0.0 0.0 0.0 0.0 0.0 0.0 0.0 0.0 0.0 0.0 0.0 0.680075 0.697477 0.697495 0.698111 0.70847 0.716074 0.0 0.0 0.0 0.0 0.0 0.0 0.0 0.701515 0.704137 0.0 0.0 0.0 0.0 0.698195 0.687364 0.68808 0.685744 0.690083 0.698356 0.0 0.0 0.0 0.0 0.0 0.0 0.0 0.0 0.0 0.0 0.0 0.0 0.0 0.0 0.0 0.0 0.0 0.0 0.0 0.0 0.0 0.0 0.0 0.0 0.0 0.841749 1.08535 1.08352 1.06883 1.07174 1.06211 1.06765 1.06602 1.06377 1.06892 1.06602 1.06044 1.06461 1.06253 1.06692 1.06331 1.07323 1.05897 1.06469 1.0601 1.06633 1.06022 1.06431 1.0564 1.06304 1.05712 1.06338 1.06001 1.06066 1.05983 1.06329 1.05459 1.0617 1.05755 1.05565 1.05887 1.05803 1.05572 1.06191 1.05155 1.05819
1.10967 1.10917 1.11173 1.10401 1.10589 1.10116 1.0998 1.10469 1.10266 1.1046 1.10622 1.09884 1.10123 1.10272 1.10967 1.09889 1.10084 1.10538 1.10259 1.10298 1.09923 1.09896 1.1007 1.10623 1.10322 1.10428 1.10266 1.10278 1.10257 1.10381 1.09821 1.0985 1.09758 1.0987 1.09772 1.09909 1.10014 1.10355 1.09828 1.09776 1.08585 1.09574 0.868428 0.0 0.0 0.0 0.0 0.0 0.0 0.0 0.0 0.0 0.0 0.0 0.0 0.0 0.0 0.0 0.0 0.0 0.0 0.0 0.0 0.0 0.0 0.0 0.0 0.681048 0.712879 0.713109 0.711502 0.717182 0.724373 0.0 0.0 0.0 0.0 0.744059 0.0 0.0 0.0 0.0 0.0 0.0 0.0 0.671287 0.697835 0.698767 0.698165 0.700294 0.706374 0.0 0.0 0.0 0.0 0.0 0.0 0.0 0.0 0.0 0.0 0.0 0.0 0.0 0.668132 0.686504 0.686613 0.687013 0.686186 0.690512 0.0 0.0 0.0 0.0 0.0 0.0 0.0 0.0 0.0 0.0 0.0 0.0 0.0 0.0 0.0 0.0 0.0 0.0 0.0 0.0 0.0 0.0 0.0 0.0 0.0 0.0 1.07138 1.08331 1.06474 1.06318 1.0625 1.06566 1.06462 1.05851 1.06664 1.06048 1.06468 1.05612 1.06322 1.05698 1.06252 1.05801 1.06201 1.06038 1.06313 1.05734 1.0568 1.05886 1.05387 1.05761 1.05722 1.05622 1.05518 1.05381 1.05328 1.05531 1.05671 1.05375 1.0522 1.0549 1.05269 1.05157 1.05356 1.05406 1.04939 1.05774
1.09958 1.10218 1.10217 1.09784 1.10028 1.09869 1.09646 1.1002 1.10189 1.09779 1.09535 1.09922 1.09582 1.09237 1.09787 1.09549 1.09452 1.09468 1.0948 1.09605 1.09171 1.09992 1.09638 1.10103 1.09447 1.09788 1.09625 1.09725 1.09437 1.09235 1.09385 1.09621 1.09765 1.09105 1.09095 1.09291 1.08799 1.0902 1.09089 1.10172 1.09399 1.09551 1.00686 0.0 0.0 0.0 0.0 0.777993 0.0 0.0 0.0 0.0 0.0 0.0 0.0 0.0 0.0 0.0 0.0 0.0 0.0 0.0 0.0 0.0 0.0 0.0 0.0 0.0 0.708668 0.727742 0.738606 0.0 0.0 0.0 0.731166 0.716716 0.700725 0.713344 0.720168 0.0 0.0 0.0 0.0 0.0 0.0 0.0 0.700011 0.700943 0.698207 0.699726 0.707331 0.0 0.0 0.0 0.0 0.0 0.732588 0.0 0.0 0.0 0.0 0.0 0.0 0.0 0.0 0.688067 0.686046 0.688879 0.690178 0.69025 0.0 0.0 0.0 0.0 0.0 0.0 0.0 0.0 0.0 0.0 0.0 0.0 0.0 0.0 0.0 0.0 0.0 0.0 0.0 0.0 0.0 0.0 0.0 0.0 0.0 0.0 1.06816 1.06934 1.06869 1.05311 1.06674 1.06126 1.05547 1.05829 1.05751 1.05789 1.05765 1.05235 1.05856 1.04967 1.05936 1.0519 1.05679 1.05429 1.05969 1.05332 1.05922 1.05134 1.05775 1.04807 1.0541 1.04932 1.05555 1.04636 1.05192 1.04904 1.0493 1.04751 1.0451 1.04495 1.04447 1.04537 1.04366 1.05102 1.04977 1.04195
1.09852 1.09375 1.09457 1.09421 1.09836 1.09218 1.09281 1.0951 1.09104 1.09296 1.09398 1.09235 1.09097 1.09273 1.08865 1.09032 1.09167 1.08804 1.09369 1.09056 1.08767 1.09382 1.0894 1.09051 1.08776 1.09323 1.08953 1.08963 1.08645 1.09241 1.08946 1.09033 1.08732 1.09111 1.08238 1.09267 1.08119 1.09353 1.09124 1.10177 1.08926 1.07821 1.03117 0.775696 0.769403 0.721653 0.711373 0.7182 0.0 0.0 0.0 0.0 0.0 0.0 0.0 0.0 0.0 0.0 0.0 0.0 0.0 0.0 0.0 0.0 0.0 0.0 0.0 0.0 0.0 0.0 0.0 0.0 0.0 0.0 0.702587 0.707005 0.705933 0.706371 0.714108 0.0 0.0 0.0 0.0 0.0 0.0 0.0 0.698212 0.710425 0.717139 0.732682 0.0 0.0 0.719184 0.719437 0.696821 0.696139 0.695446 0.708756 0.0 0.0 0.0 0.0 0.0 0.0 0.0 0.687793 0.686989 0.687389 0.685347 0.690281 0.0 0.0 0.0 0.0 0.0 0.0 0.0 0.0 0.0 0.0 0.0 0.0 0.0 0.0 0.0 0.0 0.0 0.0 0.0 0.0 0.0 0.0 0.0 0.0 0.0 0.0 0.990451 1.0667 1.06666 1.05346 1.04891 1.05625 1.05285 1.04972 1.04836 1.05735 1.04644 1.05536 1.05063 1.05386 1.0482 1.05667 1.04684 1.05229 1.04448 1.05103 1.04669 1.0514 1.04496 1.04813 1.04514 1.04415 1.04313 1.04526 1.04012 1.04852 1.04014 1.04411 1.03568 1.04128 1.04024 1.03972 1.04373 1.04197 1.03932 1.04174
1.0915 1.0884 1.08524 1.08942 1.08756 1.08394 1.08512 1.08425 1.08562 1.08811 1.0871 1.08517 1.08494 1.08205 1.0823 1.08164 1.08677 1.08778 1.08118 1.0903 1.088 1.08155 1.07946 1.09025 1.0828 1.08914 1.07807 1.08435 1.0791 1.08356 1.0809 1.08592 1.08439 1.08668 1.08271 1.09151 1.09344 1.09476 1.09008 1.06714 0.949044 0.759495 0.706803 0.710969 0.706725 0.716271 0.711093 0.71792 0.731963 0.0 0.0 0.0 0.0 0.0 0.0 0.0 0.0 0.0 0.0 0.0 0.0 0.0 0.0 0.0 0.0 0.0 0.0 0.0 0.0 0.0 0.0 0.0 0.0 0.0 0.707781 0.707938 0.708084 0.706695 0.711691 0.0 0.0 0.0 0.0 0.0 0.0 0.0 0.0 0.0 0.0 0.0 0.0 0.0 0.678661 0.694768 0.697145 0.697682 0.69059 0.702378 0.0 0.0 0.0 0.0 0.0 0.0 0.0 0.681425 0.692786 0.69896 0.716668 0.0 0.0 0.0 0.0 0.719895 0.698669 0.690179 0.688652 0.0 0.0 0.0 0.0 0.0 0.0 0.0 0.0 0.0 0.0 0.0 0.0 0.0 0.0 0.0 0.0 0.0 0.0 0.0 0.833756 1.06852 1.06131 1.0529 1.04626 1.04914 1.0511 1.04381 1.04898 1.04759 1.04677 1.04622 1.05037 1.04504 1.04824 1.04315 1.04246 1.04116 1.04041 1.04344 1.04556 1.03623 1.04266 1.04321 1.04139 1.03954 1.03969 1.03893 1.04479 1.03788 1.04248 1.03321 1.03572 1.03128 1.03713 1.03805 1.03549 1.03774 1.0351 1.03611
1.08671 1.08304 1.08384 1.07947 1.08131 1.0831 1.08628 1.08054 1.08248 1.08093 1.07875 1.07739 1.0809 1.07888 1.07971 1.08079 1.08183 1.07906 1.08061 1.0722 1.07982 1.08245 1.07713 1.07851 1.07752 1.08297 1.07749 1.08141 1.07291 1.08032 1.07559 1.07674 1.07223 1.08818 1.0747 1.08021 1.06694 1.01394 0.833657 0.768364 0.739425 0.712216 0.713701 0.712177 0.713934 0.714778 0.7099 0.718831 0.719335 0.0 0.0 0.0 0.0 0.0 0.0 0.0 0.0 0.0 0.0 0.0 0.0 0.0 0.0 0.0 0.0 0.0 0.0 0.0 0.0 0.0 0.0 0.0 0.0 0.0 0.693179 0.709164 0.709005 0.703048 0.716573 0.724606 0.0 0.0 0.0 0.0 0.0 0.0 0.0 0.0 0.0 0.0 0.0 0.0 0.0 0.692642 0.691971 0.694947 0.695778 0.700557 0.0 0.0 0.0 0.0 0.0 0.0 0.0 0.0 0.0 0.0 0.0 0.0 0.0 0.0 0.685598 0.686231 0.682303 0.683519 0.687448 0.0 0.0 0.0 0.0 0.0 0.0 0.0 0.0 0.0 0.0 0.0 0.0 0.0 0.0 0.0 0.0 0.0 0.0 0.0 0.0 1.06136 1.05386 1.04784 1.05015 1.03843 1.04486 1.04145 1.04692 1.04138 1.0456 1.03736 1.04329 1.0421 1.04353 1.03993 1.04189 1.03735 1.04072 1.03701 1.03708 1.03654 1.0418 1.03652 1.03587 1.03374 1.03883 1.03604 1.03612 1.03645 1.02866 1.03006 1.03056 1.02843 1.03228 1.02778 1.03209 1.02865 1.02887 1.03357
1.0867 1.08359 1.07957 1.07804 1.07588 1.07652 1.07683 1.07823 1.07299 1.07747 1.07529 1.07334 1.07395 1.07105 1.07274 1.07177 1.07688 1.07322 1.07448 1.0719 1.07835 1.07541 1.07125 1.06911 1.07075 1.07177 1.06805 1.07432 1.0729 1.0744 1.06936 1.06903 1.06421 1.06976 1.03603 0.909323 0.760304 0.767277 0.759021 0.742664 0.731646 0.716701 0.714297 0.714571 0.71603 0.713573 0.709296 0.710108 0.71181 0.0 0.0 0.0 0.0 0.0 0.0 0.0 0.0 0.0 0.0 0.0 0.0 0.0 0.0 0.0 0.0 0.0 0.0 0.0 0.0 0.0 0.0 0.0 0.0 0.0 0.691349 0.716772 0.716919 0.723755 0.735456 0.0 0.0 0.0 0.73371 0.70421 0.706396 0.713144 0.0 0.0 0.0 0.0 0.0 0.0 0.0 0.691724 0.692578 0.694944 0.702173 0.699335 0.0 0.0 0.0 0.0 0.0 0.0 0.0 0.0 0.0 0.0 0.0 0.0 0.0 0.0 0.668904 0.684104 0.686848 0.684122 0.689566 0.700746 0.0 0.0 0.0 0.0 0.0 0.0 0.0 0.0 0.0 0.0 0.0 0.0 0.0 0.0 0.0 0.0 0.0 0.0 0.0 1.04253 1.05893 1.04276 1.04627 1.03902 1.03802 1.04144 1.03385 1.03959 1.037 1.03735 1.03235 1.03619 1.03173 1.04021 1.0307 1.03735 1.03044 1.03495 1.03386 1.03595 1.0234 1.0333 1.03092 1.03402 1.02867 1.03633 1.02657 1.0376 1.0298 1.02689 1.0205 1.02842 1.02253 1.02462 1.02352 1.02067 1.02289 1.02562
1.08666 1.08356 1.07783 1.07203 1.07471 1.06706 1.06935 1.06989 1.06521 1.06881 1.06805 1.0661 1.06872 1.0687 1.06487 1.0671 1.07016 1.06649 1.06978 1.07041 1.06252 1.06952 1.06535 1.06614 1.06307 1.0632 1.06714 1.06456 1.06814 1.06846 1.06815 1.0687 1.063 1.06795 0.857556 0.767299 0.765948 0.75354 0.712135 0.73697 0.737909 0.719079 0.715179 0.721149 0.713314 0.710855 0.70988 0.712798 0.710289 0.732451 0.0 0.0 0.0 0.0 0.0 0.0 0.0 0.0 0.0 0.0 0.0 0.0 0.0 0.0 0.0 0.0 0.0 0.0 0.0 0.0 0.0 0.0 0.0 0.0 0.0 0.0 0.0 0.0 0.0 0.0 0.0 0.707103 0.706569 0.700232 0.700285 0.706727 0.0 0.0 0.0 0.0 0.0 0.0 0.0 0.673421 0.69622 0.702548 0.702159 0.715773 0.0 0.0 0.0 0.0 0.709021 0.697898 0.69681 0.0 0.0 0.0 0.0 0.0 0.0 0.0 0.661909 0.683179 0.688046 0.683198 0.684703 0.68771 0.0 0.0 0.0 0.0 0.0 0.0 0.0 0.0 0.0 0.0 0.0 0.0 0.0 0.0 0.0 0.0 0.0 0.0 0.0 0.981546 1.05562 1.04005 1.03432 1.039 1.02907 1.03518 1.0267 1.03482 1.0269 1.03318 1.02611 1.0338 1.02757 1.03047 1.0292 1.03174 1.02895 1.02906 1.02622 1.02715 1.02629 1.02745 1.02711 1.02586 1.03009 1.02587 1.02596 1.02428 1.02343 1.01448 1.02018 1.01807 1.01649 1.02459 1.01693 1.02064 1.01661 1.02559
1.06256 1.07046 1.07408 1.07112 1.06524 1.06672 1.06844 1.06639 1.06055 1.06242 1.0631 1.06258 1.05941 1.05764 1.06018 1.06181 1.06778 1.06411 1.06535 1.05955 1.05867 1.05658 1.06091 1.0608 1.06008 1.0608 1.05618 1.06333 1.06603 1.0622 1.06603 1.07073 1.06859 1.05839 0.831051 0.947665 0.948867 0.810174 0.750613 0.723794 0.714255 0.718451 0.737015 0.716624 0.711485 0.718032 0.712255 0.710665 0.714774 0.718874 0.0 0.0 0.0 0.0 0.0 0.0 0.0 0.0 0.0 0.0 0.0 0.0 0.0 0.0 0.0 0.0 0.0 0.0 0.0 0.0 0.0 0.0 0.0 0.0 0.0 0.0 0.0 0.0 0.0 0.0 0.0 0.695801 0.706543 0.70234 0.702088 0.704872 0.725936 0.0 0.0 0.0 0.0 0.0 0.0 0.0 0.724538 0.0 0.0 0.0 0.0 0.0 0.691936 0.692405 0.691644 0.690873 0.695262 0.0 0.0 0.0 0.0 0.0 0.0 0.0 0.683126 0.687703 0.68711 0.685293 0.684374 0.689803 0.0 0.0 0.0 0.0 0.0 0.0 0.0 0.0 0.0 0.0 0.0 0.0 0.0 0.0 0.0 0.0 0.0 0.0 0.0 0.843749 1.04334 1.0427 1.02623 1.0336 1.02783 1.02443 1.02725 1.02381 1.02479 1.02722 1.02311 1.02283 1.02723 1.021 1.02445 1.02111 1.02714 1.02022 1.02559 1.01746 1.02508 1.01603 1.02735 1.01941 1.02424 1.01568 1.02041 1.02336 1.01242 1.01501 1.01294 1.01113 1.01587 1.00911 1.01631 1.01147 1.01258 1.01533
1.04522 1.04742 1.05895 1.07132 1.06459 1.06635 1.06235 1.06316 1.05962 1.05544 1.05553 1.05095 1.05587 1.05641 1.05373 1.05477 1.05636 1.05704 1.0539 1.05276 1.0545 1.05358 1.0582 1.05457 1.0556 1.05396 1.04786 1.05588 1.05651 1.06332 1.063 1.06563 1.07268 0.797191 0.707588 0.721082 0.770041 0.859631 0.809372 0.733909 0.689695 0.663944 0.713611 0.728572 0.717743 0.711686 0.704704 0.715434 0.715636 0.715522 0.0 0.0 0.0 0.0 0.0 0.0 0.0 0.0 0.0 0.0 0.0 0.0 0.0 0.0 0.0 0.0 0.0 0.0 0.0 0.0 0.0 0.753391 0.738082 0.715449 0.730533 0.0 0.0 0.0 0.0 0.0 0.0 0.681747 0.700715 0.703521 0.703879 0.703005 0.713094 0.0 0.0 0.0 0.0 0.0 0.0 0.0 0.0 0.0 0.0 0.0 0.0 0.0 0.691898 0.691454 0.689172 0.69114 0.691574 0.708116 0.0 0.0 0.0 0.0 0.0 0.0 0.0 0.687059 0.703142 0.722229 0.0 0.0 0.0 0.0 0.0 0.0 0.0 0.0 0.0 0.0 0.0 0.0 0.0 0.0 0.0 0.0 0.0 0.0 0.0 0.0 0.0 0.0 1.0385 1.04055 1.02528 1.02192 1.0245 1.01754 1.0263 1.01752 1.02295 1.01739 1.02334 1.01627 1.02186 1.01327 1.02321 1.01605 1.02032 1.01429 1.02318 1.01534 1.01713 1.01684 1.01418 1.01934 1.01285 1.01561 1.01369 1.01838 1.01177 1.00803 1.00569 1.00933 1.0052 1.0056 1.0071 1.00542 1.01136 1.00787
1.03804 1.03994 1.03555 1.04532 1.06078 1.05996 1.0591 1.05933 1.05348 1.05448 1.05428 1.05259 1.05057 1.04734 1.04841 1.04712 1.04841 1.04588 1.05118 1.04974 1.05265 1.04704 1.04931 1.04361 1.04493 1.04533 1.04718 1.0493 1.04992 1.01501 0.891748 0.820373 0.893647 0.719594 0.702477 0.701976 0.686562 0.720305 0.743945 0.748191 0.730304 0.733017 0.747098 0.719226 0.711391 0.719137 0.712161 0.712976 0.711973 0.715469 0.0 0.0 0.0 0.0 0.0 0.0 0.0 0.0 0.0 0.0 0.0 0.0 0.0 0.0 0.0 0.0 0.0 0.0 0.0 0.0 0.709647 0.714109 0.715216 0.715094 0.724395 0.0 0.0 0.0 0.0 0.0 0.0 0.0 0.702494 0.703777 0.702306 0.713014 0.717312 0.0 0.0 0.0 0.731643 0.724908 0.70841 0.0 0.0 0.0 0.0 0.0 0.0 0.0 0.680584 0.690492 0.691254 0.692613 0.692743 0.694381 0.0 0.0 0.0 0.0 0.0 0.0 0.0 0.0 0.0 0.0 0.0 0.0 0.0 0.0 0.0 0.0 0.0 0.0 0.0 0.0 0.0 0.0 0.0 0.0 0.0 0.0 0.0 0.0 0.0 0.0 0.0 0.0 1.02618 1.03659 1.0243 1.01708 1.02353 1.01538 1.01494 1.01417 1.01931 1.01287 1.01735 1.01382 1.01322 1.01525 1.01312 1.01685 1.01085 1.01948 1.00904 1.01409 1.01062 1.01675 1.00594 1.01344 1.00985 1.00856 1.01331 1.00558 1.00937 1.00189 1.00731 1.00436 1.00195 1.00607 1.00016 1.00446 1.00245 1.00749
1.03169 1.03273 1.02804 1.02755 1.03414 1.04241 1.05525 1.05576 1.05192 1.05119 1.0481 1.04468 1.04611 1.04288 1.0451 1.04207 1.04888 1.04198 1.04319 1.04379 1.04464 1.0443 1.04304 1.04409 1.04452 1.03934 1.03411 1.04565 1.04006 0.904284 0.860272 0.827999 0.69178 0.750713 0.70449 0.685539 0.703476 0.78315 0.788341 0.776796 0.726946 0.726066 0.725168 0.714064 0.711324 0.712167 0.714198 0.736957 0.761838 0.0 0.0 0.0 0.0 0.0 0.0 0.0 0.0 0.0 0.0 0.0 0.0 0.0 0.0 0.0 0.0 0.0 0.0 0.0 0.0 0.0 0.715057 0.714047 0.709375 0.712902 0.71642 0.0 0.0 0.0 0.0 0.0 0.0 0.0 0.711879 0.739674 0.0 0.0 0.0 0.0 0.699293 0.700203 0.700797 0.701379 0.707435 0.0 0.0 0.0 0.0 0.0 0.0 0.0 0.66987 0.691346 0.692107 0.691031 0.696941 0.699794 0.0 0.0 0.0 0.0 0.719324 0.706615 0.706948 0.0 0.0 0.0 0.0 0.0 0.0 0.0 0.0 0.0 0.0 0.0 0.0 0.0 0.0 0.0 0.0 0.0 0.0 0.0 0.0 0.0 0.0 0.0 0.0 0.0 0.996234 1.02486 1.0248 1.01043 1.01629 1.01528 1.00949 1.00963 1.00677 1.01484 1.00425 1.01313 1.00664 1.01367 1.00831 1.01116 1.00575 1.01234 1.00835 1.00901 1.00964 1.00556 1.00729 1.00548 1.01148 1.00787 1.00625 1.00489 0.997725 1.00148 0.998576 0.994492 1.00183 0.995952 0.996611 0.996936 0.99636 0.994888
1.03068 1.03257 1.02448 1.02541 1.02202 1.02741 1.03336 1.04558 1.0446 1.04615 1.04306 1.04107 1.04019 1.03521 1.03974 1.03903 1.04031 1.03514 1.0416 1.03752 1.03925 1.03538 1.03352 1.03574 1.03734 1.03685 1.0328 1.01159 0.757808 0.696261 0.683116 0.712605 0.702677 0.703996 0.750489 0.720873 0.743607 0.795285 0.815109 0.772228 0.7448 0.741841 0.740657 0.724772 0.732238 0.800922 0.0 0.0 0.0 0.0 0.0 0.0 0.0 0.0 0.0 0.0 0.0 0.0 0.0 0.0 0.0 0.0 0.0 0.0 0.0 0.0 0.0 0.0 0.0 0.0 0.693402 0.713669 0.71508 0.713437 0.715433 0.733244 0.0 0.0 0.0 0.0 0.0 0.0 0.0 0.0 0.0 0.0 0.0 0.0 0.68825 0.696779 0.70042 0.699479 0.701268 0.717672 0.0 0.0 0.0 0.0 0.0 0.0 0.0 0.694927 0.703903 0.707692 0.0 0.0 0.0 0.698399 0.689063 0.69126 0.691016 0.695313 0.693526 0.0 0.0 0.0 0.0 0.0 0.0 0.0 0.0 0.0 0.0 0.0 0.0 0.0 0.0 0.0 0.0 0.0 0.0 0.0 0.0 0.0 0.0 0.0 0.0 0.0 0.871067 1.02087 1.01873 1.01002 1.00517 1.01041 1.00344 1.00773 1.00399 1.00762 1.00324 1.00681 1.0015 1.00972 1.00436 1.00251 1.00533 1.00401 1.01027 1.00041 1.00542 0.998148 1.00279 1.0007 0.994524 0.999913 0.99715 1.00013 0.994129 1.00105 0.992979 0.993492 0.9931 0.990952 0.998177 0.993659 0.995928 0.994455
1.02061 1.02503 1.0243 1.02125 1.02184 1.01953 1.0226 1.02449 1.03093 1.04052 1.03857 1.03802 1.04031 1.03563 1.03813 1.03161 1.03346 1.02887 1.03123 1.03182 1.0309 1.03113 1.03484 1.03383 1.03043 1.0317 1.02323 1.01558 0.772472 0.766545 0.825712 0.0 0.7809 0.912962 0.818757 0.752911 0.81171 0.792795 0.756223 0.752119 0.755164 0.820418 0.951924 0.983848 1.00081 1.00577 0.0 0.0 0.0 0.0 0.0 0.0 0.0 0.0 0.0 0.0 0.0 0.0 0.0 0.0 0.0 0.0 0.0 0.0 0.0 0.0 0.0 0.0 0.0 0.0 0.700005 0.709936 0.714386 0.714569 0.726301 0.733157 0.0 0.0 0.0 0.740692 0.715517 0.723525 0.0 0.0 0.0 0.0 0.0 0.0 0.682684 0.700658 0.700337 0.70031 0.702099 0.70601 0.0 0.0 0.0 0.0 0.0 0.0 0.0 0.0 0.0 0.0 0.0 0.0 0.0 0.66945 0.690802 0.690873 0.690326 0.69098 0.692836 0.0 0.0 0.0 0.0 0.0 0.0 0.0 0.0 0.0 0.0 0.0 0.0 0.0 0.0 0.0 0.0 0.0 0.0 0.0 0.0 0.0 0.0 0.0 0.0 0.0 0.0 1.02163 1.01502 1.01018 0.999984 1.00374 1.00242 1.00315 1.00148 1.00127 1.0034 0.996932 1.00225 0.995153 1.00069 0.993854 1.00548 0.9983 1.00105 0.999676 0.997686 1.00324 0.991876 0.995903 0.989441 0.99831 0.990055 0.995355 0.987631 0.991976 0.985638 0.986162 0.990647 0.991358 0.9886 0.99036 0.984114 0.989747
1.01956 1.02029 1.02354 1.01565 1.01709 1.01506 1.01411 1.01083 1.01237 1.01819 1.03032 1.03177 1.03406 1.03052 1.02838 1.02533 1.03037 1.02899 1.02698 1.03194 1.02459 1.02569 1.02617 1.03014 1.02468 1.02977 1.02954 1.02634 1.02427 0.919285 0.775857 0.0 0.780483 0.943702 0.994284 1.02977 0.9173 0.790291 0.842326 0.934145 0.992035 1.01441 1.02363 1.01696 1.01266 1.00803 0.0 0.0 0.0 0.0 0.0 0.0 0.0 0.0 0.0 0.0 0.0 0.0 0.0 0.0 0.0 0.0 0.0 0.0 0.0 0.0 0.0 0.0 0.0 0.0 0.0 0.730205 0.737397 0.0 0.0 0.0 0.0 0.705344 0.703639 0.710144 0.712984 0.715204 0.0 0.0 0.0 0.0 0.0 0.0 0.0 0.700259 0.701461 0.702653 0.701395 0.707133 0.0 0.0 0.0 0.0 0.0 0.74007 0.712846 0.0 0.0 0.0 0.0 0.0 0.0 0.0 0.685545 0.691386 0.685375 0.690582 0.69729 0.0 0.0 0.0 0.0 0.0 0.0 0.0 0.0 0.0 0.0 0.0 0.0 0.0 0.0 0.0 0.0 0.0 0.0 0.0 0.0 0.0 0.0 0.0 0.0 0.0 0.0 1.0173 1.0104 1.00587 0.997454 0.998834 0.996625 0.995878 1.00162 0.993719 1.00265 0.996479 1.00268 0.990283 0.998473 0.993105 0.993586 0.99257 0.991234 0.997755 0.986724 0.990837 0.98676 0.990793 0.991298 0.988 0.988723 0.984498 0.987452 0.981152 0.986892 0.985404 0.982735 0.981745 0.986985 0.985616 0.979378 0.984167
1.01594 1.01695 1.01508 1.01259 1.00832 1.0137 1.00933 1.01062 1.01245 1.01396 1.00995 1.01772 1.0249 1.02598 1.02847 1.01816 1.02174 1.02093 1.02212 1.02298 1.01768 1.02023 1.01982 1.01997 1.01891 1.02223 1.02524 1.02291 1.03207 0.940704 0.818632 0.761748 0.876138 0.94354 1.00244 1.03554 1.00378 1.00532 1.0122 1.01639 1.02265 1.01693 1.02286 1.0123 1.01309 0.998863 0.96568 0.0 0.0 0.0 0.0 0.0 0.0 0.0 0.0 0.0 0.0 0.0 0.0 0.0 0.0 0.0 0.0 0.0 0.0 0.0 0.0 0.0 0.0 0.0 0.0 0.0 0.0 0.0 0.0 0.0 0.0 0.704324 0.702011 0.705774 0.709831 0.715705 0.0 0.0 0.0 0.0 0.0 0.0 0.0 0.700762 0.711103 0.732094 0.0 0.0 0.0 0.706281 0.71259 0.698488 0.695337 0.695827 0.705435 0.0 0.0 0.0 0.0 0.0 0.0 0.0 0.685439 0.685512 0.690732 0.685319 0.690207 0.704477 0.0 0.0 0.0 0.0 0.0 0.0 0.0 0.0 0.0 0.0 0.0 0.0 0.0 0.0 0.0 0.0 0.0 0.0 0.0 0.0 0.0 0.0 0.0 0.0 0.0 0.990601 0.999507 0.998555 0.993717 0.992724 0.994971 0.987409 0.994933 0.986153 0.990065 0.989811 0.987468 0.994225 0.985063 0.995272 0.984606 0.997072 0.981982 0.989974 0.988578 0.984823 0.986279 0.978985 0.988784 0.981146 0.988525 0.978818 0.984659 0.984401 0.983817 0.974595 0.9831 0.980965 0.984777 0.973455 0.978595 0.977716
1.01568 1.01528 1.01313 1.01064 1.01264 1.00775 1.00852 1.00265 1.00763 1.00366 1.00483 0.999324 1.00878 1.01736 1.01985 1.02056 1.01949 1.01402 1.01461 1.01314 1.01396 1.0165 1.01316 1.01917 1.01518 1.02173 1.01679 1.01652 1.01976 0.956481 0.824687 0.763378 0.97026 0.94336 1.02809 1.02494 1.01193 1.01586 1.01649 1.0159 1.01678 1.01406 1.01669 1.01122 1.01261 0.999283 0.997323 0.0 0.0 0.0 0.0 0.0 0.0 0.0 0.0 0.0 0.0 0.0 0.0 0.0 0.0 0.0 0.0 0.0 0.0 0.0 0.0 0.0 0.0 0.0 0.0 0.0 0.0 0.0 0.0 0.0 0.0 0.704205 0.711327 0.712047 0.710625 0.711322 0.0 0.0 0.0 0.0 0.0 0.0 0.0 0.0 0.0 0.0 0.0 0.0 0.0 0.0 0.696031 0.698066 0.705568 0.695102 0.704404 0.0 0.0 0.0 0.0 0.0 0.0 0.0 0.676822 0.692073 0.701537 0.713712 0.0 0.0 0.0 0.0 0.0 0.0 0.0 0.0 0.0 0.0 0.0 0.0 0.0 0.0 0.0 0.0 0.0 0.0 0.0 0.0 0.0 0.0 0.0 0.0 0.0 0.0 0.0 0.923366 0.993664 0.994203 0.991152 0.983332 0.995374 0.983664 0.98675 0.982709 0.984261 0.984897 0.98079 0.986376 0.981926 0.9892 0.984406 0.983399 0.987627 0.98422 0.98458 0.975879 0.980544 0.978193 0.978133 0.978905 0.979927 0.978599 0.973205 0.980152 0.971536 0.974083 0.97286 0.972169 0.970582 0.972936 0.972396 0.97436
1.01936 1.00963 1.01002 1.01122 1.00753 1.00977 1.00311 1.00469 1.00278 1.00025 0.999399 1.00081 1.00074 1.0015 1.00309 1.01161 1.01228 1.01291 1.01117 1.0129 1.00876 1.02096 1.01469 1.01719 1.0176 1.01857 1.00272 0.991824 1.00242 0.95864 0.81327 0.780096 0.988732 0.933073 1.03263 1.01997 1.01083 1.01029 1.00823 1.00913 1.01001 1.01266 1.0114 1.00982 1.01271 0.998786 0.997728 0.87172 0.0 0.0 0.0 0.0 0.0 0.0 0.0 0.0 0.0 0.0 0.0 0.0 0.0 0.0 0.0 0.0 0.0 0.0 0.0 0.0 0.0 0.0 0.0 0.0 0.0 0.0 0.0 0.0 0.0 0.677303 0.706631 0.714655 0.708972 0.713322 0.724359 0.0 0.0 0.0 0.0 0.0 0.748941 0.0 0.0 0.0 0.0 0.0 0.0 0.0 0.696815 0.696111 0.69357 0.695582 0.704882 0.71812 0.0 0.0 0.0 0.0 0.0 0.0 0.0 0.0 0.0 0.0 0.0 0.0 0.0 0.0 0.0 0.0 0.0 0.0 0.0 0.0 0.0 0.0 0.0 0.0 0.0 0.0 0.0 0.0 0.0 0.0 0.0 0.0 0.0 0.0 0.0 0.0 0.0 0.952376 0.992864 0.98359 0.991838 0.978972 0.993979 0.982272 0.985357 0.98575 0.97903 0.985274 0.977926 0.97851 0.974951 0.980176 0.980082 0.979079 0.985356 0.97728 0.977939 0.97245 0.979151 0.971867 0.974422 0.977801 0.974777 0.974898 0.968357 0.972146 0.971004 0.968392 0.966605 0.970775 0.967479 0.969835 0.968731 0.970415
1.01905 1.01584 1.0137 1.00666 1.00496 1.00749 0.998544 1.0004 0.999638 0.996819 0.995676 0.996793 0.997008 0.999498 0.995295 0.995974 1.00301 1.00625 1.00597 1.0074 1.00822 1.01485 1.00331 1.00931 1.00531 1.00097 1.0019 0.990411 0.994217 0.977324 0.829939 0.776363 1.00896 0.92663 1.02379 1.00934 1.00436 1.00977 1.00681 1.0095 1.00979 1.00765 1.00789 1.0078 1.0041 0.994674 0.997514 0.961606 0.0 0.0 0.0 0.0 0.0 0.0 0.0 0.0 0.0 0.0 0.0 0.0 0.0 0.0 0.0 0.0 0.0 0.0 0.0 0.0 0.0 0.0 0.0 0.0 0.0 0.0 0.0 0.0 0.0 0.0 0.712878 0.723944 0.723741 0.0 0.0 0.0 0.734685 0.724072 0.710706 0.706462 0.710123 0.0 0.0 0.0 0.0 0.0 0.0 0.0 0.690285 0.69658 0.696473 0.696354 0.695008 0.708245 0.0 0.0 0.0 0.0 0.0 0.0 0.0 0.0 0.0 0.0 0.0 0.0 0.0 0.0 0.0 0.0 0.0 0.0 0.0 0.0 0.0 0.0 0.0 0.0 0.0 0.0 0.0 0.0 0.0 0.0 0.0 0.0 0.0 0.0 0.0 0.942539 0.990002 0.984037 0.986988 0.980395 0.984188 0.977859 0.98219 0.980861 0.975367 0.980793 0.973488 0.981209 0.976515 0.975923 0.976773 0.97319 0.979842 0.972985 0.977513 0.969739 0.974487 0.969875 0.973379 0.971906 0.964897 0.976098 0.964699 0.969735 0.963777 0.96326 0.964426 0.96211 0.962904 0.959944 0.962646 0.965007 0.967313 0.966166
1.02408 1.01071 1.01111 1.00834 1.00721 0.999195 0.998526 0.998382 0.994466 0.993366 0.991357 0.993334 0.994989 0.991407 0.99125 0.987285 0.98792 0.989974 0.998991 1.00421 1.00181 1.00756 1.00305 0.998784 0.999763 1.00101 0.998694 0.987211 0.988359 0.987415 0.838601 0.788009 1.05612 0.942419 1.0176 1.0079 0.998163 1.00654 0.997334 1.00598 1.01044 1.00263 1.00406 1.00248 1.00207 1.00284 0.993683 0.978794 0.0 0.0 0.0 0.0 0.0 0.0 0.0 0.0 0.0 0.0 0.0 0.0 0.0 0.0 0.0 0.0 0.0 0.0 0.0 0.0 0.0 0.0 0.0 0.0 0.0 0.0 0.0 0.0 0.0 0.0 0.0 0.0 0.0 0.0 0.0 0.0 0.703784 0.70139 0.707508 0.706004 0.706011 0.734925 0.0 0.0 0.0 0.0 0.0 0.0 0.676747 0.695211 0.705142 0.708063 0.721309 0.0 0.0 0.0 0.0 0.0 0.0 0.0 0.0 0.0 0.0 0.0 0.0 0.0 0.0 0.0 0.0 0.0 0.0 0.0 0.0 0.0 0.0 0.0 0.0 0.0 0.0 0.0 0.0 0.0 0.0 0.0 0.912656 0.958936 0.979103 0.98786 0.986726 0.990346 0.989168 0.973674 0.977823 0.972725 0.982165 0.979102 0.973352 0.981505 0.971278 0.975228 0.96911 0.972705 0.975381 0.967437 0.975931 0.967948 0.97138 0.966874 0.970823 0.968018 0.967228 0.971354 0.962069 0.971344 0.962018 0.968012 0.960958 0.963977 0.961769 0.957517 0.964999 0.958958 0.96204 0.958223 0.96007 0.959875 0.967858 0.954255
1.05335 1.0211 1.0153 1.00629 1.00517 1.00171 0.999912 0.998344 0.997299 0.994772 0.990181 0.992447 0.987179 0.988502 0.988343 0.986408 0.988205 0.985901 0.98705 0.983502 0.98984 0.996455 0.992222 0.994104 0.993024 0.997202 0.994886 0.989001 0.984844 0.99128 0.824185 0.796378 1.03895 0.96945 1.00338 0.997833 0.999092 1.00241 0.991714 1.00214 0.99884 0.99969 0.994839 1.00103 0.997025 0.998988 0.994335 0.978551 0.874433 0.0 0.0 0.0 0.0 0.0 0.0 0.0 0.0 0.0 0.0 0.0 0.0 0.0 0.0 0.0 0.0 0.0 0.0 0.0 0.0 0.0 0.0 0.0 0.0 0.0 0.0 0.0 0.760021 0.744356 0.0 0.0 0.0 0.0 0.0 0.0 0.684144 0.704878 0.705821 0.705535 0.719846 0.719841 0.0 0.0 0.0 0.0 0.0 0.0 0.0 0.0 0.0 0.0 0.0 0.0 0.0 0.0 0.0 0.0 0.0 0.0 0.0 0.0 0.0 0.0 0.0 0.0 0.0 0.0 0.0 0.0 0.0 0.0 0.0 0.0 0.0 0.0 0.0 0.0 0.0 0.0 0.904289 0.953779 0.978285 0.981755 0.974419 0.985926 0.972575 0.97984 0.976922 0.968915 0.979675 0.969253 0.977568 0.976036 0.975374 0.974097 0.969537 0.97621 0.967468 0.973782 0.968845 0.967133 0.969813 0.960406 0.96861 0.962102 0.968761 0.965427 0.965576 0.969486 0.95937 0.966412 0.958878 0.963221 0.962305 0.956151 0.965279 0.959642 0.958014 0.957787 0.961535 0.952351 0.959726 0.954485 0.958611 0.952451 0.959591 0.956472
1.1026 1.05521 1.02144 1.01018 1.00282 1.00193 0.998133 0.997425 0.992945 0.995007 0.984384 0.98578 0.98339 0.985287 0.985127 0.981742 0.985566 0.980646 0.981789 0.979405 0.980775 0.97627 0.980211 0.99175 0.993018 0.993965 0.994591 0.990771 0.984556 0.991582 0.824242 0.805615 1.012 0.992593 0.992412 0.994879 0.989596 0.99648 0.991439 0.996502 0.988421 1.0042 0.993971 0.997467 0.991967 0.996024 0.988073 0.97439 0.952861 0.0 0.0 0.0 0.0 0.0 0.0 0.0 0.0 0.0 0.0 0.0 0.0 0.0 0.0 0.0 0.0 0.0 0.0 0.0 0.0 0.0 0.0 0.0 0.0 0.738973 0.725177 0.712274 0.718499 0.729883 0.0 0.0 0.0 0.0 0.0 0.0 0.0 0.70531 0.705949 0.705663 0.710843 0.719966 0.0 0.0 0.0 0.0 0.0 0.0 0.0 0.0 0.0 0.0 0.0 0.0 0.0 0.0 0.0 0.0 0.0 0.0 0.0 0.0 0.0 0.0 0.0 0.0 0.0 0.0 0.0 0.0 0.0 0.0 0.0 0.0 0.0 0.0 0.875408 0.953086 0.97382 0.977983 0.974012 0.970028 0.974425 0.976399 0.965175 0.97459 0.967827 0.97121 0.974863 0.968052 0.973445 0.968091 0.970455 0.967443 0.965601 0.974116 0.963632 0.971787 0.967189 0.964346 0.968561 0.962429 0.966583 0.956005 0.967145 0.962397 0.96056 0.967177 0.957393 0.968017 0.960233 0.960872 0.964087 0.958272 0.962281 0.955837 0.964959 0.952696 0.957115 0.952581 0.955186 0.952592 0.951679 0.954432 0.948027 0.954378 0.951307 0.953291
1.08891 1.08276 1.08021 1.03022 1.01551 1.00155 0.996903 0.995339 0.992866 0.989193 0.983742 0.986291 0.984195 0.980032 0.979288 0.977347 0.979426 0.976826 0.977967 0.974415 0.974614 0.970397 0.974917 0.97678 0.982138 0.988361 0.984277 0.993109 0.982479 1.00514 0.860915 0.900006 0.993334 1.00178 0.992409 0.993393 0.994651 0.990234 0.986382 0.992036 0.988132 0.993155 0.9895 0.993591 0.993777 0.992744 0.987791 0.981011 0.974802 0.0 0.0 0.0 0.0 0.0 0.0 0.0 0.0 0.0 0.0 0.0 0.0 0.0 0.0 0.0 0.0 0.0 0.0 0.0 0.0 0.0 0.0 0.0 0.0 0.708715 0.713442 0.715424 0.712534 0.719052 0.0 0.0 0.0 0.0 0.0 0.0 0.0 0.705731 0.711844 0.706692 0.725558 0.73407 0.0 0.0 0.0 0.0 0.0 0.0 0.0 0.0 0.0 0.0 0.0 0.0 0.0 0.0 0.0 0.0 0.0 0.0 0.0 0.0 0.0 0.0 0.0 0.0 0.0 0.0 0.0 0.0 0.0 0.0 0.0 0.943338 0.968112 0.97688 0.970569 0.979287 0.969338 0.967494 0.971035 0.961953 0.968752 0.973423 0.963401 0.971617 0.969041 0.96167 0.969208 0.963892 0.965414 0.965721 0.960949 0.966262 0.961749 0.966411 0.958897 0.962023 0.964526 0.957257 0.968259 0.955942 0.962159 0.960988 0.957444 0.958569 0.954101 0.958675 0.95299 0.960406 0.960784 0.9495 0.952148 0.950986 0.952108 0.948279 0.948753 0.952644 0.953608 0.955391 0.950538 0.950237 0.947897 0.950937 0.946811 0.945495 0.950936 0.944436
1.11099 1.0905 1.08514 1.08566 1.05061 1.01396 1.00192 0.995232 0.99534 0.988237 0.989684 0.984189 0.984112 0.978799 0.977191 0.977567 0.975879 0.970663 0.976162 0.972612 0.975145 0.969766 0.969313 0.972636 0.972711 0.974519 0.981593 0.989833 0.978027 0.995076 0.870968 0.965641 0.992124 0.997305 0.987346 0.982686 0.985124 0.983676 0.98369 0.986661 0.983053 0.983596 0.985013 0.990894 0.979112 0.986453 0.980301 0.979516 0.967007 0.0 0.0 0.0 0.0 0.0 0.0 0.0 0.0 0.0 0.0 0.0 0.0 0.0 0.0 0.0 0.0 0.0 0.0 0.0 0.0 0.0 0.0 0.0 0.0 0.703656 0.712023 0.711576 0.710509 0.727657 0.0 0.0 0.0 0.0 0.0 0.0 0.0 0.731681 0.0 0.0 0.0 0.0 0.0 0.0 0.0 0.0 0.0 0.0 0.0 0.0 0.0 0.0 0.0 0.0 0.0 0.0 0.0 0.0 0.0 0.0 0.0 0.0 0.0 0.0 0.0 0.0 0.0 0.0 0.0 0.938392 0.96902 0.969427 0.974943 0.970186 0.967827 0.970569 0.96637 0.966367 0.970251 0.966603 0.974644 0.965561 0.965162 0.967737 0.962209 0.962947 0.965456 0.958686 0.96652 0.963591 0.964814 0.964226 0.954404 0.9615 0.958178 0.960469 0.959474 0.958752 0.958302 0.954876 0.955852 0.955622 0.95566 0.954495 0.950664 0.955603 0.948503 0.955418 0.953238 0.946661 0.950547 0.942475 0.94745 0.946003 0.944525 0.947348 0.945801 0.946237 0.942322 0.943546 0.942148 0.940429 0.944381 0.941725 0.946142 0.938582 0.942614 0.940084
1.26599 1.12897 1.09145 1.08519 1.08424 1.07243 1.03001 1.00481 0.992352 0.987831 0.986123 0.987244 0.982567 0.978701 0.97594 0.973713 0.970573 0.967389 0.969685 0.968169 0.968366 0.969698 0.969541 0.966133 0.965616 0.967124 0.966843 0.963296 0.967372 0.98706 0.862988 0.99368 0.996517 0.991929 0.986418 0.983837 0.984199 0.984536 0.982172 0.0 0.978258 0.979991 0.981108 0.982204 0.979393 0.983441 0.979986 0.980701 0.963999 0.94005 0.0 0.0 0.0 0.0 0.0 0.0 0.0 0.0 0.0 0.0 0.0 0.0 0.0 0.0 0.0 0.0 0.0 0.0 0.0 0.0 0.0 0.0 0.0 0.0 0.710291 0.715308 0.711813 0.719238 0.729691 0.0 0.0 0.0 0.0 0.0 0.0 0.0 0.0 0.0 0.0 0.0 0.0 0.0 0.0 0.0 0.0 0.0 0.0 0.0 0.0 0.0 0.0 0.0 0.0 0.0 0.0 0.0 0.0 0.0 0.0 0.0 0.0 0.0 0.85697 0.933751 0.965705 0.974041 0.964228 0.97675 0.971436 0.955855 0.968309 0.959338 0.963609 0.964246 0.96005 0.96516 0.96724 0.95759 0.965934 0.963753 0.95916 0.962336 0.95741 0.96114 0.960362 0.961057 0.959941 0.955229 0.957647 0.957064 0.952895 0.955239 0.954591 0.953031 0.956481 0.951622 0.956787 0.949527 0.954632 0.953812 0.948264 0.954152 0.943282 0.949104 0.948155 0.946594 0.94559 0.942519 0.946987 0.938339 0.945635 0.943318 0.934902 0.941489 0.940812 0.936936 0.937918 0.935416 0.934602 0.933178 0.938278 0.93193 0.934938 0.933636 0.937671 0.93543
1.66801 1.36686 1.15569 1.09177 1.07182 1.07138 1.08113 1.03749 1.00679 0.994565 0.988856 0.981073 0.977544 0.973099 0.972068 0.975628 0.973366 0.971932 0.966099 0.966329 0.966526 0.964648 0.963903 0.966053 0.963781 0.960594 0.956196 0.962935 0.953761 0.958984 0.865032 0.997453 0.999408 0.991275 0.983692 0.983189 0.983552 0.979433 0.981827 0.980629 0.979705 0.975774 0.97659 0.981568 0.97846 0.0 0.973964 0.978871 0.966673 0.96224 0.0 0.0 0.0 0.0 0.0 0.0 0.0 0.0 0.0 0.0 0.0 0.0 0.0 0.0 0.0 0.0 0.0 0.0 0.0 0.0 0.0 0.0 0.0 0.0 0.714009 0.717508 0.729192 0.744512 0.0 0.0 0.0 0.0 0.0 0.0 0.0 0.0 0.0 0.0 0.0 0.0 0.0 0.0 0.0 0.0 0.0 0.0 0.0 0.0 0.0 0.0 0.0 0.0 0.0 0.0 0.0 0.0 0.0 0.0 0.0 0.935786 0.971175 0.966576 0.969828 0.968827 0.961765 0.967683 0.957573 0.963151 0.96237 0.959763 0.970703 0.959926 0.964495 0.966634 0.956424 0.960331 0.96031 0.958469 0.963509 0.96103 0.958235 0.958716 0.954691 0.959316 0.955553 0.955056 0.957818 0.953704 0.952252 0.956429 0.951665 0.954008 0.950395 0.948246 0.951992 0.945955 0.948761 0.947112 0.945735 0.948748 0.942323 0.950854 0.941749 0.947568 0.942524 0.942428 0.94376 0.934282 0.942246 0.938541 0.939451 0.942352 0.933648 0.939364 0.937823 0.933661 0.936941 0.930425 0.932476 0.92791 0.931873 0.935777 0.927696 0.930939 0.928467 0.92878
1.72768 1.69389 1.49821 1.21329 1.10139 1.072 1.06638 1.06839 1.06065 1.02218 0.995581 0.986955 0.976821 0.978436 0.974531 0.975494 0.969471 0.967166 0.963657 0.967669 0.961462 0.957539 0.962632 0.958638 0.957826 0.959036 0.955521 0.95638 0.945439 0.967156 0.863516 1.00386 0.977739 0.984387 0.98332 0.980447 0.983184 0.98085 0.980274 0.973422 0.97726 0.976312 0.976831 0.977629 0.975716 0.97707 0.969724 0.0 0.968428 0.960999 0.0 0.0 0.0 0.0 0.0 0.0 0.0 0.0 0.0 0.0 0.0 0.0 0.0 0.0 0.0 0.0 0.0 0.0 0.0 0.0 0.0 0.0 0.0 0.0 0.0 0.0 0.0 0.0 0.0 0.0 0.0 0.0 0.0 0.0 0.0 0.0 0.0 0.0 0.0 0.0 0.0 0.0 0.0 0.0 0.0 0.0 0.0 0.0 0.0 0.0 0.0 0.0 0.0 0.0 0.0 0.92725 0.956072 0.969715 0.958803 0.967863 0.965399 0.957172 0.962846 0.956104 0.961739 0.964332 0.962981 0.962518 0.962341 0.954006 0.957714 0.958087 0.959646 0.961184 0.952783 0.959994 0.95727 0.95663 0.956572 0.955295 0.956096 0.958073 0.951058 0.953592 0.955206 0.94934 0.951508 0.946505 0.948033 0.951912 0.945965 0.949497 0.949443 0.947885 0.947488 0.944114 0.946918 0.946743 0.941537 0.945139 0.939011 0.942553 0.940197 0.943671 0.940385 0.936202 0.942202 0.934182 0.936617 0.937561 0.935571 0.937025 0.93324 0.932027 0.930782 0.928929 0.93135 0.925702 0.93176 0.928049 0.926305 0.924525 0.922709 0.925955 0.923488 0.92832
1.70793 1.69639 1.69883 1.58516 1.31013 1.12659 1.08151 1.0616 1.05927 1.08009 1.02895 1.00401 0.989888 0.977694 0.973506 0.969556 0.969322 0.967892 0.960033 0.961716 0.962497 0.956249 0.960173 0.957351 0.956834 0.95482 0.951599 0.95128 0.939164 0.966464 0.863753 0.996074 0.964933 0.964172 0.960422 0.976205 0.976862 0.980466 0.977811 0.9784 0.974203 0.969379 0.974966 0.969793 0.971164 0.968628 0.0 0.0 0.96507 0.961542 0.926183 0.0 0.0 0.0 0.0 0.0 0.0 0.0 0.0 0.0 0.0 0.0 0.0 0.0 0.0 0.0 0.0 0.0 0.0 0.0 0.0 0.0 0.0 0.0 0.0 0.0 0.0 0.0 0.0 0.0 0.0 0.0 0.0 0.0 0.0 0.0 0.0 0.0 0.0 0.0 0.0 0.0 0.0 0.0 0.0 0.0 0.0 0.0 0.0 0.0 0.0 0.93633 0.957652 0.961062 0.961726 0.955707 0.961187 0.959682 0.955739 0.954809 0.96082 0.958343 0.963711 0.956064 0.961999 0.96308 0.956599 0.955535 0.957169 0.951852 0.959173 0.956835 0.960799 0.956021 0.952432 0.956336 0.954815 0.954475 0.953518 0.952841 0.952146 0.956515 0.948905 0.949945 0.952156 0.947783 0.949056 0.946138 0.948555 0.950352 0.941141 0.947342 0.943141 0.941884 0.945629 0.939598 0.942993 0.942524 0.937911 0.940337 0.938912 0.93981 0.938041 0.937418 0.936183 0.928795 0.936254 0.930279 0.934458 0.931339 0.929065 0.93602 0.92617 0.927559 0.926029 0.928491 0.927177 0.920388 0.924446 0.925311 0.920434 0.920367 0.918554 0.920951 0.91849 0.918248
1.70727 1.69575 1.6982 1.6969 1.66008 1.44666 1.17742 1.08642 1.06987 1.06152 1.06397 1.04343 1.01183 0.989606 0.977941 0.974583 0.970309 0.971495 0.96365 0.959236 0.960018 0.960186 0.960907 0.955167 0.95553 0.951174 0.953821 0.950571 0.935816 0.977825 0.862793 0.99329 0.95714 0.948981 0.956765 0.957429 0.958366 0.970563 0.972656 0.971756 0.974404 0.971074 0.970401 0.964035 0.966895 0.962566 0.970771 0.963703 0.966789 0.961167 0.952218 0.0 0.0 0.0 0.0 0.0 0.0 0.0 0.0 0.0 0.0 0.0 0.0 0.0 0.0 0.0 0.0 0.0 0.0 0.0 0.0 0.0 0.0 0.0 0.0 0.0 0.0 0.0 0.0 0.0 0.0 0.0 0.0 0.0 0.0 0.0 0.0 0.0 0.0 0.0 0.0 0.0 0.0 0.0 0.0 0.0 0.0 0.930894 0.958052 0.961527 0.955888 0.958117 0.956995 0.956464 0.956523 0.952627 0.961133 0.957812 0.956594 0.961108 0.956833 0.956776 0.961235 0.955706 0.960429 0.0 0.0 0.957887 0.950176 0.954201 0.952786 0.946841 0.952612 0.948741 0.952065 0.951463 0.949344 0.950806 0.948651 0.947378 0.947583 0.950756 0.94345 0.949864 0.945511 0.939952 0.94629 0.943374 0.941927 0.947289 0.938973 0.93954 0.939491 0.940897 0.938138 0.93241 0.935514 0.937702 0.931622 0.939045 0.938794 0.93617 0.935574 0.928519 0.93284 0.928955 0.930874 0.929849 0.927634 0.931481 0.927467 0.927478 0.923125 0.92682 0.925863 0.921999 0.92614 0.919065 0.924832 0.921412 0.916255 0.920736 0.916649 0.91593 0.912061 0.916618
1.70572 1.68605 1.68906 1.69425 1.68126 1.68402 1.54935 1.26336 1.10327 1.06896 1.04623 1.04719 1.06823 1.032 0.997923 0.984493 0.975613 0.971885 0.9655 0.960805 0.959556 0.957687 0.951989 0.955887 0.950695 0.950148 0.948397 0.944558 0.935097 0.97297 0.880968 0.990488 0.954945 0.94679 0.945695 0.949015 0.95054 0.951451 0.954716 0.972828 0.968039 0.97126 0.969695 0.966018 0.968582 0.961569 0.965587 0.960614 0.961602 0.960774 0.95093 0.872652 0.0 0.0 0.0 0.0 0.0 0.0 0.0 0.0 0.0 0.0 0.0 0.0 0.0 0.0 0.0 0.0 0.0 0.0 0.0 0.0 0.0 0.0 0.0 0.0 0.0 0.0 0.0 0.0 0.0 0.0 0.0 0.0 0.0 0.0 0.0 0.0 0.0 0.0 0.0 0.0 0.896131 0.948559 0.951509 0.950801 0.957662 0.95025 0.95738 0.953881 0.0 0.960778 0.95299 0.9567 0.957061 0.9568 0.962577 0.954413 0.956222 0.959826 0.950414 0.959726 0.955723 0.0 0.957939 0.953891 0.953146 0.957206 0.0 0.951111 0.953007 0.94977 0.94772 0.950161 0.944174 0.951378 0.94476 0.94862 0.947364 0.0 0.945098 0.942892 0.939176 0.941412 0.94422 0.935088 0.94083 0.936133 0.939147 0.938274 0.935305 0.936466 0.935529 0.935161 0.939791 0.9317 0.936863 0.933747 0.928259 0.931568 0.930149 0.930756 0.934553 0.929544 0.92948 0.9221 0.927225 0.926492 0.922537 0.924647 0.923534 0.924413 0.920928 0.917418 0.925386 0.91377 0.920783 0.916004 0.9152 0.91835 0.912342 0.917674 0.909337 0.915132 0.912955 0.915529
1.69093 1.67463 1.66945 1.68874 1.67915 1.68079 1.6778 1.63429 1.39253 1.1384 1.07715 1.04691 1.03691 1.05016 1.05562 1.00707 0.988118 0.970805 0.964716 0.964965 0.958491 0.959539 0.958809 0.951036 0.954033 0.948223 0.947354 0.944106 0.93524 0.996927 0.890273 0.989142 0.950076 0.941036 0.943192 0.94059 0.945072 0.946573 0.946866 0.953377 0.948576 0.96458 0.962715 0.963806 0.971443 0.959958 0.964572 0.95721 0.961789 0.957369 0.951125 0.932858 0.0 0.0 0.0 0.0 0.0 0.0 0.0 0.0 0.0 0.0 0.0 0.0 0.0 0.0 0.0 0.0 0.0 0.0 0.0 0.0 0.0 0.0 0.0 0.0 0.0 0.0 0.0 0.0 0.0 0.0 0.0 0.0 0.0 0.0 0.0 0.0 0.911963 0.945933 0.960169 0.948907 0.953101 0.952425 0.948094 0.952239 0.957277 0.956841 0.953661 0.953497 0.0 0.958271 0.947153 0.0 0.952133 0.0 0.960371 0.0 0.950692 0.956715 0.945191 0.953594 0.953218 0.94528 0.955735 0.947165 0.947929 0.955003 0.946694 0.946803 0.950203 0.0 0.0 0.944656 0.938673 0.942277 0.0 0.945818 0.941271 0.0 0.940207 0.942782 0.934589 0.940702 0.938144 0.936759 0.936843 0.933042 0.935163 0.937259 0.933697 0.934263 0.933622 0.927639 0.932567 0.930087 0.933479 0.928599 0.926937 0.930829 0.925597 0.924742 0.929125 0.920616 0.923186 0.921349 0.920068 0.922827 0.917134 0.920694 0.917559 0.916709 0.921306 0.913475 0.914829 0.913274 0.91455 0.914925 0.912691 0.912134 0.911822 0.914024 0.908525 0.908658 0.909028 0.902593
1.67892 1.67977 1.66785 1.67444 1.67049 1.67921 1.66601 1.67915 1.65406 1.52567 1.2468 1.09161 1.04839 1.03347 1.03401 1.05586 1.02862 0.988806 0.972897 0.963002 0.965546 0.956128 0.953357 0.951132 0.951793 0.948329 0.949515 0.943342 0.935658 1.00055 0.891309 0.988367 0.949911 0.938812 0.935646 0.939256 0.938406 0.940495 0.940192 0.947587 0.948137 0.944201 0.9453 0.963366 0.963545 0.964001 0.959955 0.954389 0.95747 0.950356 0.954897 0.936342 0.0 0.0 0.0 0.0 0.0 0.0 0.0 0.0 0.0 0.0 0.0 0.0 0.0 0.0 0.0 0.0 0.0 0.0 0.0 0.0 0.0 0.0 0.0 0.0 0.0 0.0 0.0 0.0 0.0 0.0 0.0 0.0 0.925099 0.941831 0.949452 0.951903 0.94797 0.947358 0.952794 0.0 0.953915 0.951724 0.0 0.956691 0.0 0.952501 0.95114 0.0 0.955339 0.95272 0.951902 0.951673 0.948403 0.949353 0.956033 0.94818 0.949987 0.949057 0.947205 0.95349 0.948586 0.0 0.952007 0.0 0.949328 0.947965 0.94508 0.945188 0.944978 0.93874 0.943304 0.939139 0.945159 0.943059 0.940044 0.940906 0.938158 0.934496 0.939783 0.938475 0.933866 0.937591 0.932055 0.933352 0.933437 0.929043 0.934133 0.929702 0.932367 0.934412 0.926376 0.925717 0.931526 0.925803 0.924779 0.92373 0.921777 0.925377 0.918978 0.919884 0.926021 0.914889 0.922417 0.920869 0.916677 0.918274 0.914325 0.915277 0.918218 0.911878 0.913882 0.907499 0.914028 0.913616 0.905438 0.910967 0.907024 0.906187 0.904459 0.902412 0.907974 0.901321 0.905081 0.896963
1.67585 1.66097 1.66002 1.66321 1.67029 1.67023 1.66441 1.66931 1.67614 1.65836 1.60842 1.3935 1.13933 1.06363 1.03946 1.02931 1.03584 1.03743 0.996401 0.972045 0.965307 0.957063 0.956922 0.952665 0.950995 0.950168 0.945503 0.945196 0.923726 0.997394 0.890854 0.986394 0.949138 0.936571 0.941976 0.934946 0.935575 0.937368 0.93914 0.937628 0.943222 0.944343 0.942467 0.943248 0.944008 0.963546 0.958609 0.959918 0.953435 0.956199 0.954455 0.939207 0.878349 0.0 0.0 0.0 0.0 0.0 0.0 0.0 0.0 0.0 0.0 0.0 0.0 0.0 0.0 0.0 0.0 0.0 0.0 0.0 0.0 0.0 0.0 0.0 0.0 0.0 0.0 0.0 0.931592 0.940193 0.946054 0.940384 0.950457 0.946876 0.950554 0.955126 0.947255 0.954826 0.954198 0.0 0.0 0.0 0.0 0.953547 0.956156 0.953297 0.950422 0.0 0.0 0.946551 0.0 0.0 0.0 0.945609 0.947449 0.947157 0.947754 0.947731 0.940747 0.0 0.948767 0.943851 0.947663 0.0 0.946192 0.944528 0.0 0.939649 0.93944 0.938614 0.938971 0.0 0.936629 0.941126 0.931824 0.935083 0.93802 0.93137 0.935759 0.932661 0.933126 0.933272 0.926252 0.930823 0.92942 0.925921 0.931008 0.927172 0.928651 0.927146 0.923255 0.919644 0.926339 0.91797 0.92313 0.922375 0.920421 0.921377 0.917325 0.917643 0.91881 0.910898 0.915509 0.917459 0.912688 0.911093 0.90947 0.912449 0.912498 0.909339 0.909612 0.90726 0.905742 0.904765 0.901751 0.906992 0.901626 0.901078 0.903898 0.900713 0.899194 0.89905 0.89717 0.896096
1.66602 1.65507 1.64568 1.66126 1.65563 1.65923 1.6571 1.6546 1.65486 1.64934 1.65973 1.64575 1.52267 1.23765 1.07366 1.04051 1.03147 1.02295 1.02912 1.00686 0.97521 0.966408 0.96279 0.952717 0.953972 0.947892 0.943817 0.939996 0.928803 1.01595 0.916845 0.981457 0.945398 0.936377 0.933219 0.934464 0.936871 0.935705 0.936589 0.934781 0.93176 0.936142 0.938726 0.938612 0.0 0.944286 0.939637 0.951985 0.949685 0.953344 0.950404 0.944446 0.931868 0.0 0.0 0.0 0.0 0.0 0.0 0.0 0.0 0.0 0.0 0.0 0.0 0.0 0.0 0.0 0.0 0.0 0.0 0.0 0.0 0.0 0.0 0.913707 0.941739 0.937684 0.93785 0.944358 0.943282 0.0 0.945019 0.94541 0.958205 0.950992 0.0 0.954694 0.0 0.0 0.954069 0.0 0.951251 0.0 0.951096 0.95372 0.0 0.0 0.0 0.945285 0.950553 0.0 0.946211 0.952636 0.942413 0.94306 0.943087 0.942795 0.946413 0.941257 0.944538 0.940258 0.935964 0.943111 0.942402 0.937761 0.937923 0.937467 0.932181 0.937403 0.0 0.933666 0.938825 0.933163 0.93828 0.938279 0.931675 0.934332 0.933978 0.92793 0.92963 0.928624 0.9276 0.931321 0.924304 0.929763 0.927766 0.924267 0.927275 0.922553 0.921665 0.926668 0.9213 0.921231 0.921137 0.915719 0.919993 0.916007 0.912296 0.917362 0.910092 0.916555 0.915966 0.909516 0.912957 0.911123 0.907812 0.910859 0.905468 0.90729 0.905319 0.904474 0.907052 0.903551 0.900886 0.905067 0.898331 0.902141 0.90134 0.899079 0.898773 0.896442 0.895209 0.893654 0.892906 0.892676
1.66651 1.63791 1.6465 1.64856 1.65223 1.64453 1.64635 1.64697 1.64637 1.64798 1.64667 1.64213 1.64439 1.5995 1.37207 1.1139 1.04729 1.03648 1.0285 1.01988 1.0231 0.988798 0.971832 0.95741 0.953423 0.949396 0.942989 0.944445 0.932682 1.01598 0.919865 0.981213 0.940465 0.939408 0.933306 0.93219 0.933414 0.934321 0.931651 0.932808 0.929789 0.9312 0.932591 0.933665 0.934125 0.938141 0.936774 0.935981 0.0 0.937321 0.943348 0.944574 0.938294 0.0 0.0 0.0 0.0 0.0 0.0 0.0 0.0 0.0 0.0 0.0 0.0 0.0 0.0 0.0 0.0 0.0 0.898789 0.934703 0.937986 0.945486 0.938462 0.939281 0.946133 0.0 0.943761 0.0 0.0 0.954459 0.0 0.949506 0.0 0.0 0.0 0.0 0.0 0.0 0.0 0.949646 0.0 0.947403 0.0 0.0 0.943165 0.948178 0.0 0.0 0.0 0.0 0.0 0.0 0.94257 0.942612 0.0 0.0 0.944753 0.93628 0.940767 0.940409 0.0 0.937836 0.0 0.0 0.0 0.936108 0.0 0.938146 0.930429 0.933807 0.933263 0.928805 0.937814 0.934219 0.927619 0.932966 0.92813 0.0 0.932142 0.925766 0.92504 0.930544 0.924421 0.923041 0.922235 0.921706 0.92649 0.922064 0.0 0.921148 0.918738 0.919847 0.918573 0.913745 0.916546 0.911387 0.912666 0.91333 0.906651 0.911064 0.911353 0.905783 0.90864 0.90739 0.902919 0.910026 0.90608 0.901247 0.905342 0.898153 0.904185 0.901259 0.8963 0.894755 0.892036 0.895277 0.893343 0.891092 0.897317 0.892719 0.894877 0.889933 0.893687 0.891763
1.65044 1.63895 1.6349 1.63526 1.633 1.63291 1.63727 1.64924 1.64639 1.63974 1.64699 1.63704 1.64588 1.64207 1.63789 1.49287 1.20865 1.06297 1.0348 1.02417 1.02015 1.03757 1.01021 0.977219 0.964226 0.9573 0.94945 0.943892 0.932139 1.05588 0.935786 0.979772 0.939343 0.932101 0.931899 0.933148 0.929646 0.92641 0.929363 0.927557 0.926615 0.926243 0.928227 0.928407 0.928865 0.931388 0.932702 0.934892 0.937663 0.0 0.0 0.0 0.927631 0.896161 0.0 0.0 0.0 0.0 0.0 0.0 0.0 0.0 0.0 0.0 0.0 0.0 0.931185 0.934542 0.939092 0.935179 0.939398 0.0 0.939336 0.945625 0.941324 0.945469 0.0 0.0 0.0 0.0 0.0 0.0 0.0 0.0 0.0 0.0 0.0 0.0 0.0 0.0 0.943772 0.0 0.0 0.946335 0.0 0.0 0.0 0.0 0.942423 0.0 0.0 0.940069 0.938347 0.938422 0.0 0.0 0.0 0.938257 0.0 0.0 0.9406 0.935721 0.935047 0.937668 0.932144 0.932022 0.0 0.928421 0.921941 0.0 0.923653 0.92913 0.928888 0.921137 0.93254 0.925059 0.924745 0.924412 0.0 0.92936 0.0 0.922296 0.921571 0.920826 0.0 0.917494 0.916988 0.920611 0.916505 0.915047 0.915343 0.91975 0.907897 0.917266 0.914225 0.912931 0.916021 0.908514 0.908326 0.912503 0.904655 0.907604 0.909059 0.90116 0.905471 0.90393 0.900623 0.902508 0.895678 0.89779 0.896114 0.890665 0.8944 0.893782 0.891984 0.893302 0.891722 0.894385 0.892732 0.889056 0.889605 0.889543 0.891134 0.88901 0.887413 0.888021
1.63491 1.62761 1.62749 1.63264 1.63687 1.63228 1.63694 1.64012 1.63442 1.63888 1.62902 1.63248 1.63245 1.62978 1.63105 1.63542 1.59797 1.367 1.10955 1.0403 1.02442 1.02124 1.02149 1.029 0.995393 0.967799 0.951791 0.947122 0.933627 1.05554 0.965171 0.979487 0.938203 0.931262 0.928409 0.928477 0.93118 0.930021 0.924692 0.927033 0.927576 0.92157 0.92771 0.926406 0.924187 0.925814 0.926828 0.0 0.9285 0.0 0.0 0.0 0.923544 0.906162 0.0 0.0 0.0 0.0 0.0 0.0 0.0 0.924534 0.937893 0.943722 0.93298 0.940284 0.930102 0.0 0.0 0.0 0.947364 0.0 0.0 0.0 0.0 0.0 0.0 0.0 0.0 0.0 0.0 0.0 0.0 0.0 0.0 0.0 0.0 0.0 0.0 0.0 0.0 0.0 0.0 0.0 0.0 0.0 0.0 0.0 0.0 0.0 0.0 0.0 0.0 0.0 0.0 0.0 0.937767 0.936569 0.0 0.0 0.0 0.0 0.0 0.931764 0.0 0.0 0.933501 0.924931 0.924159 0.928173 0.920166 0.928638 0.0 0.926635 0.926954 0.924861 0.923948 0.920926 0.917292 0.0 0.922498 0.914941 0.92017 0.917639 0.917469 0.9152 0.0 0.916239 0.916281 0.913637 0.915704 0.905936 0.910024 0.914669 0.90898 0.907395 0.911366 0.904157 0.905728 0.907268 0.902641 0.904127 0.905581 0.898851 0.902866 0.896389 0.897438 0.90019 0.895096 0.894316 0.89581 0.892374 0.890064 0.894323 0.886505 0.891827 0.888817 0.887489 0.89096 0.884445 0.88811 0.882955 0.884832 0.883278 0.881405 0.885941
1.63361 1.62045 1.6164 1.63025 1.62632 1.61749 1.62072 1.62218 1.62101 1.62744 1.62927 1.63332 1.63273 1.63036 1.62303 1.62337 1.62222 1.61638 1.49379 1.22645 1.05792 1.0255 1.01821 1.01902 1.02009 1.02171 0.984766 0.958804 0.936849 1.05342 0.998021 0.978593 0.937043 0.931287 0.931681 0.929691 0.924131 0.925333 0.922964 0.924121 0.925258 0.923112 0.924502 0.922606 0.923064 0.916955 0.920644 0.0 0.920522 0.923863 0.0 0.922134 0.0 0.906559 0.0 0.0 0.0 0.931465 0.943365 0.940849 0.93711 0.937558 0.930773 0.9375 0.931577 0.938878 0.933218 0.0 0.0 0.0 0.0 0.0 0.0 0.0 0.0 0.0 0.0 0.0 0.0 0.0 0.0 0.0 0.0 0.0 0.0 0.0 0.0 0.0 0.0 0.0 0.0 0.0 0.0 0.0 0.941042 0.0 0.937802 0.0 0.937522 0.0 0.0 0.937284 0.0 0.0 0.0 0.0 0.931539 0.0 0.0 0.0 0.931783 0.0 0.931052 0.0 0.930556 0.0 0.0 0.922027 0.926658 0.0 0.92296 0.927829 0.918001 0.91924 0.924646 0.918369 0.91716 0.92041 0.0 0.914619 0.920486 0.915611 0.0 0.911467 0.910705 0.916153 0.907936 0.915703 0.913079 0.90955 0.908368 0.90805 0.906825 0.908522 0.904898 0.897144 0.905815 0.900079 0.903406 0.903481 0.897981 0.898592 0.898881 0.893905 0.897629 0.892319 0.892208 0.896406 0.889005 0.891978 0.894909 0.886294 0.891453 0.886242 0.88559 0.884618 0.883042 0.878017 0.878086 0.881234 0.880649 0.879178 0.876823 0.878373 0.872853 0.879077
1.62137 1.61045 1.61257 1.61012 1.61687 1.61538 1.61861 1.62065 1.61949 1.6248 1.61524 1.61727 1.61639 1.61772 1.62071 1.61274 1.61589 1.62101 1.61974 1.59759 1.3921 1.11872 1.03581 1.01834 1.00602 1.00151 1.02264 1.00317 0.973391 1.10692 1.01468 0.978853 0.932632 0.930409 0.927861 0.92882 0.927987 0.92447 0.919445 0.922377 0.919961 0.920483 0.920983 0.918791 0.918357 0.918794 0.923377 0.918417 0.918495 0.917958 0.918595 0.919213 0.919813 0.912619 0.91677 0.913421 0.916941 0.915651 0.918241 0.934619 0.932082 0.936133 0.92785 0.936978 0.930458 0.932942 0.9321 0.0 0.929159 0.940317 0.0 0.0 0.0 0.0 0.945567 0.0 0.0 0.0 0.0 0.0 0.0 0.0 0.0 0.0 0.0 0.932874 0.0 0.0 0.0 0.0 0.941987 0.0 0.0 0.0 0.0 0.0 0.0 0.0 0.932482 0.927186 0.0 0.0 0.0 0.0 0.0 0.929193 0.936152 0.932544 0.0 0.93191 0.0 0.0 0.927227 0.0 0.923125 0.0 0.923166 0.920909 0.923736 0.0 0.0 0.916223 0.918376 0.918715 0.0 0.0 0.913048 0.915999 0.911473 0.913787 0.909528 0.912394 0.914642 0.911222 0.0 0.915011 0.905315 0.911005 0.908975 0.903381 0.907513 0.906898 0.900075 0.90707 0.898156 0.900392 0.903478 0.898915 0.897263 0.897925 0.891263 0.895666 0.894499 0.889817 0.896152 0.892581 0.891017 0.891449 0.884921 0.884721 0.888518 0.887384 0.883924 0.886169 0.884939 0.880537 0.880101 0.882189 0.879971 0.877154 0.874873 0.877639 0.872182 0.873732 0.869339 0.874157
1.61469 1.60965 1.60814 1.60458 1.60682 1.61181 1.60375 1.61058 1.60574 1.61302 1.60972 1.6109 1.61288 1.60935 1.60948 1.61126 1.60637 1.61581 1.618 1.61118 1.61413 1.52896 1.25032 1.05888 1.01958 1.00724 0.99774 0.990233 1.04786 1.11906 1.0143 0.98877 0.939952 0.926866 0.929911 0.926163 0.923857 0.928016 0.925365 0.919137 0.920867 0.919615 0.917745 0.916148 0.916606 0.917045 0.917463 0.917563 0.911687 0.0 0.0 0.914785 0.914787 0.91746 0.0 0.916775 0.0 0.921108 0.0 0.0 0.926441 0.926887 0.929717 0.933435 0.931127 0.930002 0.923746 0.0 0.928329 0.929243 0.932249 0.931927 0.936109 0.0 0.937193 0.0 0.0 0.0 0.0 0.935096 0.0 0.0 0.0 0.0 0.0 0.0 0.0 0.0 0.0 0.0 0.0 0.0 0.0 0.0 0.0 0.0 0.0 0.0 0.0 0.0 0.0 0.927798 0.0 0.0 0.0 0.0 0.932608 0.924485 0.0 0.0 0.0 0.0 0.0 0.0 0.0 0.0 0.0 0.0 0.9211 0.0 0.920101 0.0 0.0 0.917873 0.0 0.912816 0.915188 0.911276 0.910627 0.90996 0.908381 0.908568 0.907547 0.0 0.909303 0.904961 0.907119 0.904223 0.90131 0.902808 0.905166 0.901308 0.897435 0.899132 0.900801 0.895987 0.898192 0.891292 0.899293 0.892064 0.890949 0.891558 0.890974 0.889781 0.888852 0.883839 0.886622 0.8885 0.882262 0.882924 0.884989 0.8784 0.87925 0.877773 0.87598 0.87872 0.872016 0.868709 0.874453 0.873056 0.874732 0.872694 0.870057 0.872444 0.866927 0.869779
1.60406 1.59399 1.59835 1.59675 1.60405 1.60286 1.5996 1.5988 1.59366 1.60263 1.60417 1.60564 1.60162 1.60439 1.60509 1.61204 1.60228 1.61517 1.60152 1.60394 1.59734 1.60774 1.59146 1.42239 1.14703 1.02951 1.01103 1.00296 0.998648 1.1104 1.05226 1.001 0.947535 0.932413 0.930762 0.926432 0.926195 0.927113 0.9224 0.923565 0.915836 0.91932 0.917455 0.0 0.91662 0.916467 0.913914 0.917288 0.912608 0.912072 0.912411 0.910642 0.0 0.910925 0.0 0.0 0.915849 0.0 0.921048 0.0 0.0 0.0 0.927363 0.924472 0.925167 0.923141 0.926508 0.928056 0.921164 0.934114 0.920564 0.925358 0.92532 0.928278 0.92881 0.929025 0.0 0.0 0.0 0.0 0.0 0.0 0.0 0.0 0.0 0.0 0.0 0.0 0.0 0.0 0.0 0.0 0.0 0.0 0.0 0.0 0.0 0.0 0.0 0.0 0.0 0.0 0.0 0.0 0.0 0.0 0.923932 0.0 0.0 0.927521 0.0 0.0 0.0 0.0 0.922644 0.912919 0.0 0.919223 0.0 0.913466 0.917749 0.0 0.9107 0.913727 0.912851 0.0 0.912237 0.0 0.909763 0.909094 0.90246 0.90562 0.906973 0.901185 0.904277 0.899939 0.901801 0.90275 0.89777 0.891301 0.898675 0.897767 0.896837 0.897941 0.895497 0.895965 0.895236 0.890094 0.89312 0.89115 0.885369 0.889472 0.888595 0.881594 0.88415 0.884932 0.877587 0.884666 0.879009 0.879957 0.881443 0.87371 0.878571 0.873371 0.870722 0.874031 0.871601 0.869709 0.87062 0.866394 0.865815 0.864068 0.864817 0.867764 0.865614 0.867338
1.59786 1.58837 1.58601 1.59421 1.59001 1.59274 1.59597 1.58952 1.59204 1.5925 1.60171 1.59806 1.59291 1.59339 1.60066 1.59615 1.59644 1.59897 1.6 1.59954 1.59382 1.59468 1.59722 1.59856 1.5496 1.31085 1.06416 1.01215 1.0134 1.08681 1.07873 1.02783 0.993795 0.94762 0.93541 0.92874 0.92527 0.92118 0.924434 0.917926 0.915816 0.916935 0.914185 0.917039 0.916614 0.914089 0.912431 0.0 0.912616 0.910595 0.912722 0.91066 0.0 0.909156 0.90703 0.907275 0.909894 0.0 0.916584 0.0 0.0 0.0 0.917794 0.915202 0.924601 0.918372 0.922638 0.918774 0.922409 0.927833 0.920007 0.0 0.0 0.924406 0.924637 0.922743 0.0 0.0 0.0 0.0 0.0 0.0 0.0 0.0 0.0 0.0 0.0 0.0 0.0 0.0 0.0 0.0 0.0 0.0 0.0 0.0 0.0 0.0 0.0 0.0 0.0 0.0 0.0 0.0 0.0 0.0 0.0 0.0 0.0 0.0 0.0 0.0 0.0 0.0 0.0 0.913856 0.914016 0.0 0.0 0.0 0.912988 0.0 0.0 0.0 0.0 0.0 0.907782 0.0 0.9065 0.906426 0.900984 0.90414 0.899854 0.899704 0.903088 0.899343 0.897357 0.897715 0.89569 0.89571 0.897769 0.889796 0.893868 0.893209 0.887247 0.894165 0.892555 0.885662 0.889853 0.888467 0.881232 0.888532 0.882421 0.88094 0.884069 0.877901 0.880965 0.879662 0.874586 0.874383 0.87788 0.872158 0.871858 0.870095 0.868873 0.872744 0.870879 0.866428 0.866769 0.863959 0.863093 0.861908 0.859561 0.859983 0.861478 0.860129
1.59413 1.57824 1.58315 1.58492 1.58043 1.58091 1.5892 1.59321 1.58783 1.58405 1.58842 1.58733 1.58987 1.58693 1.59106 1.58683 1.59056 1.58304 1.58809 1.59425 1.59085 1.58159 1.58905 1.5872 1.59254 1.58971 1.47131 1.17047 1.04095 1.08573 1.08555 1.02972 0.980772 1.00738 0.977035 0.947192 0.929917 0.925249 0.92674 0.919062 0.918436 0.918673 0.915633 0.913752 0.911253 0.911695 0.0 0.913114 0.0 0.911183 0.0 0.0 0.908578 0.0 0.905845 0.906389 0.0 0.907725 0.0 0.0 0.0 0.0 0.0 0.0 0.0 0.915392 0.920256 0.914893 0.922431 0.0 0.919733 0.921515 0.921778 0.923831 0.0 0.922471 0.0 0.0 0.0 0.0 0.0 0.0 0.0 0.0 0.0 0.0 0.0 0.0 0.0 0.0 0.0 0.0 0.0 0.0 0.0 0.0 0.0 0.0 0.0 0.0 0.0 0.0 0.0 0.0 0.0 0.0 0.0 0.0 0.0 0.0 0.0 0.0 0.0 0.0 0.0 0.0 0.915531 0.91627 0.0 0.0 0.0 0.0 0.0 0.0 0.0 0.907502 0.0 0.0 0.0 0.901663 0.904242 0.896709 0.900137 0.0 0.898034 0.892813 0.891421 0.893257 0.893298 0.889486 0.893018 0.887109 0.888533 0.887875 0.888367 0.885613 0.884594 0.881215 0.88482 0.883435 0.880572 0.0 0.881751 0.877656 0.881939 0.873749 0.875656 0.874066 0.872162 0.870806 0.869995 0.868866 0.872569 0.865659 0.863298 0.866029 0.863317 0.861426 0.863748 0.858678 0.862325 0.861414 0.854569 0.857233 0.85984 0.856254
1.58285 1.56641 1.57913 1.58258 1.57391 1.57439 1.57451 1.57654 1.57934 1.58207 1.57596 1.58566 1.58422 1.58471 1.58057 1.58206 1.58207 1.58575 1.57845 1.57971 1.58466 1.58149 1.58114 1.58537 1.58463 1.58732 1.5827 1.56986 1.45463 1.11029 1.08853 1.03919 0.992636 0.981421 0.982481 1.00937 0.96159 0.9393 0.92637 0.92106 0.918079 0.919502 0.919426 0.913113 0.91358 0.909285 0.910598 0.910408 0.911089 0.908183 0.907932 0.909447 0.0 0.0 0.0 0.907874 0.908404 0.0 0.0 0.0 0.0 0.909894 0.0 0.0 0.0 0.0 0.0 0.906796 0.917631 0.913137 0.919741 0.911906 0.915775 0.912412 0.916552 0.915864 0.916664 0.0 0.0 0.0 0.92302 0.0 0.0 0.0 0.0 0.0 0.0 0.0 0.0 0.0 0.0 0.0 0.0 0.0 0.0 0.0 0.0 0.0 0.0 0.0 0.0 0.0 0.0 0.0 0.0 0.0 0.0 0.0 0.0 0.0 0.0 0.0 0.0 0.913507 0.0 0.0 0.911038 0.0 0.0 0.0 0.0 0.908877 0.0 0.0 0.0 0.0 0.901511 0.0 0.0 0.0 0.0 0.0 0.895066 0.894618 0.892671 0.891888 0.0 0.893211 0.0 0.889434 0.889723 0.0 0.88524 0.886047 0.0 0.885829 0.878961 0.877921 0.881813 0.880137 0.875529 0.877876 0.875548 0.871459 0.874873 0.868715 0.868024 0.869321 0.867994 0.870084 0.86812 0.862122 0.86411 0.864345 0.861979 0.861007 0.861135 0.857825 0.858729 0.854511 0.859561 0.852745 0.853767 0.853621 0.853152 0.852639
1.57765 1.56207 1.56642 1.56986 1.56679 1.5698 1.57162 1.57534 1.56376 1.57129 1.56857 1.57032 1.5703 1.58189 1.57747 1.57755 1.57155 1.57407 1.57625 1.57436 1.57585 1.57528 1.5706 1.58061 1.57379 1.57676 1.57476 1.58346 1.5732 1.13771 1.10696 1.06177 0.999191 0.984776 0.985257 0.976319 0.987024 0.997136 0.955717 0.927456 0.919472 0.920604 0.914032 0.912454 0.909669 0.91456 0.91084 0.907093 0.905993 0.906654 0.907891 0.0 0.906441 0.0 0.0 0.905758 0.907483 0.0 0.0 0.904487 0.0 0.0 0.0 0.0 0.0 0.0 0.0 0.0 0.0 0.0 0.912525 0.913404 0.0 0.911208 0.917751 0.911351 0.912451 0.913235 0.913101 0.911747 0.0 0.0 0.0 0.0 0.0 0.922255 0.0 0.0 0.0 0.0 0.0 0.0 0.0 0.0 0.0 0.0 0.0 0.0 0.0 0.0 0.0 0.0 0.0 0.0 0.0 0.0 0.0 0.0 0.0 0.0 0.0 0.0 0.0 0.911994 0.0 0.0 0.0 0.0 0.0 0.0 0.0 0.0 0.0 0.0 0.0 0.0 0.896717 0.899652 0.0 0.0 0.89586 0.897226 0.0 0.0 0.892025 0.890944 0.888663 0.889901 0.886403 0.884949 0.0 0.0 0.879291 0.880686 0.88059 0.8793 0.878863 0.876652 0.87879 0.875076 0.874831 0.873399 0.872231 0.86496 0.86953 0.865687 0.8673 0.866575 0.860648 0.86274 0.861069 0.859655 0.86021 0.858163 0.858078 0.856537 0.858365 0.856187 0.855107 0.848634 0.851993 0.850524 0.849578 0.853066 0.848403 0.844828
1.56242 1.54935 1.54867 1.55125 1.55572 1.55985 1.56194 1.56425 1.56819 1.56274 1.55918 1.56773 1.56516 1.5739 1.56293 1.565 1.57216 1.56638 1.57258 1.56322 1.565 1.55923 1.56899 1.56368 1.55946 1.5717 1.57347 1.56415 1.56582 1.14204 1.13437 1.19819 1.1212 1.00742 0.988885 0.984362 0.975106 0.971683 1.00648 0.975932 0.937349 0.923749 0.922799 0.912072 0.914616 0.908854 0.908098 0.908803 0.908005 0.905404 0.906642 0.904592 0.900735 0.903403 0.0 0.0 0.0 0.901687 0.0 0.900269 0.0 0.0 0.0 0.0 0.0 0.0 0.0 0.0 0.0 0.0 0.0 0.0 0.907339 0.910589 0.911119 0.907428 0.91544 0.905102 0.91098 0.905116 0.0 0.906572 0.0 0.0 0.0 0.912908 0.0 0.0 0.0 0.0 0.0 0.0 0.0 0.0 0.0 0.0 0.0 0.0 0.0 0.0 0.0 0.0 0.0 0.0 0.0 0.0 0.0 0.0 0.0 0.0 0.906795 0.0 0.0 0.0 0.901678 0.0 0.0 0.0 0.0 0.0 0.0 0.0 0.0 0.0 0.0 0.0 0.0 0.896032 0.0 0.0 0.0 0.0 0.0 0.0 0.0 0.0 0.886224 0.885398 0.882491 0.881331 0.880445 0.882176 0.881243 0.87736 0.0 0.878602 0.0 0.877113 0.87604 0.87349 0.869757 0.871806 0.867739 0.870017 0.865039 0.861487 0.861082 0.865248 0.860757 0.862266 0.85601 0.858884 0.857434 0.857094 0.855012 0.85432 0.847928 0.85085 0.84949 0.847531 0.846101 0.848843 0.845371 0.846619 0.844751 0.846738
1.56131 1.54494 1.54761 1.55104 1.55105 1.54986 1.55336 1.56579 1.5596 1.54795 1.55654 1.55971 1.54664 1.55877 1.56233 1.55985 1.56272 1.56038 1.56572 1.55264 1.55758 1.55729 1.5581 1.55337 1.56593 1.56109 1.55242 1.55529 1.55696 1.13469 1.13431 1.35305 1.56757 1.33739 1.08413 0.998818 0.985188 0.976203 0.9757 0.95781 0.991699 0.953399 0.931237 0.916986 0.913329 0.908165 0.911262 0.910194 0.908512 0.9074 0.0 0.903923 0.902152 0.904823 0.0 0.0 0.0 0.901332 0.0 0.0 0.0 0.0 0.903044 0.0 0.0 0.0 0.0 0.0 0.0 0.0 0.0 0.0 0.0 0.0 0.0 0.906794 0.907293 0.0 0.908243 0.903886 0.908528 0.902035 0.0 0.899819 0.90861 0.0 0.909008 0.0 0.0 0.0 0.0 0.0 0.0 0.0 0.0 0.0 0.0 0.0 0.0 0.0 0.0 0.0 0.0 0.0 0.0 0.0 0.0 0.0 0.0 0.910988 0.0 0.0 0.903925 0.0 0.0 0.0 0.0 0.0 0.0 0.0 0.0 0.0 0.0 0.0 0.0 0.0 0.890952 0.894474 0.0 0.0 0.0 0.0 0.0 0.887311 0.0 0.0 0.0 0.875584 0.878565 0.0 0.876812 0.875903 0.0 0.873727 0.878596 0.872629 0.869275 0.871727 0.871528 0.866075 0.869311 0.867876 0.866704 0.866086 0.862553 0.856695 0.86147 0.859304 0.855391 0.855181 0.857513 0.853807 0.852929 0.851165 0.845679 0.851516 0.848238 0.844087 0.848087 0.841058 0.845249 0.843495 0.839748 0.844623 0.843864 0.835839
1.54935 1.54103 1.53676 1.54911 1.54606 1.53649 1.54334 1.54228 1.54535 1.54978 1.55302 1.55733 1.54684 1.54761 1.54774 1.55694 1.54497 1.54663 1.55712 1.5561 1.55387 1.55042 1.5593 1.55546 1.55964 1.55249 1.55658 1.54989 1.55417 1.13286 1.17529 1.46504 1.5902 1.56802 1.5004 1.24956 1.03012 0.985095 0.981669 0.971742 0.966186 0.965014 0.983864 0.944887 0.920882 0.912777 0.91085 0.910971 0.904257 0.904925 0.905574 0.902939 0.904737 0.904139 0.898168 0.0 0.0 0.0 0.0 0.0 0.899416 0.0 0.0 0.0 0.898103 0.0 0.0 0.0 0.0 0.0 0.0 0.0 0.0 0.0 0.0 0.0 0.0 0.901421 0.0 0.0 0.901272 0.895983 0.901493 0.895572 0.902554 0.903211 0.0 0.0 0.0 0.0 0.0 0.0 0.910379 0.0 0.0 0.0 0.0 0.0 0.0 0.0 0.0 0.0 0.0 0.0 0.0 0.0 0.0 0.0 0.0 0.0 0.0 0.0 0.0 0.0 0.0 0.900844 0.0 0.0 0.0 0.0 0.0 0.0 0.0 0.0 0.895646 0.0 0.890272 0.89201 0.0 0.88624 0.885846 0.885138 0.0 0.0 0.0 0.87857 0.0 0.876351 0.0 0.874932 0.0 0.0 0.0 0.873 0.874649 0.870728 0.87116 0.867491 0.863514 0.864455 0.862466 0.861034 0.860445 0.862138 0.857454 0.851889 0.856946 0.852772 0.855457 0.856956 0.848989 0.848145 0.850116 0.845508 0.845986 0.844727 0.841738 0.843236 0.842718 0.836259 0.838761 0.836172 0.836903 0.837587 0.835998 0.834925
1.5393 1.52545 1.53312 1.53739 1.53546 1.52617 1.53554 1.53784 1.54008 1.53521 1.53392 1.54217 1.54075 1.54692 1.54082 1.53662 1.54947 1.54943 1.54791 1.54918 1.54294 1.54927 1.54376 1.54942 1.54206 1.54502 1.54042 1.54938 1.54932 1.13215 1.17485 1.48125 1.5655 1.55559 1.54532 1.54434 1.4367 1.16431 1.00375 0.981809 0.97539 0.964519 0.961853 0.979209 0.974733 0.940398 0.914556 0.911134 0.912126 0.901249 0.901899 0.902232 0.898688 0.898981 0.0 0.898322 0.894096 0.0 0.895107 0.0 0.0 0.0 0.0 0.89554 0.0 0.0 0.0 0.0 0.0 0.0 0.0 0.0 0.0 0.0 0.0 0.0 0.0 0.0 0.0 0.0 0.90241 0.895626 0.0 0.897617 0.89919 0.897144 0.897185 0.898111 0.898721 0.0 0.893588 0.0 0.0 0.0 0.0 0.0 0.0 0.0 0.0 0.0 0.0 0.0 0.0 0.0 0.0 0.0 0.0 0.0 0.0 0.0 0.0 0.0 0.0 0.0 0.0 0.0 0.0 0.0 0.0 0.0 0.891224 0.0 0.0 0.0 0.0 0.0 0.0 0.0 0.0 0.88524 0.0 0.0 0.0 0.879997 0.874809 0.0 0.879102 0.0 0.880355 0.0 0.872137 0.87181 0.0 0.0 0.870104 0.865602 0.0 0.0 0.865364 0.861655 0.862272 0.859678 0.0 0.856443 0.85234 0.851383 0.853556 0.85053 0.849486 0.850699 0.843598 0.847313 0.846146 0.844663 0.839464 0.841887 0.837484 0.838979 0.841273 0.833409 0.833381 0.832473 0.834037 0.831931 0.8359 0.832877
1.53143 1.51843 1.52415 1.52676 1.53235 1.52784 1.53134 1.53393 1.5241 1.52964 1.53626 1.52955 1.53746 1.53541 1.53215 1.53963 1.53823 1.53791 1.53266 1.53737 1.54317 1.53888 1.53654 1.54076 1.54033 1.54273 1.53987 1.54739 1.54502 1.10297 1.16914 1.49071 1.56995 1.54022 1.5393 1.53423 1.53585 1.52805 1.37356 1.09047 0.9872 0.975766 0.970173 0.964547 0.956234 0.988313 0.967556 0.927532 0.910792 0.910878 0.906502 0.898542 0.897671 0.900638 0.892006 0.896718 0.892794 0.895095 0.0 0.0 0.895646 0.0 0.0 0.0 0.0 0.892632 0.0 0.892738 0.0 0.0 0.0 0.0 0.0 0.0 0.0 0.0 0.0 0.0 0.0 0.0 0.0 0.89465 0.0 0.0 0.893712 0.894368 0.0 0.895634 0.0 0.894137 0.890814 0.0 0.892824 0.0 0.0 0.0 0.0 0.0 0.0 0.0 0.0 0.0 0.0 0.0 0.0 0.0 0.0 0.0 0.0 0.0 0.0 0.0 0.0 0.0 0.0 0.0 0.0 0.0 0.0 0.0 0.0 0.0 0.0 0.0 0.0 0.0 0.0 0.0 0.0 0.0 0.0 0.0 0.0 0.0 0.874077 0.0 0.878653 0.0 0.0 0.868761 0.868163 0.0 0.86281 0.863315 0.865544 0.864831 0.860313 0.862751 0.863416 0.856519 0.8554 0.0 0.853085 0.853041 0.849227 0.851715 0.847279 0.843398 0.849509 0.847856 0.843039 0.841619 0.840453 0.839256 0.842558 0.837896 0.834624 0.836676 0.836432 0.831099 0.832745 0.83071 0.831986 0.830431 0.829392 0.827759
1.5227 1.51746 1.52181 1.51554 1.51584 1.52415 1.51927 1.5171 1.52551 1.51813 1.51797 1.5217 1.52112 1.53266 1.52034 1.52468 1.53495 1.5295 1.52912 1.52896 1.53219 1.52475 1.53045 1.53784 1.53251 1.52769 1.53726 1.53118 1.5317 1.09237 1.17242 1.49865 1.55892 1.53621 1.53383 1.52995 1.53069 1.53461 1.53293 1.49835 1.29135 1.04603 0.976692 0.970198 0.964848 0.957401 0.95228 0.983158 0.959681 0.922541 0.910781 0.906684 0.90197 0.893374 0.897805 0.893315 0.891771 0.89437 0.0 0.890593 0.0 0.892992 0.0 0.0 0.0 0.0 0.0 0.0 0.0 0.0 0.0 0.0 0.0 0.0 0.0 0.0 0.0 0.0 0.0 0.0 0.0 0.0 0.0 0.0 0.0 0.893676 0.0 0.893742 0.0 0.892846 0.885328 0.894585 0.0 0.896562 0.0 0.887984 0.883373 0.0 0.0 0.0 0.0 0.0 0.0 0.0 0.0 0.0 0.0 0.0 0.0 0.0 0.0 0.0 0.0 0.0 0.0 0.0 0.0 0.0 0.0 0.0 0.0 0.0 0.0 0.0 0.0 0.0 0.0 0.0 0.0 0.0 0.0 0.872923 0.0 0.868208 0.870678 0.0 0.0 0.0 0.866815 0.860967 0.860665 0.865306 0.859407 0.0 0.860096 0.860257 0.862715 0.857887 0.0 0.855423 0.85372 0.0 0.851974 0.851637 0.843796 0.845708 0.845577 0.843125 0.843506 0.843568 0.840462 0.837333 0.839573 0.834402 0.837133 0.830782 0.830334 0.82985 0.829889 0.827087 0.829846 0.827529 0.826293 0.824184 0.82786 0.819858
1.51146 1.5076 1.51139 1.51512 1.51738 1.51595 1.5097 1.51368 1.51537 1.51305 1.516 1.51861 1.52907 1.51572 1.52041 1.51965 1.50915 1.52221 1.52183 1.51882 1.51832 1.52005 1.52403 1.52164 1.52869 1.52418 1.52682 1.5245 1.53023 1.06089 1.16 1.48882 1.547 1.53421 1.52513 1.5265 1.52783 1.52971 1.53477 1.52661 1.52602 1.46815 1.21443 1.00846 0.972834 0.963932 0.957941 0.952213 0.946159 0.994743 0.954363 0.923078 0.90091 0.895287 0.899423 0.890786 0.893105 0.0 0.889076 0.0 0.0 0.0 0.890009 0.886251 0.0 0.0 0.0 0.0 0.0 0.0 0.0 0.0 0.0 0.0 0.0 0.0 0.0 0.0 0.0 0.0 0.0 0.0 0.0 0.0 0.0 0.0 0.0 0.0 0.0 0.887043 0.880131 0.0 0.885134 0.893752 0.0 0.0 0.0 0.0 0.0 0.0 0.0 0.0 0.0 0.0 0.0 0.0 0.0 0.0 0.0 0.0 0.0 0.0 0.0 0.0 0.0 0.0 0.0 0.0 0.0 0.0 0.0 0.0 0.0 0.0 0.0 0.0 0.0 0.0 0.0 0.0 0.0 0.0 0.0 0.0 0.0 0.0 0.864198 0.864248 0.0 0.0 0.0 0.859549 0.860654 0.860275 0.859 0.859155 0.857543 0.856778 0.849328 0.853726 0.0 0.847407 0.845658 0.846473 0.84266 0.841696 0.841276 0.840826 0.838347 0.838408 0.834736 0.835587 0.835549 0.829249 0.830281 0.831554 0.821242 0.830599 0.829504 0.818858 0.823295 0.821819 0.818637 0.82153 0.818828 0.819406
1.50266 1.50737 1.49404 1.50079 1.50777 1.50884 1.50567 1.50603 1.5094 1.5113 1.50724 1.50281 1.50986 1.50782 1.5142 1.51203 1.51519 1.51061 1.51052 1.51236 1.51587 1.51303 1.51816 1.51808 1.52082 1.52178 1.51924 1.5201 1.51687 1.03495 1.13423 1.49348 1.54639 1.53042 1.51845 1.52011 1.5229 1.52683 1.52078 1.52082 1.52258 1.52518 1.51689 1.41745 1.14341 0.986911 0.964747 0.95756 0.952404 0.948695 0.942595 0.987323 0.951019 0.913165 0.901906 0.897432 0.895603 0.890191 0.890695 0.885535 0.0 0.887935 0.0 0.0 0.885902 0.0 0.0 0.0 0.0 0.0 0.0 0.0 0.0 0.0 0.0 0.0 0.0 0.0 0.0 0.0 0.0 0.0 0.0 0.0 0.0 0.0 0.0 0.0 0.883932 0.0 0.885999 0.885363 0.880221 0.884343 0.879769 0.0 0.882547 0.0 0.0 0.0 0.0 0.0 0.0 0.0 0.0 0.0 0.0 0.0 0.0 0.0 0.0 0.0 0.0 0.0 0.0 0.0 0.0 0.0 0.0 0.0 0.0 0.0 0.0 0.0 0.0 0.0 0.0 0.0 0.0 0.0 0.0 0.0 0.0 0.0 0.0 0.0 0.0 0.0 0.857624 0.863182 0.859072 0.0 0.854593 0.856834 0.0 0.0 0.852357 0.0 0.0 0.851721 0.850012 0.846551 0.847099 0.838996 0.837198 0.840245 0.836101 0.832223 0.831177 0.83608 0.827006 0.832116 0.827543 0.824081 0.829344 0.824409 0.820298 0.821216 0.817328 0.818448 0.820079 0.818321 0.816527 0.818023 0.816702 0.813133
1.50922 1.48697 1.496 1.49419 1.49063 1.50003 1.49547 1.49304 1.4978 1.50811 1.49817 1.50049 1.50332 1.50242 1.50824 1.50609 1.50158 1.50525 1.50858 1.5016 1.51424 1.5077 1.50595 1.51046 1.50113 1.50784 1.51307 1.51625 1.50927 0.990521 1.11137 1.48678 1.5408 1.52137 1.51668 1.52039 1.51474 1.51574 1.51787 1.5109 1.51266 1.51409 1.50639 1.51713 1.50229 1.37035 1.0916 0.975834 0.958026 0.958754 0.948243 0.942422 0.947806 0.987786 0.941364 0.909672 0.89274 0.888818 0.885169 0.885951 0.887903 0.887463 0.0 0.0 0.0 0.880162 0.8838 0.0 0.0 0.0 0.0 0.0 0.0 0.0 0.0 0.0 0.0 0.0 0.0 0.0 0.0 0.0 0.0 0.0 0.0 0.0 0.0 0.0 0.0 0.0 0.876285 0.0 0.879185 0.0 0.874547 0.879232 0.874034 0.0 0.0 0.0 0.882678 0.0 0.0 0.0 0.0 0.0 0.0 0.0 0.0 0.0 0.0 0.0 0.0 0.0 0.0 0.0 0.0 0.0 0.0 0.0 0.0 0.0 0.0 0.0 0.0 0.0 0.0 0.0 0.0 0.0 0.0 0.0 0.0 0.0 0.0 0.0 0.862591 0.0 0.858852 0.0 0.0 0.854409 0.0 0.0 0.85326 0.848189 0.0 0.0 0.0 0.845944 0.84366 0.845385 0.839314 0.837824 0.836595 0.83448 0.835198 0.829605 0.828555 0.828898 0.827218 0.831178 0.824338 0.825394 0.821899 0.820349 0.820733 0.819956 0.818582 0.815498 0.819072 0.811745 0.815226 0.817817 0.815656 0.812081
1.49239 1.48391 1.48715 1.48259 1.4829 1.49119 1.48636 1.49258 1.49093 1.49703 1.4972 1.48774 1.48747 1.50122 1.5014 1.49586 1.50242 1.49929 1.49551 1.49907 1.49916 1.49519 1.50432 1.49823 1.49838 1.50566 1.51205 1.50918 1.43555 0.956554 1.05005 1.47658 1.53606 1.51345 1.51343 1.51743 1.50043 1.50609 1.50384 1.51031 1.50974 1.51234 1.50525 1.50719 1.50822 1.51038 1.48488 1.31128 1.04342 0.965823 0.952677 0.945983 0.942213 0.935165 0.949972 0.978686 0.931908 0.899276 0.890304 0.889607 0.885925 0.88222 0.88295 0.0 0.0 0.0 0.0 0.0 0.0 0.0 0.0 0.0 0.0 0.0 0.0 0.0 0.0 0.0 0.0 0.0 0.0 0.0 0.0 0.0 0.0 0.0 0.0 0.0 0.0 0.0 0.0 0.0 0.0 0.0 0.0 0.873994 0.873879 0.870463 0.0 0.0 0.0 0.0 0.0 0.0 0.0 0.0 0.0 0.0 0.0 0.0 0.0 0.0 0.0 0.0 0.0 0.0 0.0 0.0 0.0 0.0 0.0 0.0 0.0 0.0 0.0 0.0 0.0 0.0 0.0 0.0 0.0 0.0 0.0 0.0 0.0 0.0 0.0 0.0 0.0 0.0 0.0 0.0 0.0 0.0 0.847753 0.843845 0.849181 0.845517 0.0 0.843614 0.0 0.83902 0.838125 0.83405 0.831674 0.833562 0.831988 0.828677 0.824775 0.82483 0.822298 0.822289 0.823375 0.821599 0.820357 0.814585 0.817493 0.816152 0.811143 0.809181 0.81136 0.810988 0.81196 0.80846 0.809619 0.807149
1.47445 1.47365 1.47496 1.47951 1.47984 1.47677 1.48666 1.489 1.48207 1.4837 1.49506 1.489 1.48566 1.48927 1.49115 1.4938 1.48537 1.49017 1.49094 1.49508 1.49603 1.49294 1.49892 1.48683 1.49386 1.5 1.49546 1.44969 1.21809 0.909929 0.983335 1.26929 1.49506 1.51421 1.5052 1.49961 1.496 1.497 1.50496 1.50677 1.49744 1.50267 1.50495 1.50631 1.49414 1.5013 1.50196 1.50376 1.46758 1.25081 1.01071 0.955707 0.946934 0.946692 0.939927 0.931656 0.955304 0.964456 0.916436 0.895311 0.885411 0.881415 0.877695 0.877814 0.876727 0.878593 0.872714 0.0 0.878744 0.0 0.878164 0.0 0.0 0.0 0.0 0.0 0.0 0.0 0.0 0.0 0.0 0.0 0.0 0.0 0.0 0.0 0.0 0.0 0.0 0.0 0.0 0.0 0.0 0.0 0.0 0.0 0.0 0.869395 0.0 0.868489 0.0 0.867819 0.0 0.0 0.0 0.0 0.0 0.0 0.0 0.0 0.0 0.0 0.0 0.0 0.0 0.0 0.0 0.0 0.0 0.0 0.0 0.0 0.0 0.0 0.0 0.0 0.0 0.0 0.0 0.0 0.0 0.0 0.0 0.0 0.0 0.0 0.0 0.0 0.0 0.853061 0.848373 0.0 0.848831 0.0 0.0 0.0 0.841924 0.841731 0.840934 0.0 0.839264 0.838676 0.83462 0.0 0.832172 0.830907 0.830755 0.0 0.822114 0.82188 0.816797 0.81509 0.816459 0.812433 0.81373 0.810211 0.812272 0.808693 0.809275 0.8087 0.810586 0.803825 0.802861 0.805447 0.804945 0.804399
1.48112 1.46858 1.46276 1.46729 1.47563 1.47037 1.47693 1.47899 1.47987 1.48207 1.47526 1.48096 1.48464 1.48462 1.47804 1.48267 1.47537 1.48442 1.4801 1.48423 1.48347 1.48465 1.48607 1.48743 1.48874 1.49574 1.47169 1.21658 1.00768 0.893941 0.919908 0.98349 1.08858 1.46683 1.5071 1.48933 1.48863 1.49458 1.49351 1.49211 1.49971 1.49648 1.49934 1.49778 1.49793 1.49131 1.48082 1.49113 1.49084 1.49111 1.43422 1.19723 0.990831 0.955223 0.946999 0.941402 0.931935 0.924507 0.958181 0.949832 0.910351 0.895113 0.884585 0.876997 0.877693 0.876295 0.878443 0.872849 0.0 0.0 0.0 0.0 0.0 0.0 0.0 0.0 0.0 0.0 0.0 0.0 0.0 0.0 0.0 0.0 0.0 0.0 0.0 0.0 0.0 0.0 0.0 0.0 0.0 0.0 0.0 0.0 0.0 0.0 0.0 0.0 0.0 0.0 0.0 0.0 0.866051 0.0 0.0 0.0 0.0 0.0 0.0 0.0 0.0 0.0 0.0 0.0 0.0 0.0 0.0 0.0 0.0 0.0 0.0 0.0 0.0 0.0 0.0 0.0 0.0 0.0 0.0 0.0 0.0 0.0 0.0 0.0 0.0 0.0 0.0 0.0 0.0 0.0 0.0 0.0 0.0 0.838872 0.0 0.0 0.0 0.0 0.0 0.0 0.0 0.830741 0.825787 0.0 0.0 0.823906 0.820853 0.817493 0.0 0.814659 0.812915 0.811423 0.814113 0.806101 0.807875 0.809883 0.808498 0.803184 0.808953 0.800806 0.801219 0.799103 0.802178 0.796137
1.46177 1.46483 1.46755 1.46469 1.46779 1.46669 1.46439 1.46006 1.4651 1.46673 1.46606 1.47204 1.469 1.47515 1.47534 1.48139 1.47129 1.47723 1.47376 1.47449 1.47658 1.47663 1.4809 1.48398 1.48759 1.48085 1.35468 1.10546 0.926576 0.883435 0.868993 0.919745 0.946597 1.17435 1.50171 1.49325 1.49082 1.48632 1.48903 1.48938 1.49174 1.48063 1.48933 1.48981 1.49026 1.48306 1.49135 1.4911 1.48612 1.48786 1.48897 1.48917 1.40747 1.16117 0.973202 0.945794 0.93841 0.937791 0.930649 0.923775 0.958601 0.949327 0.905661 0.890979 0.877155 0.877243 0.871675 0.871727 0.87087 0.876236 0.869105 0.0 0.0 0.0 0.0 0.0 0.0 0.0 0.0 0.0 0.0 0.0 0.0 0.0 0.0 0.0 0.0 0.0 0.0 0.0 0.0 0.0 0.0 0.0 0.0 0.0 0.0 0.0 0.0 0.0 0.0 0.0 0.0 0.859237 0.857806 0.862008 0.0 0.0 0.0 0.863778 0.0 0.0 0.0 0.0 0.0 0.0 0.0 0.0 0.0 0.0 0.0 0.0 0.0 0.0 0.0 0.0 0.0 0.0 0.0 0.0 0.0 0.0 0.0 0.0 0.0 0.0 0.0 0.0 0.0 0.0 0.0 0.0 0.0 0.0 0.0 0.0 0.0 0.0 0.83302 0.0 0.833925 0.0 0.0 0.0 0.825668 0.824113 0.0 0.822625 0.817583 0.816204 0.814795 0.810818 0.80879 0.807577 0.806612 0.803093 0.802623 0.804905 0.802684 0.802376 0.804522 0.796107 0.798446 0.797427 0.794994 0.791704
1.45223 1.45092 1.4539 1.46066 1.45551 1.45248 1.45931 1.45804 1.45837 1.46252 1.46131 1.46841 1.46763 1.45695 1.46134 1.4671 1.46378 1.46519 1.4606 1.46898 1.47193 1.47085 1.46686 1.47707 1.4744 1.46651 1.16827 1.05596 0.932113 0.86976 0.88298 0.918703 0.945532 1.05855 1.47631 1.50146 1.48107 1.48586 1.48568 1.48138 1.47937 1.47672 1.47608 1.47919 1.47993 1.47918 1.48219 1.484 1.4799 1.47988 1.47424 1.48208 1.48107 1.48209 1.37083 1.09284 0.962251 0.940401 0.936519 0.929954 0.923362 0.91911 0.960115 0.947549 0.905033 0.883502 0.876462 0.871772 0.868248 0.86797 0.867378 0.0 0.0 0.0 0.0 0.867434 0.0 0.0 0.0 0.0 0.0 0.0 0.0 0.0 0.0 0.0 0.0 0.0 0.0 0.0 0.0 0.0 0.0 0.0 0.0 0.0 0.0 0.0 0.0 0.0 0.0 0.0 0.0 0.0 0.0 0.857318 0.856449 0.0 0.0 0.0 0.0 0.0 0.0 0.0 0.0 0.0 0.0 0.0 0.0 0.0 0.0 0.0 0.0 0.0 0.0 0.0 0.0 0.0 0.0 0.0 0.0 0.0 0.0 0.0 0.0 0.0 0.0 0.0 0.0 0.0 0.842171 0.0 0.0 0.841623 0.837731 0.0 0.0 0.0 0.0 0.0 0.829793 0.0 0.820566 0.821351 0.819253 0.818269 0.819245 0.0 0.811462 0.816021 0.0 0.809493 0.808022 0.806519 0.799662 0.798945 0.796797 0.796568 0.797691 0.799599 0.800074 0.793599 0.796478 0.789952 0.795479 0.793819
1.45438 1.43399 1.43777 1.44094 1.45146 1.44817 1.45639 1.44906 1.45022 1.45159 1.45846 1.45524 1.46369 1.4522 1.44986 1.46152 1.46385 1.46246 1.4593 1.46939 1.46157 1.45425 1.4696 1.46386 1.46318 1.28354 1.10046 1.02805 0.896568 0.887414 0.874178 0.928295 0.987708 1.28953 1.44226 1.49137 1.47449 1.4729 1.47504 1.47539 1.47484 1.4722 1.47419 1.47672 1.47776 1.47848 1.47593 1.47716 1.47835 1.47217 1.47975 1.47114 1.47131 1.47233 1.47332 1.46691 1.34288 1.08097 0.953269 0.936687 0.938674 0.926459 0.922491 0.916725 0.959763 0.938872 0.899581 0.880685 0.875688 0.869484 0.864742 0.865321 0.867665 0.0 0.0 0.868367 0.0 0.0 0.0 0.0 0.0 0.0 0.0 0.0 0.0 0.0 0.0 0.0 0.0 0.0 0.0 0.0 0.0 0.0 0.0 0.0 0.0 0.0 0.0 0.0 0.0 0.0 0.0 0.0 0.0 0.0 0.0 0.0 0.0 0.847862 0.851966 0.851016 0.0 0.849364 0.0 0.0 0.0 0.0 0.0 0.0 0.0 0.0 0.0 0.0 0.0 0.0 0.0 0.0 0.0 0.0 0.0 0.0 0.0 0.0 0.0 0.0 0.0 0.0 0.0 0.0 0.840644 0.0 0.0 0.0 0.836476 0.0 0.832957 0.0 0.0 0.82077 0.0 0.0 0.819848 0.816063 0.81852 0.812981 0.811684 0.810359 0.80646 0.808187 0.806774 0.803643 0.804419 0.802913 0.798018 0.796734 0.79709 0.79657 0.794069 0.795969 0.78925 0.791619 0.790907 0.78933 0.790728 0.7877
1.44368 1.43368 1.44077 1.43794 1.44435 1.44025 1.44156 1.45221 1.44703 1.4498 1.45223 1.44457 1.45049 1.45049 1.44957 1.45646 1.4512 1.45376 1.45626 1.45927 1.44949 1.45068 1.46177 1.45718 1.38953 1.09411 0.967038 0.925454 0.866238 0.867684 0.921411 0.954526 1.11014 1.39735 1.46773 1.47693 1.46932 1.46136 1.46669 1.47025 1.46272 1.47173 1.45887 1.46314 1.46593 1.46635 1.46819 1.46591 1.47032 1.46327 1.46703 1.46753 1.47034 1.4699 1.46559 1.47096 1.46718 1.45452 1.31744 1.05397 0.946554 0.93554 0.927449 0.922285 0.919758 0.909521 0.960505 0.936622 0.892567 0.877194 0.864165 0.864152 0.867384 0.861111 0.0 0.861562 0.0 0.0 0.863007 0.0 0.0 0.0 0.863523 0.0 0.0 0.0 0.0 0.0 0.0 0.0 0.0 0.0 0.0 0.0 0.0 0.0 0.0 0.0 0.0 0.0 0.0 0.0 0.0 0.0 0.0 0.0 0.0 0.0 0.0 0.850552 0.845771 0.845414 0.850954 0.0 0.846605 0.84677 0.0 0.0 0.0 0.0 0.0 0.0 0.0 0.0 0.0 0.0 0.0 0.0 0.0 0.0 0.0 0.0 0.0 0.0 0.0 0.0 0.0 0.0 0.0 0.0 0.0 0.0 0.83286 0.0 0.0 0.0 0.829083 0.0 0.0 0.0 0.0 0.818878 0.81939 0.814747 0.0 0.0 0.810916 0.806754 0.80568 0.801192 0.801189 0.804523 0.803041 0.799008 0.797467 0.795616 0.789559 0.79043 0.7871 0.786233 0.786155 0.784107 0.78697 0.786212 0.782677 0.783204
1.43431 1.42896 1.4205 1.42175 1.4265 1.43503 1.43939 1.44093 1.43548 1.43715 1.43846 1.43665 1.44257 1.44453 1.447 1.44154 1.43657 1.45207 1.45402 1.44434 1.45182 1.4468 1.45334 1.44478 1.27843 0.964707 0.861033 0.861678 0.0 0.884956 0.939797 1.00682 1.32491 1.41324 1.47636 1.46565 1.45574 1.45589 1.44644 1.46217 1.46162 1.46365 1.45634 1.46294 1.46253 1.46237 1.44933 1.45902 1.46314 1.46869 1.46366 1.46241 1.4664 1.46479 1.46108 1.45822 1.46149 1.46003 1.4609 1.44022 1.29158 1.03275 0.938863 0.92781 0.921747 0.922456 0.912802 0.908148 0.956127 0.932214 0.893168 0.873327 0.863231 0.860224 0.860459 0.855933 0.0 0.861361 0.0 0.859014 0.0 0.0 0.0 0.0 0.0 0.0 0.0 0.0 0.0 0.0 0.0 0.0 0.0 0.0 0.0 0.0 0.0 0.0 0.0 0.0 0.0 0.0 0.0 0.0 0.0 0.0 0.0 0.0 0.0 0.0 0.0 0.0 0.841201 0.0 0.0 0.842041 0.835997 0.0 0.843898 0.0 0.0 0.0 0.0 0.0 0.0 0.0 0.0 0.0 0.0 0.0 0.0 0.0 0.0 0.0 0.0 0.0 0.0 0.0 0.0 0.0 0.0 0.0 0.0 0.0 0.0 0.0 0.0 0.0 0.819859 0.812728 0.81587 0.0 0.0 0.807151 0.80988 0.0 0.807292 0.805674 0.802335 0.797284 0.796995 0.794708 0.796875 0.797599 0.792424 0.790572 0.788411 0.786497 0.787872 0.78478 0.779455 0.780985 0.784111 0.780608 0.781991 0.785227
1.42789 1.41223 1.41467 1.42168 1.42316 1.42319 1.42645 1.4266 1.42503 1.43057 1.433 1.42565 1.43073 1.4391 1.43794 1.43978 1.44326 1.44105 1.45173 1.44885 1.4572 1.45589 1.44715 1.44089 1.33674 0.961453 0.866473 0.0 0.852899 0.90502 0.962122 1.16258 1.34224 1.4915 1.4734 1.45262 1.45283 1.45501 1.4589 1.45261 1.45352 1.45526 1.44912 1.45631 1.45095 1.44933 1.45584 1.4527 1.45652 1.45359 1.45617 1.45522 1.45159 1.4532 1.45243 1.45544 1.45549 1.45785 1.44843 1.45249 1.45241 1.4414 1.28033 1.02206 0.935508 0.927962 0.918322 0.912792 0.906057 0.904028 0.954618 0.92417 0.888655 0.86642 0.862217 0.856218 0.855235 0.856013 0.857665 0.0 0.854695 0.855706 0.0 0.0 0.0 0.0 0.0 0.0 0.0 0.0 0.0 0.0 0.0 0.0 0.0 0.0 0.0 0.0 0.0 0.0 0.0 0.0 0.0 0.0 0.0 0.0 0.0 0.0 0.0 0.0 0.0 0.0 0.0 0.0 0.841557 0.0 0.833616 0.836395 0.0 0.0 0.0 0.837017 0.0 0.0 0.0 0.0 0.0 0.0 0.0 0.0 0.0 0.0 0.0 0.0 0.0 0.0 0.0 0.0 0.0 0.0 0.0 0.0 0.0 0.0 0.0 0.0 0.822144 0.0 0.0 0.0 0.0 0.0 0.0 0.0 0.80681 0.802696 0.0 0.799489 0.79559 0.797577 0.7911 0.792457 0.791257 0.790303 0.790709 0.790797 0.78585 0.780883 0.782806 0.780543 0.778248 0.776194 0.777393 0.778541 0.779093 0.780683
1.41953 1.40988 1.41452 1.41282 1.42114 1.41955 1.42007 1.42052 1.42475 1.41759 1.42612 1.421 1.43026 1.42444 1.42662 1.42903 1.43165 1.43423 1.41903 1.41978 1.44784 1.44315 1.44574 1.40321 1.1359 0.958743 0.894651 0.878822 0.901182 0.946449 1.02645 1.07853 1.0199 1.33759 1.46696 1.45053 1.44613 1.44803 1.4418 1.44246 1.45032 1.44105 1.44158 1.44702 1.44749 1.44647 1.44482 1.44547 1.44608 1.44899 1.45275 1.44858 1.44906 1.45682 1.44991 1.44706 1.44857 1.44888 1.45004 1.45059 1.44198 1.44805 1.44703 1.42035 1.26188 1.00596 0.932655 0.923008 0.917468 0.916039 0.906024 0.898644 0.94356 0.923437 0.887905 0.865946 0.859642 0.856574 0.856449 0.852162 0.852299 0.0 0.0 0.0 0.0 0.0 0.0 0.0 0.0 0.0 0.0 0.0 0.0 0.0 0.0 0.0 0.0 0.0 0.0 0.0 0.0 0.0 0.0 0.0 0.0 0.0 0.0 0.0 0.0 0.0 0.0 0.0 0.0 0.0 0.0 0.0 0.0 0.833991 0.831161 0.827435 0.83015 0.826393 0.829068 0.0 0.0 0.0 0.0 0.0 0.0 0.0 0.0 0.0 0.0 0.0 0.0 0.0 0.0 0.0 0.0 0.0 0.0 0.0 0.0 0.0 0.0 0.0 0.0 0.818564 0.0 0.0 0.0 0.808274 0.0 0.806116 0.806553 0.0 0.79773 0.797237 0.798118 0.79138 0.790798 0.788504 0.786462 0.784949 0.78702 0.784603 0.78271 0.781062 0.780484 0.773534 0.773715 0.769467 0.776407 0.768536 0.769912 0.772591
1.41519 1.39014 1.41105 1.40692 1.40542 1.40547 1.41174 1.41494 1.42084 1.41315 1.42555 1.41853 1.41808 1.41282 1.41194 1.4188 1.42311 1.35841 1.05277 1.10889 1.20741 1.29266 1.33065 1.07087 0.982637 0.939821 0.911063 0.90127 0.960432 1.08055 1.16549 0.956856 0.883827 0.925115 1.24408 1.44724 1.4466 1.44678 1.43971 1.44066 1.44245 1.44014 1.4404 1.43772 1.44051 1.43688 1.43698 1.44374 1.43882 1.44232 1.44345 1.43549 1.44181 1.44723 1.44384 1.44012 1.44456 1.44429 1.43695 1.44864 1.43712 1.43612 1.44128 1.44229 1.43473 1.41948 1.25128 1.01806 0.928239 0.915609 0.914165 0.908274 0.902951 0.901743 0.943058 0.928526 0.886184 0.869823 0.854325 0.85448 0.852844 0.851191 0.851593 0.0 0.0 0.0 0.0 0.0 0.0 0.0 0.0 0.0 0.0 0.0 0.0 0.0 0.0 0.0 0.0 0.0 0.0 0.0 0.0 0.0 0.0 0.0 0.0 0.0 0.0 0.0 0.0 0.0 0.0 0.0 0.0 0.0 0.0 0.0 0.0 0.0 0.830951 0.0 0.827812 0.820804 0.819927 0.0 0.0 0.827685 0.0 0.0 0.0 0.0 0.0 0.0 0.0 0.0 0.0 0.0 0.0 0.0 0.0 0.0 0.0 0.0 0.0 0.0 0.0 0.810046 0.0 0.0 0.0 0.80688 0.0 0.0 0.797784 0.796214 0.794335 0.789897 0.0 0.786574 0.788788 0.783136 0.782767 0.783755 0.780256 0.778397 0.777612 0.776239 0.772627 0.774487 0.777119 0.771486 0.769657 0.769971 0.768607 0.764492
1.40083 1.3961 1.39261 1.39881 1.40222 1.40202 1.39571 1.40411 1.40478 1.40978 1.40644 1.41353 1.41614 1.41813 1.4145 1.41246 1.40252 1.30768 0.949144 0.894348 0.94005 0.949793 0.967151 1.01336 0.983227 0.981603 0.939895 0.95036 1.11547 1.24477 1.27215 1.27382 0.88923 0.0 0.891438 1.11088 1.41222 1.44521 1.44219 1.43912 1.43455 1.42358 1.43512 1.43187 1.43061 1.43336 1.44074 1.43587 1.43708 1.43795 1.43821 1.43377 1.43863 1.43119 1.43716 1.43286 1.43379 1.4344 1.43644 1.43581 1.43662 1.44474 1.43962 1.43181 1.43632 1.43315 1.43407 1.41377 1.23761 1.00708 0.923442 0.914319 0.906057 0.901018 0.895367 0.894419 0.928588 0.929679 0.886742 0.862679 0.854842 0.850237 0.846502 0.845409 0.0 0.0 0.0 0.845903 0.0 0.846202 0.0 0.0 0.0 0.0 0.0 0.0 0.0 0.0 0.0 0.0 0.0 0.0 0.0 0.0 0.0 0.0 0.0 0.0 0.0 0.0 0.0 0.0 0.0 0.0 0.0 0.0 0.0 0.0 0.0 0.0 0.828212 0.0 0.0 0.819239 0.820111 0.822712 0.0 0.0 0.0 0.0 0.0 0.0 0.0 0.0 0.0 0.0 0.0 0.0 0.0 0.0 0.0 0.0 0.0 0.0 0.0 0.0 0.0 0.0 0.0 0.0 0.0 0.0 0.801124 0.795074 0.797199 0.0 0.0 0.788449 0.786794 0.786231 0.784797 0.780822 0.78128 0.775864 0.778197 0.772455 0.774432 0.776912 0.773014 0.769092 0.769252 0.766089 0.764532 0.766745 0.763746 0.76748
1.39022 1.38172 1.39015 1.38577 1.38483 1.39852 1.39635 1.39874 1.39914 1.4025 1.40497 1.4035 1.40667 1.40201 1.40755 1.41137 1.39952 1.39314 1.35309 1.14372 1.00663 0.959918 0.926828 0.965017 1.05758 1.05523 0.986761 0.966336 1.24159 1.39398 1.41183 1.41427 1.37864 0.977594 0.0 0.0 0.967909 1.3248 1.43828 1.4407 1.4301 1.42001 1.42345 1.42484 1.42358 1.42489 1.43109 1.42449 1.42657 1.42686 1.42887 1.42851 1.43366 1.42566 1.42987 1.43054 1.43148 1.43121 1.42623 1.42707 1.43023 1.43306 1.43234 1.42925 1.42847 1.43177 1.4324 1.43241 1.42298 1.41263 1.25298 1.00662 0.922978 0.90528 0.908482 0.900464 0.894488 0.893212 0.927618 0.931034 0.886621 0.866087 0.854388 0.84946 0.844219 0.0 0.839889 0.844935 0.0 0.0 0.0 0.0 0.0 0.0 0.0 0.0 0.0 0.0 0.0 0.0 0.0 0.0 0.0 0.0 0.0 0.0 0.0 0.0 0.0 0.0 0.0 0.0 0.0 0.0 0.0 0.0 0.0 0.0 0.0 0.0 0.0 0.0 0.0 0.823197 0.0 0.814995 0.812329 0.814593 0.814508 0.813531 0.814566 0.812389 0.814539 0.815217 0.0 0.0 0.0 0.0 0.814212 0.0 0.0 0.0 0.0 0.0 0.0 0.0 0.0 0.0 0.0 0.0 0.0 0.0 0.0 0.796733 0.0 0.786837 0.0 0.787817 0.786433 0.77915 0.782183 0.777927 0.778098 0.77074 0.773066 0.770093 0.770954 0.76957 0.764031 0.765326 0.766298 0.761768 0.759935 0.762138 0.761576 0.759619
1.38039 1.38027 1.38466 1.38735 1.38862 1.38545 1.38737 1.38977 1.38196 1.39546 1.38555 1.40062 1.398 1.3845 1.4025 1.39382 1.39479 1.401 1.39152 1.39342 1.33384 1.09389 0.940344 0.910577 0.926416 1.06131 1.1102 0.978828 1.24208 1.44915 1.43461 1.414 1.40955 1.39133 1.18697 0.900395 0.0 0.912839 1.19768 1.4192 1.42906 1.4239 1.42129 1.42442 1.42433 1.42044 1.42056 1.42151 1.4233 1.42186 1.42387 1.41857 1.42459 1.42359 1.41992 1.42206 1.43001 1.41748 1.42566 1.42504 1.41883 1.42605 1.42094 1.42576 1.42264 1.42125 1.42158 1.42042 1.41717 1.42242 1.42352 1.40047 1.2535 1.01194 0.919479 0.904113 0.900503 0.897169 0.886449 0.886613 0.917418 0.929935 0.88936 0.865569 0.848539 0.843583 0.843331 0.842176 0.841596 0.0 0.0 0.0 0.0 0.0 0.0 0.0 0.0 0.0 0.0 0.0 0.0 0.0 0.0 0.0 0.0 0.0 0.0 0.0 0.0 0.0 0.0 0.0 0.0 0.0 0.0 0.0 0.0 0.0 0.0 0.0 0.0 0.0 0.0 0.0 0.0 0.0 0.81217 0.0 0.810271 0.809293 0.807426 0.804962 0.809425 0.0 0.802087 0.809359 0.0 0.810544 0.0 0.0 0.0 0.804872 0.809054 0.0 0.0 0.0 0.0 0.0 0.0 0.0 0.0 0.790667 0.0 0.0 0.787781 0.787042 0.785432 0.0 0.0 0.778479 0.773415 0.772506 0.770453 0.769203 0.769302 0.766327 0.768832 0.763318 0.764366 0.761539 0.764139 0.753888 0.753418 0.752635 0.763973 0.753638
1.37134 1.37715 1.37427 1.37156 1.36793 1.3797 1.38326 1.38267 1.38283 1.384 1.38537 1.38586 1.38654 1.39214 1.38966 1.38821 1.39142 1.39346 1.39488 1.39345 1.39112 1.33065 1.01813 0.894542 0.824365 0.960608 1.02654 0.891853 1.1858 1.40529 1.42087 1.40541 1.40839 1.40734 1.40338 1.34413 0.936012 0.0 0.0 1.04441 1.37791 1.42457 1.42457 1.41559 1.41117 1.41682 1.41 1.4124 1.40752 1.41508 1.41273 1.41733 1.41549 1.42468 1.41754 1.4156 1.41216 1.4119 1.40401 1.41683 1.41677 1.41609 1.41772 1.41727 1.41621 1.41745 1.42131 1.41664 1.4084 1.40953 1.41563 1.40965 1.40922 1.40083 1.26243 1.02362 0.919424 0.902857 0.894801 0.894379 0.887167 0.883174 0.902431 0.925504 0.89495 0.860838 0.847623 0.842346 0.838231 0.838225 0.0 0.839047 0.0 0.838332 0.0 0.0 0.0 0.0 0.0 0.0 0.0 0.0 0.0 0.0 0.0 0.0 0.0 0.0 0.0 0.0 0.0 0.0 0.0 0.0 0.0 0.0 0.0 0.0 0.0 0.0 0.0 0.0 0.0 0.0 0.0 0.0 0.0 0.0 0.0 0.0 0.80462 0.804759 0.0 0.802082 0.804176 0.0 0.0 0.797641 0.804234 0.0 0.0 0.0 0.0 0.0 0.798739 0.0 0.0 0.0 0.796106 0.0 0.788972 0.0 0.786556 0.786433 0.781782 0.779359 0.786997 0.780592 0.775571 0.775271 0.0 0.76596 0.768898 0.766532 0.765242 0.762816 0.763934 0.760893 0.760561 0.762373 0.75814 0.757688 0.756922 0.753139 0.750948 0.752218
1.36413 1.3584 1.37273 1.36736 1.37269 1.37688 1.3696 1.37391 1.37243 1.38045 1.37636 1.37657 1.38471 1.38783 1.38261 1.38367 1.38716 1.38977 1.39261 1.39343 1.38749 1.37867 1.30943 1.04967 0.953117 0.99718 1.08256 1.18512 1.29841 1.40574 1.40286 1.40305 1.39494 1.39874 1.39821 1.39821 1.38071 1.07984 0.91045 0.0 0.946358 1.25488 1.41311 1.42345 1.41329 1.40797 1.40955 1.41022 1.40941 1.40856 1.41029 1.40878 1.41393 1.40741 1.40726 1.40765 1.40917 1.41125 1.41301 1.4124 1.40358 1.41166 1.41125 1.41402 1.41472 1.41509 1.40665 1.40403 1.41134 1.40455 1.41182 1.40321 1.40807 1.40791 1.40743 1.40281 1.27357 1.03724 0.919276 0.895925 0.894899 0.89062 0.886322 0.882594 0.897384 0.92334 0.893372 0.859853 0.844855 0.83808 0.837763 0.837136 0.834432 0.0 0.836038 0.0 0.0 0.0 0.0 0.0 0.0 0.0 0.0 0.0 0.0 0.0 0.0 0.0 0.0 0.0 0.0 0.0 0.0 0.0 0.0 0.0 0.0 0.0 0.0 0.0 0.0 0.0 0.0 0.0 0.0 0.0 0.0 0.0 0.0 0.0 0.0 0.802796 0.0 0.798672 0.799319 0.798503 0.794791 0.793648 0.791336 0.0 0.0 0.793718 0.79246 0.0 0.0 0.0 0.79174 0.0 0.0 0.790633 0.0 0.787686 0.783921 0.0 0.785594 0.778113 0.0 0.77681 0.0 0.772041 0.770311 0.764116 0.763718 0.761904 0.761162 0.760383 0.757374 0.755158 0.757008 0.75472 0.752671 0.749231 0.750635 0.752526 0.746552 0.751036
1.35073 1.35251 1.36147 1.35853 1.36009 1.36265 1.36731 1.35913 1.37728 1.37139 1.36841 1.37467 1.37237 1.37632 1.3896 1.37659 1.37871 1.37993 1.38249 1.37747 1.37935 1.3795 1.37483 1.28703 1.01286 0.996727 1.17727 1.33968 1.41317 1.4101 1.39761 1.39214 1.39228 1.39665 1.3913 1.39273 1.39498 1.3806 1.28282 0.921042 0.0 0.898894 1.09738 1.38605 1.41593 1.4089 1.39894 1.39933 1.39418 1.40144 1.40085 1.39442 1.3981 1.40669 1.40393 1.402 1.40586 1.39571 1.40008 1.40122 1.40146 1.40545 1.40417 1.40431 1.40179 1.40538 1.40514 1.39755 1.40427 1.4054 1.40622 1.40876 1.40013 1.40086 1.39657 1.40163 1.40345 1.3979 1.29777 1.06014 0.927846 0.899195 0.893436 0.885012 0.878627 0.876044 0.888139 0.919614 0.900227 0.86113 0.844061 0.83638 0.829272 0.831257 0.834107 0.829008 0.828007 0.8311 0.82801 0.828134 0.0 0.0 0.0 0.0 0.0 0.0 0.0 0.0 0.0 0.0 0.0 0.0 0.0 0.0 0.0 0.0 0.0 0.0 0.0 0.0 0.0 0.0 0.0 0.0 0.0 0.0 0.0 0.0 0.0 0.0 0.0 0.0 0.0 0.796108 0.798762 0.791619 0.791069 0.788777 0.790475 0.789571 0.785787 0.786267 0.786436 0.79028 0.0 0.785364 0.0 0.0 0.783771 0.0 0.778062 0.776583 0.780982 0.0 0.0 0.0 0.770469 0.770778 0.772164 0.766011 0.764559 0.759755 0.758523 0.760567 0.758438 0.757651 0.75765 0.755148 0.749889 0.748148 0.749358 0.748623 0.747577 0.745143 0.745631 0.745533
1.34692 1.35086 1.34857 1.35236 1.35312 1.35975 1.3563 1.3609 1.35892 1.36066 1.36863 1.36423 1.3633 1.36781 1.3662 1.37058 1.37077 1.36591 1.37513 1.3743 1.37201 1.36994 1.38094 1.35971 1.15795 1.02349 1.19733 1.36601 1.40699 1.39658 1.38694 1.38148 1.39043 1.38685 1.39261 1.3838 1.38462 1.3874 1.38185 1.36852 1.02386 0.913075 0.0 0.967555 1.30083 1.4141 1.41023 1.3965 1.3983 1.39053 1.39283 1.39337 1.39445 1.3952 1.39506 1.39662 1.39699 1.40343 1.395 1.40633 1.39231 1.39951 1.39822 1.40333 1.3944 1.39448 1.39541 1.40157 1.39747 1.39977 1.39825 1.39757 1.39803 1.39788 1.39418 1.3928 1.38875 1.39962 1.39375 1.38786 1.31417 1.09256 0.933956 0.894735 0.887479 0.884607 0.882011 0.875287 0.886452 0.916386 0.899336 0.862898 0.843176 0.834592 0.828634 0.83205 0.825768 0.82563 0.0 0.823254 0.0 0.0 0.0 0.0 0.0 0.0 0.0 0.0 0.0 0.0 0.0 0.0 0.0 0.0 0.0 0.0 0.0 0.0 0.0 0.0 0.0 0.0 0.0 0.0 0.0 0.0 0.0 0.0 0.0 0.0 0.0 0.0 0.0 0.0 0.0 0.0 0.79077 0.0 0.783869 0.783251 0.782324 0.783939 0.782963 0.784521 0.780371 0.778757 0.78165 0.777155 0.777445 0.776013 0.774838 0.0 0.776337 0.76891 0.769867 0.769114 0.768888 0.768908 0.766392 0.761078 0.762114 0.7609 0.754691 0.756724 0.754591 0.75325 0.751328 0.750192 0.747387 0.747811 0.743313 0.747171 0.745034 0.740441 0.743603 0.748039
1.3372 1.33047 1.33271 1.34963 1.34477 1.35032 1.35067 1.35014 1.35115 1.35263 1.35541 1.34583 1.35859 1.36091 1.35739 1.36481 1.36723 1.36184 1.36385 1.36636 1.37605 1.36621 1.36855 1.36134 1.28374 1.10344 1.21532 1.35 1.39232 1.39039 1.37739 1.38552 1.37436 1.37674 1.38761 1.38167 1.38336 1.38216 1.38148 1.37504 1.36883 1.22794 0.911812 0.0 0.899285 1.15208 1.38833 1.40832 1.38736 1.38826 1.38363 1.38938 1.3841 1.39383 1.39369 1.38975 1.39389 1.39017 1.39018 1.39336 1.38954 1.39324 1.39196 1.38483 1.38523 1.38794 1.39208 1.38977 1.38918 1.39411 1.39493 1.38987 1.38507 1.39076 1.38912 1.38891 1.39131 1.38578 1.37289 1.38487 1.38628 1.37887 1.32308 1.13448 0.943765 0.893121 0.88408 0.880883 0.877669 0.868867 0.87412 0.905736 0.899813 0.866615 0.842198 0.833886 0.827611 0.826301 0.822338 0.0 0.0 0.0 0.824188 0.0 0.0 0.0 0.0 0.0 0.0 0.0 0.0 0.0 0.0 0.0 0.0 0.0 0.0 0.0 0.0 0.0 0.0 0.0 0.0 0.0 0.0 0.0 0.0 0.0 0.0 0.0 0.0 0.0 0.0 0.0 0.0 0.0 0.0 0.785567 0.784678 0.78348 0.781406 0.782726 0.77947 0.776763 0.782258 0.774122 0.771918 0.775338 0.769981 0.769114 0.771312 0.769544 0.766911 0.766773 0.0 0.761661 0.763105 0.766455 0.760607 0.754468 0.756329 0.753735 0.749738 0.753684 0.750176 0.748557 0.749634 0.747126 0.746489 0.742831 0.742933 0.745687 0.744078 0.742161 0.744223 0.742488
1.33436 1.3274 1.32914 1.34096 1.338 1.34005 1.3415 1.33908 1.33928 1.35381 1.35634 1.35281 1.34235 1.35507 1.36036 1.3568 1.3493 1.36048 1.35698 1.36365 1.3578 1.35659 1.36562 1.35537 1.35258 1.22424 1.27387 1.36826 1.39029 1.37317 1.37147 1.36661 1.36706 1.37086 1.37576 1.37182 1.37181 1.3746 1.36994 1.37321 1.37046 1.36708 1.34333 0.987889 0.9206 0.0 0.999975 1.32569 1.39598 1.39719 1.38711 1.38391 1.38211 1.38143 1.38447 1.38054 1.38062 1.38125 1.38214 1.38271 1.38556 1.38287 1.38247 1.39106 1.3839 1.38661 1.38463 1.38816 1.38 1.38813 1.38749 1.38769 1.38319 1.38334 1.37673 1.38295 1.39003 1.38976 1.38509 1.3836 1.38296 1.37849 1.3816 1.37736 1.3365 1.16915 0.967795 0.895219 0.884105 0.876486 0.872948 0.868515 0.866699 0.883014 0.89843 0.864955 0.841419 0.832794 0.825909 0.820765 0.8235 0.820371 0.0 0.819325 0.818777 0.0 0.0 0.0 0.0 0.0 0.0 0.0 0.0 0.0 0.0 0.0 0.0 0.0 0.0 0.0 0.0 0.0 0.0 0.0 0.0 0.0 0.0 0.0 0.0 0.0 0.0 0.0 0.0 0.0 0.0 0.0 0.0 0.0 0.0 0.0 0.776763 0.77893 0.774539 0.777217 0.77222 0.773145 0.768395 0.76673 0.764479 0.767826 0.768608 0.765434 0.760282 0.762097 0.760807 0.759211 0.75842 0.756212 0.753977 0.750887 0.752186 0.747112 0.747515 0.747879 0.745194 0.7433 0.745187 0.739687 0.741491 0.735671 0.739009 0.737442 0.735569 0.732856 0.738925 0.736655
1.32722 1.32481 1.32843 1.32184 1.32396 1.32815 1.34225 1.33636 1.33524 1.34108 1.34524 1.34145 1.34576 1.34372 1.34709 1.35644 1.3454 1.35576 1.35863 1.35785 1.35285 1.35999 1.35569 1.35271 1.35496 1.34235 1.34533 1.36789 1.36968 1.36412 1.36355 1.36322 1.36142 1.36664 1.369 1.37131 1.37188 1.37156 1.36948 1.36479 1.36831 1.36895 1.36612 1.35637 1.19446 0.921524 0.0 0.915791 1.1725 1.37697 1.39715 1.3882 1.3844 1.37652 1.37812 1.37246 1.37891 1.37202 1.37494 1.38218 1.37663 1.378 1.38051 1.37776 1.37876 1.3774 1.37658 1.37661 1.3772 1.37746 1.37769 1.37673 1.37486 1.37617 1.37687 1.37725 1.3776 1.37413 1.37384 1.37907 1.37376 1.37923 1.37415 1.37811 1.37473 1.37687 1.35093 1.21531 1.00481 0.907738 0.881107 0.878141 0.87165 0.866895 0.865339 0.875748 0.896655 0.873131 0.842588 0.831313 0.826157 0.825948 0.821638 0.818479 0.817638 0.0 0.815323 0.0 0.0 0.0 0.0 0.0 0.0 0.0 0.0 0.0 0.0 0.0 0.0 0.0 0.0 0.0 0.0 0.0 0.0 0.0 0.0 0.0 0.0 0.0 0.0 0.0 0.0 0.0 0.0 0.0 0.0 0.0 0.0 0.0 0.0 0.0 0.0 0.773395 0.765293 0.769319 0.766825 0.763747 0.76374 0.760057 0.759157 0.761026 0.75476 0.758519 0.752215 0.751178 0.752054 0.750401 0.748719 0.749215 0.749123 0.747622 0.746088 0.743976 0.739923 0.738572 0.745886 0.741463 0.739724 0.733631 0.738566 0.733223 0.733489 0.732103 0.741075 0.73453
1.31659 1.30811 1.31676 1.31552 1.31044 1.324 1.31714 1.32901 1.33465 1.33213 1.33738 1.33116 1.33465 1.33808 1.33845 1.33793 1.34174 1.34631 1.34698 1.3487 1.34731 1.34503 1.34934 1.34972 1.34669 1.35393 1.35302 1.35766 1.35974 1.35812 1.35447 1.35696 1.35828 1.35899 1.36305 1.36593 1.35688 1.35967 1.36158 1.36373 1.36556 1.36107 1.36681 1.36167 1.35476 1.32832 0.996907 0.916956 0.8931 1.00911 1.32313 1.3861 1.38117 1.37417 1.36193 1.36927 1.37109 1.37087 1.36945 1.3706 1.3723 1.37484 1.37416 1.36939 1.373 1.3728 1.37258 1.37203 1.36447 1.37055 1.37137 1.37187 1.36797 1.36928 1.3694 1.37036 1.36342 1.36987 1.37104 1.36956 1.36834 1.37672 1.36786 1.36626 1.37631 1.36795 1.37415 1.36631 1.36049 1.27873 1.0857 0.933839 0.881812 0.873268 0.874923 0.862261 0.862131 0.868401 0.894778 0.885547 0.852103 0.831192 0.824552 0.824308 0.816766 0.812413 0.81183 0.813266 0.0 0.0 0.0 0.0 0.0 0.0 0.0 0.0 0.0 0.0 0.0 0.0 0.0 0.0 0.0 0.0 0.0 0.0 0.0 0.0 0.0 0.0 0.0 0.0 0.0 0.0 0.0 0.0 0.0 0.0 0.0 0.0 0.0 0.0 0.0 0.0 0.0 0.0 0.763259 0.763551 0.760447 0.764046 0.757535 0.760229 0.753405 0.755477 0.754732 0.752848 0.752044 0.750103 0.747031 0.74724 0.744389 0.740964 0.744631 0.737867 0.741176 0.735729 0.738677 0.73372 0.734685 0.736411 0.737817 0.735953 0.735657 0.734783 0.738121 0.733965
1.30938 1.30595 1.2995 1.31155 1.30651 1.31124 1.31432 1.30711 1.3235 1.31963 1.32542 1.32709 1.32977 1.32913 1.32706 1.33502 1.33062 1.34178 1.33669 1.34916 1.34366 1.34389 1.34545 1.34695 1.33811 1.34646 1.3425 1.3463 1.34249 1.35124 1.34621 1.35517 1.34919 1.35046 1.35057 1.356 1.35517 1.35429 1.35592 1.35438 1.36105 1.34946 1.35805 1.35178 1.3603 1.35279 1.34952 1.20073 0.919784 0.0 0.921396 1.16614 1.38077 1.38041 1.36762 1.3643 1.36181 1.3662 1.36537 1.36508 1.3636 1.36527 1.36546 1.3662 1.36401 1.36353 1.36418 1.36393 1.36103 1.36623 1.36386 1.37249 1.36715 1.36555 1.36742 1.36547 1.3667 1.36703 1.365 1.36439 1.3623 1.36455 1.35716 1.36547 1.36531 1.36454 1.36461 1.35853 1.35884 1.36612 1.3585 1.30042 1.13183 0.944304 0.885034 0.873553 0.870215 0.863947 0.858828 0.859517 0.876492 0.88791 0.867295 0.84231 0.828954 0.823729 0.812969 0.812947 0.810003 0.808785 0.0 0.0 0.0 0.0 0.0 0.0 0.0 0.0 0.0 0.0 0.0 0.0 0.0 0.0 0.0 0.0 0.0 0.0 0.0 0.0 0.0 0.0 0.0 0.0 0.0 0.0 0.0 0.0 0.0 0.0 0.0 0.0 0.0 0.0 0.0 0.0 0.0 0.0 0.755173 0.757083 0.753653 0.754942 0.756752 0.748246 0.753601 0.747833 0.747854 0.748392 0.747792 0.744961 0.740459 0.743054 0.740958 0.737197 0.739395 0.738831 0.736062 0.734345 0.735828 0.732421 0.736496 0.731677 0.732974 0.731822 0.732221 0.731245
