1.11353 1.0775 1.07637 1.08594 1.02419 0.999152 1.00392 0.989802 0.995913 0.979346 0.982502 0.98016 0.976042 0.978511 0.978926 0.980464 0.972978 0.966597 0.977326 0.981061 0.968436 0.97035 0.961415 0.961213 0.965966 0.964242 0.978065 0.991894 0.974491 0.993306 0.926786 0.986337 0.994492 0.98901 0.988829 0.985655 0.975615 0.97743 0.973271 0.986363 0.975598 0.971359 0.975155 0.978937 0.970137 0.97777 0.966518 0.966322 0.952604 0.836159 0.711727 0.711891 0.717456 0.717294 0.713503 0.713613 0.711899 0.714093 0.714162 0.709085 0.710032 0.708246 0.708261 0.710381 0.708858 0.705202 0.708497 0.708752 0.703237 0.707407 0.703683 0.703888 0.701654 0.700318 0.702308 0.708539 0.725392 0.706999 0.716542 0.697813 0.696696 0.696783 0.696859 0.693274 0.689374 0.724079 0.717724 0.712269 0.691902 0.691897 0.685799 0.691854 0.690903 0.688117 0.688968 0.688896 0.6879 0.688717 0.685876 0.686062 0.685326 0.684882 0.684123 0.683657 0.686214 0.680263 0.68037 0.680769 0.681762 0.68153 0.679772 0.678609 0.679554 0.670805 0.687455 0.74882 0.854536 0.932653 0.966605 0.957358 0.966499 0.969282 0.956681 0.968161 0.952831 0.946822 0.966044 0.9642 0.966842 0.955965 0.955272 0.964742 0.951736 0.952482 0.957091 0.949731 0.956678 0.954949 0.95469 0.957979 0.949648 0.962391 0.959068 0.953357 0.954146 0.949289 0.949144 0.945139 0.959095 0.945318 0.940075 0.955963 0.94685 0.948865 0.947333 0.949282 0.951779 0.945787 0.947637 0.942184 0.941937 0.941947 0.941054 0.951103 0.947243 0.946813 0.940598 0.947562 0.948449 0.940715 0.947805 0.938593 0.937046 0.933192 0.936102 0.941497
1.29866 1.10977 1.08127 1.08235 1.08538 1.08523 0.996939 0.997957 0.979189 0.986397 0.980092 0.982642 0.986889 0.977258 0.973339 0.971397 0.969413 0.971454 0.96794 0.961471 0.966324 0.957142 0.962816 0.964669 0.967668 0.955383 0.953324 0.968886 0.952349 0.960224 0.863579 0.991611 0.988824 0.988968 0.987011 0.976419 0.977961 0.973833 0.974138 0.973824 0.970208 0.968951 0.96976 0.966963 0.969823 0.979251 0.96411 0.965114 0.950201 0.937349 0.724117 0.717376 0.716327 0.71466 0.713279 0.711883 0.713184 0.713267 0.709716 0.709469 0.713437 0.709539 0.709555 0.706231 0.707128 0.706802 0.707978 0.704598 0.702719 0.703858 0.702863 0.702765 0.702655 0.664602 0.707559 0.711058 0.710902 0.724097 0.710554 0.697299 0.69679 0.695966 0.697257 0.693978 0.697374 0.695895 0.691365 0.694423 0.692606 0.691689 0.690457 0.69195 0.692824 0.688822 0.6918 0.689904 0.688605 0.687902 0.685669 0.686766 0.685119 0.685282 0.68422 0.686181 0.682972 0.67945 0.680467 0.684805 0.680342 0.682231 0.697734 0.750447 0.838209 0.925886 0.970542 0.98341 0.959697 0.964673 0.964495 0.957363 0.962581 0.954216 0.952768 0.957324 0.948922 0.952535 0.960631 0.952186 0.950333 0.95356 0.952269 0.963533 0.956513 0.955162 0.953792 0.950016 0.949207 0.951654 0.951099 0.951117 0.950518 0.951975 0.948661 0.943848 0.955297 0.947779 0.943499 0.944808 0.961409 0.946749 0.943855 0.948867 0.939763 0.946176 0.942013 0.943089 0.946465 0.943975 0.941751 0.941534 0.936064 0.936368 0.932878 0.942643 0.931301 0.93003 0.943089 0.934269 0.936033 0.935178 0.936282 0.932214 0.931812 0.926831 0.923805 0.930912
1.68068 1.36065 1.16841 1.09375 1.0758 1.07393 1.08797 1.04034 0.996494 0.987115 0.979958 0.981648 0.972936 0.985792 0.971779 0.968972 0.969308 0.966707 0.964646 0.969531 0.959238 0.959686 0.960396 0.95698 0.959971 0.953259 0.948558 0.949993 0.952878 0.967828 0.854407 1.00513 0.999704 0.987722 0.974802 0.986453 0.978504 0.975866 0.97082 0.971101 0.967784 0.963843 0.965545 0.969021 0.967996 0.968744 0.957794 0.964188 0.952579 0.937634 0.752999 0.717737 0.716689 0.714723 0.712742 0.715262 0.711744 0.712731 0.714008 0.715272 0.715317 0.710214 0.707511 0.706607 0.704781 0.710205 0.707447 0.706491 0.709157 0.703026 0.702941 0.702843 0.705463 0.688658 0.732821 0.700512 0.729496 0.744209 0.730067 0.714389 0.69991 0.695745 0.697643 0.693454 0.696241 0.692028 0.696008 0.691164 0.690867 0.692382 0.691758 0.691427 0.691388 0.691946 0.691581 0.683913 0.688386 0.687379 0.689398 0.687458 0.685508 0.685063 0.684912 0.685962 0.68336 0.684993 0.694798 0.758525 0.841588 0.945477 0.967845 0.966576 0.958938 0.959756 0.953302 0.951973 0.950326 0.950776 0.953018 0.94921 0.958347 0.962336 0.958776 0.950689 0.948606 0.946207 0.947397 0.944364 0.945815 0.945746 0.947155 0.953629 0.954691 0.952145 0.940028 0.946704 0.949174 0.944174 0.946004 0.952267 0.938597 0.951041 0.943874 0.944988 0.944597 0.943591 0.941972 0.94092 0.938667 0.948454 0.939385 0.944398 0.938524 0.944348 0.938431 0.939508 0.937053 0.935156 0.939338 0.933024 0.936552 0.935984 0.928734 0.931284 0.924858 0.923882 0.934069 0.926125 0.933048 0.928196 0.926741 0.924111 0.921164 0.93264 0.927901 0.931885
1.73782 1.68458 1.53156 1.21556 1.12891 1.08736 1.0661 1.06497 1.05579 0.99411 0.993285 0.983506 0.981139 0.98478 0.971932 0.973759 0.969181 0.967456 0.963947 0.969415 0.960005 0.95929 0.958542 0.95659 0.954897 0.955516 0.949648 0.9505 0.946911 0.9536 0.869416 0.991457 0.980104 0.985274 0.979765 0.974813 0.971014 0.977582 0.968081 0.968064 0.968025 0.964982 0.962806 0.958815 0.958083 0.964507 0.955955 0.958752 0.958236 0.935803 0.836178 0.718385 0.721246 0.714473 0.719714 0.713507 0.71963 0.710374 0.71165 0.715026 0.712053 0.712386 0.70757 0.709387 0.709077 0.708753 0.705391 0.707765 0.706192 0.703697 0.706945 0.702606 0.706438 0.696007 0.738338 0.706648 0.691623 0.697522 0.699162 0.698969 0.697854 0.697942 0.701662 0.697474 0.696312 0.691189 0.694257 0.690933 0.695497 0.691847 0.692742 0.693019 0.688727 0.6905 0.688312 0.689758 0.693318 0.68806 0.690685 0.688138 0.684974 0.68544 0.699545 0.768219 0.845337 0.923612 0.959103 0.95881 0.955472 0.95212 0.948452 0.948399 0.957403 0.946129 0.94784 0.951949 0.949698 0.945923 0.956912 0.945868 0.955304 0.954775 0.952423 0.947349 0.939858 0.946476 0.944661 0.93053 0.948777 0.949903 0.94472 0.954184 0.948069 0.942839 0.948043 0.940394 0.948826 0.9471 0.942976 0.948644 0.942996 0.935853 0.944702 0.933084 0.935364 0.941455 0.942197 0.940848 0.937121 0.94308 0.937249 0.936099 0.937853 0.936063 0.941262 0.9327 0.940744 0.926906 0.927607 0.93727 0.927456 0.931817 0.928906 0.931739 0.925599 0.923755 0.926184 0.921977 0.925467 0.927763 0.914052 0.913433 0.918451 0.924538 0.918681 0.917317
1.70287 1.6947 1.68923 1.58402 1.28716 1.09619 1.09176 1.05703 1.06213 1.06406 1.05418 0.987925 0.989025 0.969336 0.989095 0.967243 0.966137 0.964702 0.963809 0.958517 0.957255 0.974623 0.948491 0.956766 0.947757 0.946612 0.951599 0.947166 0.948285 0.943194 0.905627 1.00729 0.961978 0.959734 0.958646 0.973834 0.977752 0.971853 0.973352 0.968284 0.966162 0.963419 0.959157 0.960838 0.958317 0.95607 0.958587 0.956596 0.958478 0.948348 0.913881 0.725324 0.717074 0.71451 0.714036 0.715352 0.713043 0.711923 0.71109 0.711147 0.711192 0.714242 0.707316 0.709435 0.709427 0.706685 0.709676 0.708723 0.708362 0.705263 0.702756 0.704781 0.703157 0.700611 0.701388 0.700029 0.700782 0.701221 0.696792 0.699634 0.697609 0.697089 0.695647 0.696926 0.69546 0.696413 0.692495 0.696157 0.69252 0.692819 0.688247 0.691864 0.690915 0.691472 0.686248 0.692855 0.686396 0.687818 0.702884 0.76284 0.855524 0.93451 0.953407 0.948329 0.962332 0.956313 0.956037 0.944237 0.947262 0.95844 0.957795 0.938989 0.954038 0.933402 0.953239 0.944965 0.942114 0.949503 0.946014 0.941909 0.95586 0.944494 0.94305 0.943394 0.941916 0.944025 0.945512 0.939181 0.94153 0.941461 0.939876 0.94874 0.936953 0.93621 0.94589 0.940033 0.943099 0.930366 0.939041 0.936391 0.932238 0.934001 0.938106 0.932415 0.93085 0.929854 0.935914 0.935748 0.938205 0.934164 0.932453 0.934238 0.934527 0.93186 0.935014 0.931712 0.934215 0.926788 0.925161 0.929018 0.927038 0.933706 0.924148 0.924387 0.931211 0.92648 0.928612 0.922106 0.927019 0.926738 0.924137 0.922357 0.919973 0.917837 0.913121 0.915428
1.69603 1.70335 1.68973 1.68643 1.64449 1.44921 1.17798 1.06903 1.05702 1.06123 1.06512 1.06238 0.997167 0.989606 0.968708 0.987877 0.967994 0.963668 0.96423 0.959236 0.955651 0.95144 0.956528 0.954583 0.948798 0.947658 0.948247 0.94969 0.938168 0.948382 0.882837 1.00008 0.958026 0.941588 0.940781 0.949132 0.952435 0.967595 0.966119 0.969377 0.967855 0.968393 0.962052 0.956873 0.955845 0.954496 0.953723 0.957418 0.954508 0.952174 0.929422 0.761658 0.718297 0.713333 0.718571 0.718989 0.719392 0.715566 0.712326 0.711179 0.711224 0.707635 0.711879 0.706751 0.706743 0.706722 0.703362 0.70755 0.705677 0.706816 0.702797 0.705427 0.700472 0.705806 0.700824 0.703105 0.705375 0.700658 0.698355 0.697859 0.700689 0.701081 0.697515 0.697883 0.701276 0.694942 0.695276 0.695294 0.694086 0.695296 0.691941 0.691913 0.689749 0.68636 0.71058 0.783948 0.878831 0.938783 0.958355 0.953945 0.945577 0.949325 0.945174 0.945554 0.95016 0.94657 0.950838 0.954179 0.942976 0.945982 0.946551 0.946498 0.93978 0.936978 0.952881 0.941591 0.939646 0.937686 0.940532 0.933418 0.942249 0.942327 0.940884 0.946036 0.935545 0.940357 0.932545 0.934917 0.932774 0.934206 0.938309 0.939995 0.933294 0.934643 0.934775 0.930119 0.938251 0.930583 0.930633 0.941351 0.93037 0.935391 0.937714 0.930249 0.934297 0.931229 0.929028 0.937113 0.935446 0.932875 0.924414 0.931187 0.930012 0.924425 0.938972 0.921956 0.938446 0.921998 0.920084 0.928292 0.921966 0.928056 0.923991 0.926531 0.921259 0.923148 0.910943 0.906184 0.924547 0.913427 0.923087 0.922725 0.916649 0.915647 0.903306 0.909854
1.69757 1.6883 1.67946 1.68662 1.68579 1.665 1.53797 1.26991 1.10042 1.06353 1.05425 1.04862 1.06852 1.04064 0.99302 0.983627 0.964909 0.978839 0.963179 0.957318 0.955773 0.954774 0.948488 0.95501 0.947477 0.953663 0.943411 0.946613 0.934803 0.96002 0.873013 1.01113 0.95524 0.945016 0.936226 0.944869 0.936606 0.944922 0.949073 0.963613 0.964766 0.962028 0.96135 0.959157 0.960522 0.959776 0.962298 0.948347 0.94753 0.947291 0.929643 0.865152 0.718306 0.714546 0.714074 0.71509 0.716697 0.71528 0.71656 0.7118 0.710338 0.710069 0.710692 0.710699 0.708881 0.709164 0.713061 0.706668 0.706611 0.705935 0.707366 0.705758 0.702622 0.705532 0.701765 0.701621 0.701465 0.703419 0.698388 0.701229 0.698599 0.698383 0.69937 0.696097 0.698881 0.695281 0.695918 0.693509 0.692302 0.687745 0.734768 0.796038 0.879138 0.948256 0.953936 0.946251 0.953719 0.936602 0.948586 0.936296 0.935816 0.93532 0.9339 0.940948 0.949187 0.940753 0.943204 0.945336 0.936559 0.943497 0.940136 0.938573 0.953911 0.935704 0.940434 0.938807 0.938973 0.937314 0.93805 0.938165 0.937359 0.927513 0.940506 0.939947 0.936668 0.943876 0.934865 0.925846 0.935985 0.929034 0.93224 0.931836 0.924844 0.930373 0.930209 0.930024 0.933687 0.929889 0.928749 0.92848 0.921665 0.928763 0.925171 0.928953 0.928863 0.923734 0.931558 0.920205 0.927965 0.92775 0.916655 0.928119 0.929578 0.918146 0.921016 0.917728 0.92024 0.922423 0.918764 0.916532 0.918904 0.923835 0.921505 0.915402 0.909571 0.908602 0.925942 0.917434 0.91006 0.9212 0.904376 0.917106 0.900268 0.916829 0.910132 0.904543
1.68335 1.68476 1.68016 1.68535 1.68198 1.67653 1.6525 1.64568 1.3777 1.12239 1.06283 1.05494 1.04755 1.04671 1.04323 0.992638 0.976263 0.963565 0.957176 0.960608 0.956746 0.956627 0.950643 0.949576 0.949354 0.943246 0.934163 0.9444 0.934946 0.977806 0.873192 0.964377 0.939156 0.927446 0.936685 0.940886 0.939442 0.943014 0.934694 0.927822 0.937571 0.955948 0.961225 0.95993 0.960999 0.956971 0.955009 0.953322 0.951912 0.947186 0.928349 0.925361 0.725503 0.716646 0.714974 0.715992 0.715795 0.715583 0.713852 0.710299 0.71366 0.711584 0.711907 0.711311 0.711307 0.709779 0.707633 0.706077 0.706927 0.712604 0.701935 0.705168 0.702943 0.701612 0.704206 0.700125 0.702696 0.701619 0.701137 0.69852 0.697711 0.701134 0.699998 0.697333 0.694353 0.708955 0.754489 0.825799 0.907109 0.938046 0.936204 0.957401 0.957954 0.953032 0.943545 0.935257 0.945452 0.935923 0.936686 0.93501 0.933924 0.939488 0.928374 0.945413 0.938207 0.934016 0.946453 0.935877 0.9389 0.946438 0.931895 0.940304 0.944764 0.933207 0.949701 0.938118 0.937982 0.937529 0.931638 0.926036 0.937268 0.928628 0.933501 0.92844 0.93057 0.925181 0.93087 0.928446 0.931693 0.925643 0.931539 0.932328 0.924442 0.925494 0.929503 0.925744 0.927919 0.919964 0.925958 0.926579 0.926287 0.923307 0.923565 0.917296 0.92253 0.92124 0.924053 0.924774 0.920765 0.926133 0.91856 0.918592 0.920643 0.91273 0.917935 0.915522 0.916577 0.914693 0.911912 0.918087 0.912931 0.919308 0.912656 0.90455 0.911093 0.908109 0.904238 0.91807 0.904129 0.906721 0.906135 0.912888 0.90456 0.907528 0.900283 0.903156
1.67724 1.67583 1.67912 1.675 1.6821 1.67269 1.65493 1.67118 1.65406 1.57366 1.25682 1.07871 1.05356 1.03462 1.03804 1.0423 1.03209 0.990543 0.965071 0.96068 0.95915 0.952344 0.953649 0.938873 0.949455 0.942476 0.93633 0.941581 0.925379 0.978795 0.883361 0.960372 0.948731 0.929067 0.94008 0.937481 0.935444 0.933676 0.940192 0.933925 0.933867 0.931407 0.926837 0.9583 0.948035 0.959225 0.945019 0.94273 0.959863 0.942573 0.93932 0.931247 0.773773 0.714529 0.717062 0.71688 0.716083 0.713767 0.715046 0.713303 0.712749 0.716702 0.714314 0.710101 0.707682 0.707965 0.708236 0.706682 0.706625 0.707464 0.70708 0.707894 0.709604 0.702526 0.704817 0.70104 0.700885 0.70193 0.701145 0.697923 0.69863 0.712964 0.768822 0.841958 0.916913 0.937586 0.950362 0.957058 0.940086 0.939473 0.937935 0.938202 0.931781 0.930501 0.931934 0.934866 0.93263 0.93553 0.933869 0.937344 0.93232 0.935761 0.93192 0.936842 0.930851 0.920613 0.935769 0.922177 0.924598 0.930021 0.924552 0.938393 0.934099 0.930093 0.935723 0.935303 0.936072 0.936521 0.930933 0.925333 0.930245 0.924616 0.926785 0.925331 0.922361 0.92747 0.924765 0.922344 0.923796 0.926424 0.924845 0.92504 0.917757 0.924177 0.92997 0.919663 0.922733 0.92429 0.915138 0.919917 0.91637 0.924941 0.914845 0.91656 0.92415 0.909592 0.91418 0.918731 0.929121 0.917455 0.909307 0.914322 0.914913 0.910218 0.915419 0.914754 0.914351 0.915661 0.912875 0.914409 0.915038 0.907837 0.906965 0.904622 0.908858 0.907307 0.902003 0.908396 0.900178 0.900777 0.89906 0.898441 0.901463 0.902168 0.902544 0.902309
1.67193 1.67221 1.67692 1.66942 1.66746 1.66683 1.6593 1.65651 1.66274 1.64751 1.57725 1.38462 1.14191 1.04782 1.03514 1.0319 1.03324 1.03945 0.98771 0.963921 0.962693 0.959973 0.951387 0.950914 0.946905 0.937884 0.941696 0.939626 0.936935 0.976823 0.935573 0.977852 0.935575 0.932143 0.93518 0.929918 0.934983 0.931145 0.930539 0.933769 0.928365 0.92531 0.924906 0.92597 0.927313 0.959966 0.95413 0.942588 0.947754 0.946624 0.940083 0.928121 0.859761 0.7184 0.715533 0.715351 0.715757 0.719757 0.716828 0.711776 0.71303 0.713066 0.710979 0.710687 0.710683 0.71127 0.70943 0.706066 0.708124 0.708057 0.708279 0.705465 0.706569 0.704334 0.703901 0.69831 0.713595 0.731296 0.819254 0.888447 0.927957 0.931407 0.944539 0.943414 0.945304 0.932025 0.926913 0.938455 0.926946 0.928759 0.92995 0.930519 0.933497 0.933126 0.929406 0.933549 0.933132 0.932396 0.929827 0.930272 0.927673 0.924454 0.928787 0.931892 0.92772 0.930489 0.928102 0.921468 0.932346 0.933234 0.921726 0.930733 0.929761 0.917917 0.933798 0.932173 0.929327 0.931886 0.917877 0.925516 0.925916 0.91999 0.924561 0.924307 0.921937 0.925844 0.919246 0.931193 0.924263 0.921209 0.921723 0.922814 0.922094 0.92195 0.918809 0.923981 0.920208 0.912856 0.919735 0.918874 0.915623 0.915313 0.914981 0.920825 0.916901 0.913845 0.917833 0.913263 0.906915 0.916978 0.906488 0.914425 0.907122 0.90302 0.902978 0.90931 0.913851 0.911383 0.910629 0.898849 0.906141 0.899531 0.910188 0.908698 0.906029 0.905051 0.901465 0.901851 0.892789 0.898517 0.903898 0.897311 0.903155 0.891427 0.896043 0.901719
1.66069 1.66013 1.63245 1.64998 1.66071 1.66433 1.65511 1.65573 1.65742 1.65676 1.6543 1.6489 1.53902 1.24283 1.0774 1.03907 1.0309 1.03075 1.01899 0.997292 0.968822 0.960593 0.961626 0.961172 0.948717 0.949646 0.933866 0.944977 0.932617 0.987462 0.936841 0.987051 0.931842 0.928117 0.930561 0.93003 0.929178 0.932447 0.921766 0.928847 0.92285 0.922172 0.924148 0.925214 0.923877 0.921324 0.928297 0.934364 0.941616 0.935699 0.934842 0.916894 0.918982 0.726452 0.724192 0.715611 0.716318 0.715509 0.71649 0.712946 0.712695 0.713033 0.713359 0.710657 0.710051 0.710337 0.708196 0.70906 0.707495 0.708032 0.707046 0.706349 0.719245 0.774774 0.845743 0.903117 0.927516 0.932841 0.930584 0.931036 0.92148 0.92523 0.925635 0.925721 0.930639 0.929482 0.931946 0.925912 0.924406 0.938034 0.933467 0.929189 0.930045 0.930886 0.931105 0.932217 0.928166 0.931367 0.92335 0.928941 0.93058 0.9201 0.930481 0.929652 0.926993 0.929459 0.920726 0.922556 0.931011 0.922238 0.923112 0.929398 0.919078 0.922314 0.926434 0.923005 0.928291 0.923626 0.920453 0.923277 0.911059 0.916252 0.922921 0.91637 0.919998 0.926298 0.916409 0.923564 0.916342 0.914189 0.920974 0.908045 0.918957 0.918218 0.916865 0.915196 0.918261 0.911802 0.91067 0.915739 0.911306 0.91425 0.908599 0.911493 0.915831 0.908947 0.912346 0.912775 0.906134 0.907689 0.905115 0.905737 0.923266 0.902225 0.910335 0.907633 0.905778 0.91347 0.906047 0.901795 0.901854 0.899861 0.897265 0.905275 0.903181 0.905353 0.899475 0.89786 0.897921 0.898795 0.901611 0.893893 0.899167 0.890268 0.893469 0.900824
1.65615 1.66148 1.64762 1.64123 1.63811 1.64311 1.62622 1.64015 1.64751 1.64655 1.64324 1.64327 1.64439 1.6351 1.36833 1.11505 1.04123 1.03475 1.02966 1.02626 1.02455 0.987926 0.961937 0.95537 0.959842 0.952317 0.942989 0.938002 0.94441 0.986327 0.953957 0.986803 0.929861 0.926729 0.927403 0.9251 0.923063 0.924552 0.925725 0.926283 0.925337 0.921098 0.92367 0.922952 0.916851 0.926517 0.91828 0.922548 0.922023 0.925663 0.934374 0.929308 0.920323 0.783035 0.717236 0.718558 0.715365 0.716059 0.716139 0.711996 0.714754 0.712084 0.709399 0.715736 0.71453 0.709693 0.709665 0.708417 0.756655 0.819102 0.890332 0.931984 0.922877 0.936116 0.925159 0.923253 0.932824 0.92272 0.926817 0.929689 0.918018 0.928427 0.920355 0.923468 0.926567 0.915722 0.92636 0.926082 0.926091 0.929719 0.914556 0.92966 0.925065 0.921062 0.928245 0.929659 0.921675 0.933348 0.912929 0.928804 0.930442 0.915733 0.925807 0.920142 0.915976 0.925995 0.912737 0.926946 0.931472 0.914253 0.916938 0.930761 0.918033 0.928798 0.917253 0.913527 0.924831 0.924079 0.914593 0.920722 0.910012 0.921503 0.919466 0.911719 0.921038 0.917155 0.916549 0.919214 0.911698 0.914025 0.910363 0.907283 0.915806 0.920425 0.915499 0.915909 0.908281 0.908654 0.911376 0.908445 0.906088 0.909033 0.903682 0.911884 0.913859 0.902268 0.911843 0.904927 0.904748 0.910694 0.904017 0.903759 0.905808 0.902577 0.905147 0.899541 0.896823 0.901329 0.903765 0.903848 0.894087 0.899017 0.895842 0.8981 0.889418 0.899335 0.891178 0.897274 0.88651 0.901038 0.901572 0.893569 0.892899 0.887678 0.895657 0.900187
1.64709 1.64344 1.63294 1.63414 1.63526 1.63319 1.65087 1.63817 1.65463 1.65228 1.6507 1.63932 1.65763 1.64035 1.63961 1.51446 1.21211 1.052 1.03711 1.01954 1.01754 1.0306 1.00498 0.991198 0.957519 0.952044 0.949742 0.942722 0.93507 0.96434 0.964277 0.958012 0.928746 0.925913 0.925999 0.922222 0.923439 0.913096 0.924625 0.915108 0.916825 0.91882 0.919608 0.917997 0.915172 0.915301 0.917497 0.918781 0.920943 0.913528 0.913558 0.917159 0.918052 0.882382 0.715368 0.714891 0.7177 0.715694 0.71247 0.716143 0.712889 0.709318 0.708139 0.725914 0.794298 0.872064 0.927567 0.93213 0.931249 0.929747 0.932153 0.916728 0.917589 0.922362 0.922287 0.9228 0.925111 0.911684 0.928782 0.91048 0.922409 0.924644 0.919602 0.920596 0.923996 0.923446 0.926513 0.914733 0.920191 0.931989 0.91078 0.918916 0.923403 0.922427 0.928699 0.916194 0.921526 0.916255 0.913389 0.918975 0.919706 0.920422 0.91961 0.916668 0.92368 0.92433 0.910172 0.913812 0.919546 0.912894 0.912864 0.920954 0.912453 0.920805 0.91589 0.916979 0.914742 0.912491 0.911426 0.910646 0.909548 0.917133 0.912101 0.908255 0.918168 0.905011 0.909495 0.912161 0.912714 0.918618 0.91704 0.909187 0.905792 0.914578 0.911143 0.911554 0.91224 0.908159 0.910285 0.907945 0.905291 0.912366 0.904061 0.904592 0.902154 0.904401 0.900744 0.903525 0.895136 0.901964 0.897052 0.906728 0.903517 0.900286 0.901107 0.894053 0.899172 0.901349 0.901174 0.898368 0.893518 0.893257 0.888363 0.893495 0.890838 0.890727 0.892579 0.89125 0.894154 0.884512 0.89584 0.881622 0.890004 0.887883 0.887413 0.889424
1.63072 1.62957 1.62553 1.63967 1.62249 1.62494 1.62533 1.63586 1.61595 1.63375 1.63187 1.6402 1.62587 1.63035 1.63679 1.64463 1.61555 1.36844 1.10666 1.03451 1.03022 1.01804 1.02033 1.02405 1.0018 0.958753 0.96114 0.944197 0.933335 0.979596 0.963997 0.975079 0.933496 0.924488 0.921923 0.919624 0.921136 0.91908 0.919068 0.918738 0.915716 0.917712 0.917611 0.91184 0.916452 0.912118 0.911929 0.913808 0.912983 0.915721 0.90948 0.918461 0.903797 0.896581 0.743746 0.71541 0.71552 0.713515 0.722603 0.759924 0.85497 0.928142 0.920445 0.927471 0.923045 0.927936 0.918953 0.925621 0.915091 0.915697 0.918702 0.916863 0.917724 0.920985 0.913359 0.922934 0.913762 0.914243 0.918033 0.911832 0.915894 0.914196 0.911878 0.920433 0.912336 0.917836 0.916666 0.91548 0.918818 0.914878 0.908202 0.911493 0.909928 0.92196 0.915828 0.904238 0.91864 0.916999 0.909297 0.917299 0.90836 0.911191 0.917631 0.907443 0.915056 0.907257 0.900955 0.911835 0.913344 0.912726 0.919022 0.912948 0.903249 0.909492 0.907591 0.902368 0.913363 0.910511 0.910947 0.910466 0.909368 0.910052 0.90832 0.909268 0.908401 0.904226 0.917373 0.913161 0.903265 0.906785 0.905213 0.909581 0.913921 0.909612 0.895189 0.906592 0.904313 0.895795 0.90888 0.901511 0.905363 0.901804 0.898819 0.899646 0.898975 0.896225 0.894336 0.902984 0.900455 0.899954 0.892705 0.898873 0.901791 0.885168 0.898505 0.888551 0.88845 0.901637 0.884978 0.893739 0.893505 0.883166 0.890064 0.884571 0.884787 0.88611 0.88254 0.888628 0.886979 0.878201 0.880462 0.884934 0.876368 0.873424 0.880562 0.879493
1.61824 1.62577 1.61388 1.62294 1.61787 1.62484 1.62921 1.6338 1.62271 1.62858 1.62841 1.6316 1.64017 1.62978 1.63824 1.62481 1.62049 1.62849 1.49783 1.23281 1.03591 1.02608 1.01647 1.01902 1.01747 1.0258 0.967539 0.96202 0.942117 1.01415 0.994501 0.979181 0.933221 0.935996 0.923136 0.921728 0.919112 0.913807 0.915569 0.914943 0.914886 0.917773 0.912331 0.911613 0.913252 0.910706 0.900393 0.910907 0.909785 0.911328 0.912854 0.908386 0.902698 0.895786 0.854416 0.845335 0.883889 0.932365 0.932562 0.932742 0.935608 0.93275 0.923858 0.925168 0.91924 0.930148 0.923582 0.931755 0.917316 0.91521 0.915801 0.915472 0.917841 0.914764 0.918613 0.923353 0.912073 0.92373 0.912112 0.911655 0.922364 0.909787 0.920468 0.916624 0.907625 0.908587 0.917395 0.900789 0.917429 0.907142 0.917099 0.914341 0.90159 0.908175 0.910209 0.906484 0.911811 0.915913 0.914862 0.911983 0.906975 0.916146 0.907184 0.904247 0.910649 0.903157 0.899573 0.912255 0.908638 0.91013 0.908593 0.904632 0.908181 0.903589 0.898984 0.916006 0.910765 0.900708 0.90565 0.909669 0.90947 0.908953 0.90782 0.908167 0.907897 0.899539 0.904615 0.901904 0.897388 0.901206 0.903211 0.896861 0.901503 0.900769 0.90061 0.905474 0.89608 0.894086 0.898286 0.903343 0.901576 0.90038 0.898573 0.898807 0.897252 0.897144 0.896425 0.896269 0.889353 0.897048 0.890387 0.885757 0.886063 0.884595 0.892399 0.885355 0.885544 0.885701 0.882649 0.881593 0.883676 0.88083 0.885999 0.886242 0.885876 0.88519 0.884468 0.880579 0.879223 0.875846 0.878385 0.874375 0.876259 0.869371 0.870327 0.874594
1.61495 1.61773 1.61566 1.61546 1.61574 1.61228 1.62257 1.61187 1.61268 1.63048 1.6121 1.64238 1.62782 1.61629 1.61125 1.62538 1.61848 1.61611 1.61166 1.59817 1.39528 1.10857 1.03001 1.01921 1.01476 1.00297 1.02585 1.0131 0.961105 1.02551 1.00999 0.982082 0.923229 0.925114 0.921383 0.922041 0.91589 0.918859 0.912055 0.916755 0.911668 0.916926 0.910896 0.915228 0.902607 0.897381 0.908496 0.906502 0.909553 0.902149 0.906058 0.904578 0.908157 0.897367 0.899414 0.902343 0.896569 0.898266 0.905345 0.931918 0.926378 0.932228 0.91553 0.926457 0.919632 0.923615 0.919459 0.926122 0.9141 0.924951 0.912887 0.919793 0.910101 0.904008 0.913585 0.904138 0.909764 0.914773 0.907388 0.909951 0.909177 0.909293 0.911207 0.914616 0.906831 0.91444 0.895441 0.909065 0.904843 0.908161 0.909349 0.902966 0.904425 0.910099 0.9076 0.905085 0.91343 0.902428 0.90621 0.912694 0.906179 0.907799 0.906387 0.907372 0.911055 0.901154 0.908723 0.908137 0.898198 0.90752 0.904177 0.905334 0.905872 0.907596 0.89698 0.902277 0.898546 0.899302 0.909639 0.894166 0.895172 0.908437 0.892938 0.907947 0.903491 0.89693 0.90051 0.900784 0.90104 0.902467 0.897919 0.903471 0.900672 0.892513 0.891171 0.896629 0.892578 0.892952 0.894782 0.893041 0.895119 0.895694 0.889766 0.895007 0.891102 0.891584 0.89644 0.888956 0.891411 0.888282 0.886593 0.884589 0.883145 0.883421 0.885699 0.886202 0.883778 0.882776 0.871929 0.879532 0.88823 0.889108 0.88249 0.880727 0.8715 0.882249 0.881526 0.87906 0.879403 0.876021 0.872045 0.871147 0.867394 0.874294 0.872986 0.876956
1.60855 1.59651 1.57928 1.59054 1.60401 1.62337 1.60771 1.61341 1.61141 1.60961 1.62452 1.63314 1.61059 1.60706 1.61406 1.62475 1.6127 1.61149 1.59983 1.60454 1.60256 1.51274 1.25148 1.03448 1.02191 1.01393 1.00211 0.98089 1.06833 1.00785 1.03569 0.986424 0.935547 0.932745 0.919611 0.925279 0.922678 0.916505 0.917093 0.915884 0.912579 0.910431 0.91063 0.908433 0.911261 0.904858 0.904672 0.904763 0.904835 0.899521 0.903429 0.89777 0.909111 0.901021 0.905762 0.894631 0.897541 0.901036 0.90152 0.89599 0.91414 0.917581 0.915602 0.91661 0.917901 0.922184 0.906901 0.923487 0.90816 0.919607 0.906043 0.916259 0.91471 0.903798 0.911561 0.90212 0.912268 0.905809 0.900238 0.908836 0.899307 0.908783 0.907676 0.906856 0.906926 0.896712 0.902188 0.907952 0.902222 0.899799 0.903705 0.894305 0.90875 0.905663 0.895918 0.908804 0.899936 0.899204 0.904795 0.902524 0.905065 0.903969 0.901954 0.906859 0.907526 0.897027 0.905496 0.904911 0.90461 0.901585 0.896741 0.896395 0.897236 0.896557 0.90247 0.903857 0.897725 0.89698 0.899217 0.896041 0.896445 0.899224 0.895103 0.894557 0.893395 0.894904 0.89848 0.890704 0.898114 0.899539 0.893209 0.895786 0.901012 0.892558 0.892992 0.894591 0.894686 0.899195 0.891263 0.885981 0.88806 0.88746 0.885955 0.887076 0.88259 0.888359 0.889107 0.880754 0.887598 0.885639 0.883366 0.889228 0.879918 0.880193 0.884209 0.880362 0.882572 0.878388 0.883993 0.879756 0.8801 0.876102 0.872083 0.871477 0.87398 0.882142 0.873724 0.874961 0.878708 0.873056 0.874167 0.869873 0.870339 0.870478 0.871131 0.874533
1.59877 1.61746 1.57568 1.5816 1.59731 1.59272 1.60468 1.61831 1.60585 1.59979 1.60218 1.60165 1.60533 1.59924 1.60652 1.60774 1.60688 1.60251 1.59633 1.60307 1.60167 1.60398 1.57406 1.42268 1.14209 1.02951 1.00986 1.00734 0.988716 1.01886 1.05431 1.01184 0.925525 0.926244 0.923998 0.916423 0.912345 0.91384 0.913247 0.910857 0.910215 0.908958 0.907973 0.9126 0.907122 0.900129 0.903807 0.901223 0.900402 0.901049 0.896014 0.897218 0.896613 0.894795 0.895646 0.893788 0.899092 0.893606 0.89229 0.89755 0.891103 0.891533 0.913256 0.911561 0.91195 0.907814 0.923501 0.923244 0.911838 0.924183 0.906114 0.91512 0.912367 0.905078 0.903796 0.901594 0.904199 0.904076 0.905144 0.905593 0.895768 0.908557 0.906245 0.89788 0.905495 0.898306 0.900459 0.907728 0.895662 0.902297 0.904691 0.896504 0.899471 0.894575 0.893889 0.893189 0.892172 0.899889 0.900348 0.897174 0.899412 0.902237 0.892386 0.896989 0.896753 0.898911 0.905567 0.890534 0.891742 0.898046 0.885388 0.89887 0.894 0.892421 0.896829 0.895217 0.895988 0.891646 0.890887 0.8958 0.88872 0.895986 0.884694 0.895504 0.89225 0.885701 0.889279 0.887172 0.885049 0.884101 0.891162 0.893142 0.894209 0.887245 0.888866 0.892537 0.893221 0.892405 0.887139 0.885695 0.893959 0.887755 0.887424 0.890302 0.881408 0.885117 0.881471 0.885999 0.875589 0.876559 0.883037 0.878411 0.877838 0.876077 0.879801 0.875957 0.872382 0.873984 0.880739 0.874488 0.877133 0.869119 0.868544 0.868509 0.867296 0.868046 0.865911 0.862326 0.864667 0.85819 0.874285 0.858432 0.866223 0.869729 0.862533 0.86119
1.5948 1.57497 1.57511 1.57964 1.59029 1.59133 1.59371 1.59433 1.61299 1.603 1.60171 1.58924 1.60004 1.60024 1.60353 1.59787 1.59529 1.59523 1.60144 1.59406 1.58804 1.59931 1.59722 1.59769 1.56006 1.32568 1.03767 1.01099 1.0029 1.05876 1.03513 1.04101 0.982358 0.959069 0.923361 0.914619 0.918791 0.912926 0.919123 0.914086 0.909609 0.908651 0.904117 0.905777 0.911275 0.906371 0.899953 0.899452 0.898037 0.898983 0.895144 0.888896 0.893957 0.889155 0.888809 0.89263 0.889559 0.891553 0.887844 0.895795 0.891451 0.908372 0.889597 0.888494 0.90929 0.905458 0.907314 0.904648 0.910081 0.914599 0.904361 0.917275 0.909408 0.905134 0.908975 0.906776 0.905464 0.899917 0.900381 0.894799 0.906388 0.905601 0.894845 0.896438 0.896206 0.893847 0.898111 0.889084 0.897541 0.900551 0.885144 0.901097 0.899537 0.891024 0.896672 0.890845 0.897668 0.891812 0.899205 0.88699 0.900378 0.893861 0.88703 0.895243 0.885072 0.894153 0.894187 0.886084 0.896011 0.889684 0.887552 0.895017 0.886247 0.88497 0.890878 0.887169 0.892138 0.893191 0.895124 0.887761 0.892351 0.889148 0.883839 0.884489 0.88363 0.88484 0.884838 0.885413 0.885671 0.893343 0.880482 0.89167 0.890064 0.887255 0.886206 0.882476 0.8808 0.892398 0.883 0.885981 0.883336 0.883911 0.882404 0.885868 0.877274 0.88098 0.877044 0.880108 0.874378 0.874178 0.876863 0.877769 0.877773 0.876878 0.875957 0.873851 0.874609 0.871007 0.871706 0.866042 0.869552 0.869004 0.874148 0.867523 0.866306 0.87132 0.866046 0.864442 0.863936 0.864241 0.857169 0.855432 0.860123 0.865311 0.866794 0.862084
1.57633 1.57378 1.58874 1.57847 1.57734 1.58007 1.59653 1.60196 1.58274 1.5832 1.587 1.57623 1.59585 1.59492 1.59735 1.59571 1.60232 1.5974 1.58895 1.59598 1.5819 1.58853 1.58847 1.58256 1.59109 1.58942 1.47334 1.17426 1.04212 1.11639 1.08145 1.03762 0.981358 0.995347 0.968224 0.955129 0.933448 0.923481 0.912882 0.918471 0.917549 0.91069 0.910307 0.90694 0.898211 0.897752 0.894898 0.89915 0.893576 0.896009 0.895746 0.892186 0.894267 0.891857 0.889725 0.889663 0.888985 0.886494 0.896549 0.88744 0.888187 0.890416 0.889632 0.888231 0.886813 0.887478 0.886926 0.902578 0.9029 0.899899 0.904999 0.918808 0.907337 0.91059 0.910818 0.903202 0.903096 0.900865 0.902836 0.893644 0.894377 0.903233 0.891278 0.899201 0.886911 0.89601 0.89424 0.886727 0.897289 0.895474 0.893644 0.899336 0.889033 0.888364 0.896722 0.883966 0.89169 0.887343 0.886297 0.895779 0.894399 0.88608 0.893703 0.889871 0.881512 0.893897 0.883104 0.890339 0.892144 0.889426 0.889096 0.887849 0.884487 0.887709 0.895709 0.88151 0.88468 0.889327 0.886471 0.887489 0.88251 0.880507 0.882967 0.882422 0.882456 0.88277 0.882469 0.882745 0.884191 0.887697 0.879003 0.87683 0.882645 0.87599 0.881459 0.880393 0.872808 0.880564 0.884451 0.877407 0.881244 0.87623 0.876196 0.875258 0.875764 0.885027 0.874358 0.870407 0.870231 0.877024 0.867766 0.873619 0.874203 0.874177 0.871228 0.872015 0.866995 0.869454 0.864966 0.869657 0.869708 0.861704 0.8617 0.856808 0.858452 0.867736 0.857636 0.856323 0.856391 0.856419 0.856687 0.856351 0.853726 0.855272 0.860399 0.858765
1.57729 1.5731 1.58303 1.57475 1.57111 1.57945 1.59 1.59825 1.57877 1.57273 1.57539 1.57713 1.59732 1.59127 1.57742 1.59265 1.5729 1.58632 1.5819 1.58201 1.58408 1.57571 1.58345 1.59319 1.59043 1.58616 1.57833 1.585 1.47591 1.13131 1.07568 1.0389 0.989415 0.981128 0.981307 1.00173 0.964824 0.931646 0.921656 0.918996 0.913061 0.913297 0.9005 0.900978 0.900547 0.897427 0.896357 0.897641 0.893856 0.89629 0.89484 0.895751 0.890685 0.890066 0.889129 0.886382 0.8869 0.885308 0.885791 0.885359 0.885208 0.888035 0.885755 0.886752 0.885636 0.886301 0.88335 0.886384 0.899614 0.897216 0.905618 0.897478 0.905552 0.905194 0.905723 0.906837 0.901014 0.902698 0.901658 0.900301 0.900132 0.893623 0.902459 0.894412 0.888757 0.89755 0.887646 0.889478 0.89461 0.884359 0.89398 0.888821 0.869487 0.89051 0.889223 0.878584 0.889014 0.885573 0.889646 0.887681 0.8851 0.886416 0.883805 0.882985 0.890568 0.893923 0.893354 0.892168 0.892769 0.885548 0.89272 0.883972 0.883911 0.88743 0.887633 0.881831 0.889486 0.886945 0.885885 0.881521 0.88491 0.871859 0.879392 0.87855 0.880074 0.882471 0.878894 0.880359 0.877643 0.879069 0.869198 0.878298 0.879661 0.879522 0.88084 0.874453 0.878979 0.875807 0.868493 0.874125 0.87737 0.872359 0.871444 0.87256 0.868963 0.872663 0.868733 0.871499 0.868402 0.869363 0.867386 0.867711 0.862785 0.866534 0.869955 0.865248 0.866871 0.865289 0.862529 0.868074 0.86468 0.861836 0.862967 0.859209 0.856283 0.855036 0.856311 0.854426 0.853923 0.85056 0.856182 0.855836 0.857974 0.844385 0.855386 0.858491
1.56654 1.56986 1.5653 1.58327 1.56203 1.56307 1.56234 1.56576 1.57082 1.56987 1.57141 1.57827 1.56888 1.57819 1.57148 1.57297 1.58844 1.5755 1.57568 1.57666 1.56865 1.58884 1.5654 1.57077 1.56944 1.57125 1.57911 1.58171 1.58135 1.14675 1.1125 1.07697 0.991876 0.987119 0.979979 0.979548 0.999953 0.998018 0.952478 0.927456 0.914457 0.91588 0.912259 0.911863 0.902565 0.901229 0.900463 0.893742 0.896492 0.892392 0.892132 0.892746 0.893043 0.884385 0.884342 0.889352 0.886292 0.883509 0.884888 0.884757 0.883711 0.883245 0.883062 0.884359 0.884741 0.886007 0.886058 0.877993 0.881009 0.881009 0.896609 0.900788 0.904052 0.892875 0.890394 0.900226 0.901323 0.902406 0.898659 0.893391 0.900144 0.890629 0.894643 0.892019 0.88938 0.891241 0.888571 0.8898 0.888906 0.882275 0.885265 0.8774 0.883671 0.886314 0.878706 0.884931 0.887227 0.875663 0.884247 0.893114 0.879404 0.886132 0.882621 0.868876 0.882767 0.877109 0.877145 0.893076 0.876268 0.878057 0.883727 0.88368 0.886614 0.885335 0.878053 0.88303 0.882602 0.873786 0.874524 0.885996 0.871767 0.88021 0.879978 0.874366 0.880654 0.879773 0.87025 0.87885 0.881182 0.866874 0.873324 0.87619 0.871925 0.874747 0.869858 0.869682 0.875681 0.869857 0.864022 0.873769 0.86584 0.87229 0.871665 0.866622 0.856591 0.867898 0.859883 0.864402 0.863932 0.866347 0.864951 0.873689 0.866435 0.857724 0.866061 0.864243 0.85923 0.858805 0.853177 0.86274 0.862215 0.853935 0.852501 0.855882 0.853525 0.854832 0.853829 0.838358 0.849175 0.846379 0.849461 0.842943 0.842013 0.848592 0.848682 0.835362
1.55688 1.56325 1.56733 1.55711 1.55852 1.55985 1.55689 1.56622 1.56311 1.56387 1.5722 1.56716 1.58306 1.56878 1.55552 1.56957 1.56987 1.58415 1.56713 1.55259 1.57335 1.56068 1.56292 1.5657 1.56177 1.57663 1.58276 1.57956 1.57659 1.1572 1.09061 1.18359 1.12237 1.00303 0.991229 0.981136 0.962774 0.970214 0.990294 0.970926 0.924085 0.920503 0.914236 0.911777 0.900714 0.899974 0.895063 0.899316 0.89317 0.897387 0.892678 0.893591 0.886751 0.88554 0.886395 0.882463 0.888947 0.883484 0.882177 0.888021 0.888175 0.883228 0.883346 0.875365 0.881734 0.883599 0.88335 0.879488 0.884004 0.881606 0.877991 0.880962 0.886621 0.89467 0.898802 0.885191 0.903117 0.898789 0.90226 0.892486 0.889911 0.886418 0.89073 0.889011 0.888179 0.89034 0.875334 0.887094 0.873561 0.883185 0.89159 0.876507 0.87766 0.882407 0.869088 0.884935 0.884221 0.87447 0.881244 0.87357 0.878207 0.881324 0.884425 0.873992 0.880064 0.876811 0.876246 0.876565 0.86697 0.873556 0.882519 0.872586 0.877018 0.879933 0.872357 0.875836 0.876905 0.871083 0.881376 0.871942 0.872345 0.87273 0.87399 0.875529 0.877346 0.878546 0.865166 0.876135 0.871937 0.870986 0.868833 0.873177 0.867139 0.869663 0.8698 0.860768 0.872958 0.864486 0.858068 0.871924 0.859299 0.865453 0.861021 0.855988 0.861179 0.870422 0.859487 0.860501 0.858575 0.859826 0.863079 0.859627 0.856445 0.854111 0.85522 0.851105 0.852155 0.853171 0.855014 0.851373 0.851144 0.859741 0.854867 0.852822 0.847905 0.848645 0.847644 0.846609 0.848925 0.839082 0.843571 0.842952 0.839213 0.846619 0.849211 0.838117
1.55022 1.55521 1.54872 1.55243 1.53232 1.55378 1.55729 1.55707 1.56129 1.56093 1.56305 1.55631 1.55715 1.55621 1.56461 1.55071 1.56872 1.5558 1.54967 1.57246 1.55212 1.5596 1.55839 1.56059 1.5642 1.56341 1.55851 1.55849 1.55463 1.13266 1.12819 1.34079 1.55238 1.33798 1.07388 0.999111 0.980494 0.985308 0.964235 0.960458 0.995822 0.953989 0.926811 0.90665 0.905053 0.903137 0.900604 0.897751 0.892798 0.891081 0.89439 0.893227 0.888476 0.889948 0.886044 0.883011 0.88234 0.883141 0.880048 0.882306 0.880966 0.875424 0.872849 0.882518 0.871233 0.871895 0.873441 0.873474 0.874689 0.879187 0.880073 0.873744 0.879098 0.877536 0.881362 0.880069 0.891074 0.88194 0.890816 0.884653 0.895003 0.890913 0.891315 0.887192 0.888765 0.884009 0.885553 0.883472 0.882579 0.883475 0.882251 0.882515 0.880659 0.876082 0.88051 0.878309 0.869179 0.880473 0.875823 0.869657 0.878195 0.877706 0.877802 0.875781 0.872845 0.867496 0.884327 0.872649 0.866658 0.877133 0.874108 0.872266 0.880583 0.872127 0.869342 0.874611 0.869405 0.872546 0.871787 0.870118 0.869029 0.872094 0.861442 0.86001 0.875213 0.866902 0.868681 0.8648 0.863871 0.863221 0.863736 0.86216 0.868548 0.867521 0.864705 0.857155 0.863148 0.860868 0.859747 0.860955 0.859498 0.859486 0.859451 0.861148 0.857557 0.853657 0.856447 0.856875 0.859894 0.856489 0.853645 0.856576 0.85513 0.844992 0.851011 0.850356 0.857729 0.859591 0.839614 0.843439 0.843215 0.840961 0.850079 0.848889 0.847099 0.850098 0.849936 0.848323 0.847241 0.845279 0.843002 0.841814 0.832757 0.834578 0.838852 0.836116
1.54437 1.54658 1.54594 1.56443 1.53043 1.55524 1.55231 1.55267 1.55014 1.5557 1.54313 1.53241 1.53663 1.53198 1.55515 1.54725 1.54411 1.54777 1.54365 1.54404 1.55444 1.55387 1.55757 1.55603 1.55877 1.56175 1.56006 1.55221 1.55679 1.15962 1.17412 1.48283 1.56801 1.54669 1.52088 1.25893 1.02924 0.986269 0.9802 0.968508 0.962949 0.960301 0.997721 0.940166 0.925312 0.915733 0.895764 0.897353 0.896851 0.893363 0.901124 0.887798 0.885426 0.887492 0.887756 0.884134 0.878702 0.879205 0.878201 0.877476 0.881509 0.872389 0.871012 0.873203 0.871492 0.870959 0.871308 0.871042 0.877647 0.870761 0.870446 0.871914 0.869769 0.878704 0.870828 0.872535 0.879329 0.879507 0.876366 0.873509 0.888957 0.886371 0.885872 0.880249 0.890836 0.884581 0.882217 0.884044 0.869028 0.882244 0.881922 0.879482 0.87973 0.863439 0.879581 0.86897 0.868558 0.881345 0.86829 0.869634 0.879366 0.865972 0.876871 0.874251 0.867118 0.873165 0.873198 0.863629 0.868725 0.880387 0.859405 0.871928 0.87037 0.862221 0.870196 0.870682 0.861001 0.867424 0.873823 0.868873 0.860635 0.868165 0.861687 0.86055 0.85999 0.862977 0.867424 0.865027 0.863206 0.866107 0.870166 0.858827 0.858121 0.860346 0.858123 0.863544 0.858337 0.861059 0.857289 0.860256 0.852052 0.856144 0.859619 0.85254 0.857423 0.857313 0.852808 0.85498 0.854796 0.855748 0.856669 0.854087 0.850037 0.851167 0.844192 0.847571 0.84516 0.856791 0.847719 0.854667 0.845276 0.842441 0.846415 0.838401 0.847121 0.834247 0.840324 0.832796 0.841028 0.832886 0.842127 0.838412 0.833551 0.839817 0.828766 0.829375
1.53488 1.53986 1.54006 1.54852 1.53044 1.53959 1.53694 1.54177 1.54908 1.54085 1.54155 1.54387 1.54585 1.53443 1.55105 1.54517 1.55432 1.54229 1.54504 1.54287 1.5461 1.54611 1.5524 1.55202 1.53224 1.54531 1.53897 1.55083 1.54787 1.16935 1.17572 1.48388 1.56755 1.5515 1.54356 1.5341 1.42733 1.17955 1.00463 0.988566 0.968038 0.96393 0.956845 0.963287 0.964405 0.932719 0.911305 0.911725 0.900285 0.897694 0.896266 0.885916 0.888595 0.881158 0.882016 0.878395 0.878621 0.874064 0.877231 0.875615 0.873382 0.872921 0.871547 0.868064 0.869641 0.86911 0.870954 0.872185 0.86981 0.871908 0.8686 0.869469 0.87182 0.863967 0.870184 0.868592 0.863085 0.86296 0.87092 0.874667 0.870296 0.880017 0.877416 0.878402 0.878773 0.88153 0.879168 0.880393 0.882805 0.882499 0.871066 0.879438 0.866775 0.877817 0.876534 0.862928 0.86882 0.869593 0.86525 0.869293 0.865821 0.865033 0.870226 0.867909 0.863479 0.868323 0.867158 0.871367 0.874361 0.86507 0.864742 0.872768 0.869117 0.865752 0.867448 0.867933 0.864523 0.864676 0.860939 0.856891 0.856996 0.857382 0.858344 0.859584 0.859914 0.856664 0.85429 0.859011 0.860746 0.859797 0.858829 0.851935 0.856839 0.85611 0.856541 0.855184 0.856161 0.858584 0.857164 0.850446 0.851628 0.85103 0.84807 0.853562 0.851725 0.851033 0.846243 0.85045 0.844749 0.845416 0.853873 0.847819 0.849552 0.845771 0.847444 0.846206 0.845515 0.841067 0.83746 0.836691 0.833894 0.835061 0.83619 0.837848 0.827275 0.838774 0.833248 0.834187 0.839303 0.829197 0.832821 0.835829 0.829014 0.829703 0.82451 0.827887
1.52839 1.53476 1.52721 1.53176 1.52483 1.52337 1.52938 1.54739 1.53675 1.53809 1.54133 1.53379 1.53944 1.5425 1.53869 1.53849 1.53937 1.53648 1.5361 1.53909 1.54375 1.53831 1.5492 1.54307 1.5386 1.53377 1.53959 1.54015 1.54792 1.14333 1.1863 1.4878 1.57753 1.52972 1.54047 1.53979 1.53965 1.50168 1.36007 1.08518 0.973684 0.964885 0.963403 0.963958 0.943556 0.982706 0.948654 0.921325 0.917003 0.896966 0.898208 0.889946 0.884619 0.887874 0.879532 0.880076 0.886252 0.86921 0.875053 0.874035 0.875084 0.867769 0.871466 0.868286 0.872849 0.870231 0.872972 0.865537 0.865256 0.867052 0.873322 0.869703 0.860078 0.869599 0.866227 0.862839 0.864229 0.860807 0.863966 0.860213 0.86544 0.873954 0.864755 0.86424 0.87661 0.877566 0.876105 0.87943 0.868937 0.879433 0.864409 0.875174 0.871522 0.876555 0.877673 0.868876 0.876261 0.863538 0.866095 0.870433 0.867562 0.863478 0.863873 0.861857 0.868211 0.858381 0.86081 0.861427 0.868307 0.86022 0.859893 0.857458 0.852322 0.860306 0.864984 0.861293 0.862357 0.863701 0.857881 0.862167 0.863456 0.85373 0.860928 0.853554 0.852995 0.853603 0.851526 0.852098 0.852354 0.857616 0.852216 0.855955 0.855244 0.852745 0.851703 0.854171 0.845152 0.854331 0.847339 0.845612 0.849429 0.856723 0.84616 0.844932 0.846599 0.846489 0.845483 0.844163 0.845141 0.844351 0.847587 0.839807 0.838367 0.836327 0.843759 0.841371 0.843263 0.840247 0.837209 0.834148 0.834485 0.831656 0.836191 0.836136 0.833496 0.830264 0.829263 0.839491 0.827719 0.827453 0.832465 0.83099 0.82669 0.825424 0.822454 0.823605
1.52242 1.51359 1.52015 1.5186 1.51862 1.51717 1.52542 1.52942 1.52663 1.53078 1.53206 1.53525 1.51915 1.53776 1.53169 1.53321 1.51131 1.53321 1.50713 1.53068 1.53391 1.53278 1.53073 1.53352 1.53943 1.53549 1.53408 1.53407 1.5346 1.17679 1.18956 1.48789 1.5531 1.53155 1.53967 1.53199 1.53303 1.52817 1.53 1.49454 1.30457 1.05279 0.997279 0.957835 0.963374 0.962413 0.93605 0.977842 0.951701 0.916922 0.917292 0.906684 0.892485 0.893077 0.89187 0.887673 0.878698 0.874451 0.874049 0.873926 0.874381 0.872734 0.869876 0.865805 0.864399 0.869839 0.868101 0.866048 0.872342 0.862783 0.867554 0.862142 0.859404 0.861437 0.854476 0.858873 0.863256 0.858341 0.859999 0.859245 0.860274 0.859789 0.861387 0.876161 0.865739 0.87089 0.857737 0.866157 0.865866 0.878153 0.872735 0.872099 0.86695 0.870481 0.875794 0.8706 0.86749 0.861369 0.869316 0.862567 0.862694 0.865499 0.863798 0.862979 0.860351 0.865185 0.852061 0.862543 0.852982 0.857749 0.858615 0.857375 0.860893 0.865585 0.852072 0.851367 0.860176 0.85616 0.857486 0.857901 0.854732 0.854519 0.858444 0.851667 0.852292 0.85349 0.851707 0.849317 0.849867 0.851283 0.84766 0.860537 0.845381 0.848188 0.847146 0.849024 0.837958 0.851531 0.847766 0.843108 0.847504 0.844855 0.84248 0.849415 0.840586 0.842514 0.837149 0.844829 0.835075 0.842397 0.841579 0.833229 0.839289 0.838106 0.839484 0.841689 0.841277 0.839404 0.837219 0.833297 0.832772 0.832499 0.827934 0.832702 0.831193 0.831629 0.828925 0.821974 0.831293 0.821483 0.826211 0.823623 0.825736 0.825851 0.823148 0.821794
1.51118 1.51092 1.50586 1.51706 1.51655 1.51512 1.51472 1.51005 1.52938 1.51895 1.5191 1.52284 1.52088 1.5228 1.52523 1.51795 1.51314 1.52278 1.50157 1.52054 1.51059 1.51747 1.518 1.53027 1.52783 1.53196 1.53057 1.53144 1.5311 1.08756 1.18931 1.5048 1.55718 1.53363 1.53096 1.53001 1.52199 1.52796 1.52569 1.52808 1.52632 1.47607 1.21061 1.00993 0.972834 0.955389 0.959415 0.951918 0.938481 0.986174 0.950519 0.935212 0.894691 0.891435 0.891417 0.889896 0.883011 0.874021 0.871541 0.871122 0.876338 0.868742 0.868268 0.866586 0.865481 0.864956 0.865606 0.865047 0.861187 0.860294 0.862671 0.860551 0.856322 0.85955 0.862763 0.859082 0.852392 0.857355 0.856019 0.856763 0.855696 0.851019 0.847823 0.853298 0.852768 0.862109 0.865444 0.876554 0.859785 0.864573 0.862454 0.871705 0.870754 0.873682 0.863116 0.860623 0.868297 0.859186 0.861139 0.860681 0.8635 0.868396 0.849945 0.853017 0.860556 0.850442 0.860038 0.860054 0.8505 0.851681 0.850459 0.84594 0.856315 0.853255 0.852267 0.849476 0.849945 0.845935 0.850532 0.853325 0.850159 0.853507 0.84497 0.8468 0.84624 0.848917 0.848023 0.848885 0.847069 0.84258 0.845745 0.848885 0.846701 0.842441 0.839637 0.847682 0.842196 0.843439 0.842609 0.840295 0.844099 0.842035 0.841118 0.841343 0.839798 0.839976 0.838096 0.834745 0.832535 0.832617 0.834693 0.835583 0.832121 0.839857 0.827725 0.827643 0.838126 0.831677 0.832067 0.832708 0.831321 0.828485 0.834982 0.826135 0.82689 0.827887 0.822368 0.824979 0.825017 0.821097 0.820502 0.813458 0.81975 0.821253 0.819935 0.821616
1.50074 1.50544 1.50454 1.50439 1.50193 1.51135 1.51933 1.51469 1.50268 1.50794 1.50471 1.51266 1.51832 1.51375 1.51364 1.51317 1.50496 1.50862 1.51194 1.51351 1.5113 1.51217 1.51128 1.51693 1.51765 1.52063 1.52962 1.52905 1.52265 1.06304 1.11451 1.49319 1.52721 1.52897 1.53214 1.50466 1.52757 1.52654 1.52428 1.52345 1.50998 1.51521 1.49634 1.39218 1.15782 0.991621 0.965336 0.955791 0.950634 0.951943 0.9423 0.987914 0.946876 0.905467 0.892425 0.892096 0.889967 0.888114 0.870798 0.871867 0.871434 0.870685 0.875274 0.867346 0.861182 0.865126 0.864884 0.85538 0.860173 0.856 0.858972 0.857153 0.858602 0.848982 0.859065 0.853295 0.855878 0.853064 0.852028 0.855164 0.855594 0.853615 0.85132 0.852302 0.85297 0.851528 0.851866 0.863865 0.860282 0.86297 0.863847 0.863511 0.860765 0.861895 0.860017 0.85992 0.859209 0.858483 0.860134 0.855489 0.861296 0.862601 0.849544 0.861875 0.849093 0.850337 0.854848 0.850686 0.849793 0.849481 0.843191 0.853875 0.852321 0.844798 0.848573 0.849056 0.846549 0.848782 0.844462 0.85319 0.842013 0.844471 0.840686 0.843994 0.845208 0.842854 0.839302 0.840461 0.841009 0.836525 0.83851 0.83635 0.837704 0.836978 0.842986 0.835467 0.83644 0.845296 0.840657 0.841556 0.838636 0.832199 0.834783 0.839666 0.835502 0.83684 0.833509 0.833346 0.832579 0.831788 0.836452 0.832145 0.829547 0.830089 0.826295 0.82678 0.834957 0.831938 0.8269 0.83124 0.826154 0.828144 0.826976 0.822101 0.822288 0.816802 0.812143 0.822338 0.819009 0.815373 0.819242 0.816373 0.815694 0.813312 0.81366 0.821961
1.49878 1.48532 1.50069 1.50277 1.49063 1.49309 1.49324 1.49723 1.49864 1.49382 1.50294 1.5095 1.51121 1.51033 1.51249 1.51317 1.50754 1.5044 1.49662 1.50844 1.5131 1.51028 1.51226 1.50644 1.51435 1.52222 1.51566 1.51798 1.52227 0.967091 1.09515 1.5123 1.53442 1.52456 1.51901 1.51806 1.5124 1.50757 1.51846 1.52552 1.515 1.52024 1.51343 1.50774 1.49877 1.383 1.09336 0.959928 0.948888 0.948134 0.945291 0.92322 0.94012 0.980095 0.936924 0.928332 0.889777 0.886742 0.882202 0.86992 0.87127 0.86993 0.867679 0.866896 0.865202 0.864383 0.859973 0.860012 0.857353 0.858551 0.856453 0.852249 0.85877 0.859309 0.849979 0.845108 0.849481 0.852346 0.853404 0.852653 0.851289 0.853497 0.850906 0.851289 0.848966 0.851413 0.846368 0.849084 0.848794 0.848189 0.852057 0.860395 0.858848 0.859379 0.858698 0.861292 0.859684 0.859854 0.857917 0.855666 0.858181 0.852017 0.848827 0.860251 0.84897 0.849317 0.85621 0.840421 0.846982 0.844881 0.836511 0.844508 0.84385 0.845557 0.846948 0.844754 0.839576 0.840917 0.842537 0.833461 0.841273 0.841652 0.837869 0.838214 0.842976 0.838258 0.834709 0.836752 0.836119 0.833995 0.837448 0.835287 0.834873 0.84589 0.833985 0.835856 0.831552 0.83923 0.830504 0.832283 0.838702 0.828479 0.838334 0.829248 0.836419 0.831076 0.829487 0.831927 0.831445 0.833823 0.829826 0.829842 0.826955 0.826056 0.825417 0.824464 0.826911 0.822758 0.823143 0.826054 0.826934 0.826643 0.825753 0.822287 0.813441 0.81641 0.819048 0.81519 0.820261 0.806843 0.818236 0.803961 0.812174 0.813665 0.810685 0.804917
1.48004 1.49271 1.4855 1.4848 1.48789 1.46926 1.48719 1.49453 1.48953 1.49116 1.49776 1.49589 1.49676 1.50235 1.49943 1.50492 1.4959 1.49077 1.49949 1.49879 1.50943 1.50405 1.51147 1.5031 1.49493 1.49301 1.51666 1.49679 1.42891 0.971291 1.06654 1.46181 1.52039 1.52652 1.5111 1.50579 1.50188 1.51746 1.5088 1.51178 1.50652 1.50327 1.50056 1.50748 1.50264 1.49628 1.49605 1.32305 1.04578 0.955213 0.942944 0.939785 0.936601 0.935165 0.950859 0.97839 0.929836 0.888018 0.889414 0.880413 0.8699 0.881626 0.869286 0.869695 0.86652 0.86273 0.859813 0.859854 0.860474 0.856907 0.858686 0.855978 0.855042 0.858265 0.850435 0.844974 0.858 0.851909 0.851473 0.84923 0.852049 0.850074 0.848381 0.849362 0.84734 0.841119 0.849825 0.83909 0.842088 0.841484 0.843256 0.84322 0.859007 0.854756 0.856466 0.849796 0.859541 0.854036 0.858372 0.852539 0.857141 0.850385 0.860324 0.8604 0.847338 0.850069 0.845927 0.840282 0.845645 0.842652 0.843216 0.843467 0.839835 0.842431 0.847385 0.837767 0.842982 0.842241 0.840891 0.841896 0.839032 0.831123 0.835036 0.839814 0.835114 0.838077 0.837183 0.834797 0.830628 0.837336 0.836956 0.831561 0.834375 0.832471 0.832014 0.829781 0.830162 0.830814 0.829983 0.836131 0.829131 0.832019 0.834296 0.831025 0.824256 0.833125 0.830949 0.827308 0.824226 0.821415 0.826069 0.825794 0.825205 0.815126 0.823085 0.817267 0.815147 0.813572 0.8188 0.827386 0.817477 0.819741 0.818853 0.812008 0.81557 0.809245 0.809639 0.809152 0.816172 0.811969 0.814142 0.80238 0.804202 0.810671 0.806861 0.798068
1.47335 1.46953 1.47496 1.47675 1.47708 1.47871 1.48222 1.49596 1.48374 1.49236 1.49422 1.49377 1.48228 1.50082 1.4824 1.50935 1.48083 1.48109 1.48526 1.49622 1.49233 1.50436 1.50778 1.50716 1.49444 1.49713 1.50639 1.44624 1.1414 0.882217 0.981023 1.26871 1.50868 1.52698 1.50723 1.50542 1.50124 1.5037 1.50176 1.49363 1.49159 1.50091 1.50436 1.50162 1.49561 1.50276 1.49932 1.49348 1.48788 1.26583 1.00776 0.944502 0.949885 0.941967 0.935495 0.934612 0.945837 0.946695 0.922656 0.897385 0.881853 0.882009 0.877101 0.864155 0.863953 0.864328 0.860524 0.857891 0.861784 0.857032 0.852857 0.855512 0.856961 0.849158 0.846401 0.848696 0.847398 0.84489 0.849527 0.846391 0.8507 0.847831 0.841663 0.84115 0.845698 0.839781 0.846987 0.846712 0.842242 0.84134 0.842514 0.840089 0.836455 0.84236 0.856309 0.85233 0.857589 0.852685 0.857314 0.853276 0.848628 0.852016 0.849425 0.849204 0.845392 0.847225 0.838918 0.841316 0.843994 0.835945 0.839483 0.842705 0.835509 0.843151 0.842458 0.833443 0.843397 0.841765 0.830046 0.844079 0.835296 0.837742 0.836326 0.834598 0.832263 0.837287 0.836095 0.829585 0.833954 0.830064 0.829098 0.825178 0.831803 0.830191 0.826219 0.823403 0.82963 0.821225 0.827107 0.826544 0.81781 0.82797 0.827919 0.821171 0.820789 0.828777 0.824579 0.820942 0.821037 0.828304 0.82402 0.81455 0.823147 0.816511 0.819016 0.820912 0.807376 0.812068 0.819272 0.809395 0.81538 0.8182 0.816176 0.803698 0.81373 0.811896 0.806669 0.808134 0.805647 0.803965 0.80475 0.802439 0.810056 0.808207 0.801915 0.804124
1.46416 1.46748 1.46963 1.46068 1.47646 1.46981 1.4686 1.46703 1.47987 1.48514 1.47889 1.47871 1.48464 1.47674 1.48593 1.47759 1.47849 1.47932 1.48237 1.47854 1.47322 1.48237 1.48978 1.486 1.47643 1.4814 1.48174 1.15129 0.984931 0.890769 0.894502 0.972505 1.07093 1.47002 1.48708 1.49572 1.48398 1.48614 1.49672 1.47899 1.49271 1.49823 1.48998 1.49456 1.49676 1.49072 1.49197 1.49143 1.4879 1.48963 1.44247 1.18957 1.00528 0.949323 0.936667 0.939629 0.931639 0.924507 0.945457 0.946575 0.917756 0.881776 0.87658 0.87492 0.864338 0.86234 0.861808 0.859774 0.85891 0.860408 0.854157 0.856515 0.845761 0.848085 0.84563 0.850605 0.847224 0.842037 0.847266 0.839662 0.84665 0.844679 0.84299 0.846058 0.838969 0.836935 0.839361 0.83849 0.841184 0.841476 0.842052 0.833961 0.842859 0.834738 0.831973 0.846788 0.846078 0.839987 0.850576 0.840581 0.852326 0.844985 0.844779 0.846047 0.83688 0.848235 0.840826 0.844112 0.83965 0.841713 0.837816 0.835392 0.837108 0.839103 0.833962 0.831774 0.840235 0.829129 0.833406 0.830266 0.829182 0.831626 0.834935 0.831436 0.825859 0.832057 0.829394 0.827305 0.825493 0.82719 0.825343 0.831103 0.827456 0.820282 0.825971 0.829581 0.824113 0.827967 0.827712 0.823359 0.820446 0.817806 0.81689 0.815951 0.827148 0.817476 0.817043 0.818604 0.815237 0.816168 0.818217 0.814782 0.817631 0.816437 0.814075 0.81283 0.800166 0.807414 0.809782 0.809274 0.80534 0.803926 0.811224 0.803543 0.806528 0.802176 0.807316 0.801505 0.8124 0.796509 0.809785 0.799145 0.800666 0.800482 0.800803 0.802997
1.45658 1.46127 1.45849 1.46276 1.46862 1.46254 1.4619 1.46645 1.45925 1.48736 1.47975 1.47512 1.47685 1.4729 1.46774 1.47434 1.47355 1.47326 1.46668 1.46257 1.48113 1.47236 1.47434 1.4857 1.4833 1.48543 1.33603 1.05461 0.913344 0.883723 0.864955 0.933605 0.938791 1.16393 1.50171 1.49035 1.49518 1.49678 1.48059 1.48735 1.48241 1.48705 1.48261 1.48952 1.48324 1.48306 1.48666 1.48934 1.48935 1.48433 1.48427 1.46651 1.42691 1.16146 0.976151 0.948745 0.937524 0.927451 0.929762 0.916972 0.950611 0.940444 0.917214 0.881791 0.878341 0.860631 0.862476 0.85718 0.858397 0.854845 0.854246 0.852738 0.853295 0.84402 0.851386 0.843562 0.846435 0.839765 0.846479 0.843052 0.844375 0.843002 0.842209 0.837824 0.837298 0.83616 0.835902 0.832945 0.841002 0.837419 0.833225 0.841534 0.83284 0.834859 0.830904 0.833191 0.828313 0.835037 0.834597 0.837417 0.837541 0.83884 0.836849 0.843769 0.835501 0.84298 0.837956 0.845397 0.840343 0.83587 0.842068 0.834302 0.833939 0.83356 0.827535 0.829791 0.828772 0.833358 0.829643 0.828869 0.828669 0.83465 0.828217 0.828259 0.829461 0.828582 0.817979 0.83118 0.827601 0.819312 0.823626 0.825861 0.816949 0.819146 0.817226 0.818209 0.820918 0.816898 0.81694 0.818121 0.813178 0.815475 0.814845 0.815061 0.81612 0.811085 0.816134 0.807315 0.812303 0.813229 0.811541 0.81069 0.809813 0.810052 0.806836 0.809583 0.808877 0.807573 0.805958 0.804598 0.796144 0.800098 0.800905 0.801112 0.799878 0.802253 0.79871 0.800164 0.795726 0.79821 0.809234 0.798043 0.792927 0.802108 0.790599 0.799376
1.45032 1.45393 1.45527 1.45351 1.45524 1.46131 1.45903 1.46276 1.46115 1.46029 1.47191 1.46813 1.47099 1.45611 1.46809 1.46851 1.4683 1.47056 1.46145 1.46416 1.4725 1.47597 1.46857 1.47022 1.47183 1.46937 0.990032 1.03645 0.893898 0.857389 0.891623 0.933701 0.940334 1.05826 1.48152 1.49334 1.47846 1.47512 1.47754 1.47615 1.475 1.47527 1.4755 1.47919 1.48373 1.47684 1.47574 1.47169 1.47785 1.47783 1.47923 1.47973 1.4799 1.47473 1.35875 1.09696 0.949567 0.936564 0.935633 0.911042 0.915084 0.916152 0.95834 0.961761 0.885778 0.886465 0.864307 0.866137 0.858457 0.858175 0.857283 0.852512 0.852476 0.851829 0.850274 0.841566 0.844734 0.838667 0.844482 0.841952 0.842977 0.838034 0.841112 0.835243 0.839481 0.836261 0.834514 0.832751 0.830676 0.834541 0.831244 0.835079 0.83205 0.828708 0.830115 0.826149 0.82693 0.833648 0.828149 0.830372 0.836444 0.839822 0.825941 0.837016 0.830243 0.836823 0.833882 0.840129 0.831815 0.838323 0.836507 0.831415 0.844383 0.829191 0.826132 0.832525 0.823224 0.828396 0.828819 0.824797 0.824302 0.825263 0.826206 0.825362 0.822147 0.823622 0.819787 0.82651 0.82 0.817877 0.820719 0.820608 0.819308 0.816528 0.815192 0.814128 0.807801 0.817182 0.813146 0.812872 0.813736 0.811096 0.806702 0.812993 0.81289 0.808435 0.81405 0.808977 0.801879 0.805679 0.809155 0.804293 0.799415 0.807651 0.807854 0.806603 0.798505 0.798912 0.802966 0.800472 0.802185 0.797942 0.796491 0.79501 0.798541 0.799225 0.795681 0.79629 0.794077 0.793497 0.79094 0.791113 0.793447 0.79765 0.794382 0.784516
1.44648 1.44327 1.44242 1.44533 1.45669 1.45561 1.44755 1.44961 1.45299 1.45493 1.45763 1.45999 1.47236 1.46313 1.46643 1.45955 1.45258 1.47459 1.45761 1.46061 1.46328 1.47072 1.46334 1.47269 1.46376 1.33927 1.14311 1.02948 0.906613 0.877356 0.864395 0.929159 0.95569 1.32361 1.46249 1.49195 1.47623 1.47232 1.47446 1.46958 1.47047 1.46987 1.47361 1.48227 1.4728 1.47555 1.47359 1.47335 1.47307 1.4798 1.47975 1.47026 1.47043 1.47792 1.47126 1.47133 1.35585 1.09365 0.948254 0.928421 0.915341 0.916412 0.914804 0.90933 0.953845 0.918444 0.906986 0.886907 0.868278 0.858216 0.858513 0.849892 0.853418 0.846539 0.845283 0.845495 0.842126 0.84082 0.84128 0.841726 0.844832 0.840192 0.839104 0.834431 0.835691 0.836341 0.830431 0.834323 0.830464 0.832243 0.831032 0.828615 0.830051 0.831472 0.827226 0.825047 0.825827 0.826295 0.827044 0.8254 0.824335 0.826226 0.825131 0.82699 0.824974 0.829174 0.828906 0.828919 0.826841 0.833342 0.833897 0.832659 0.830221 0.828656 0.82885 0.824593 0.826232 0.825785 0.828862 0.821596 0.821395 0.818819 0.823293 0.818919 0.822174 0.814538 0.817461 0.823 0.813858 0.816424 0.823355 0.816513 0.816381 0.818563 0.811389 0.817608 0.80895 0.815987 0.808175 0.811962 0.808183 0.809888 0.807228 0.811483 0.80849 0.806343 0.809068 0.803137 0.803223 0.805289 0.807322 0.802744 0.803861 0.802095 0.79945 0.798771 0.801469 0.802427 0.799955 0.79774 0.794936 0.797734 0.793184 0.793101 0.789624 0.791708 0.792073 0.789338 0.790738 0.791814 0.784551 0.788862 0.790632 0.789605 0.788263 0.783328
1.44014 1.43941 1.44432 1.43437 1.43419 1.44933 1.45094 1.43949 1.45035 1.45035 1.44973 1.45265 1.44797 1.45636 1.45546 1.45337 1.45233 1.45629 1.45315 1.44994 1.45572 1.4521 1.45609 1.4606 1.4511 1.05985 0.885567 0.906847 0.852193 0.864527 0.94699 0.953087 1.17497 1.40167 1.4865 1.47288 1.47511 1.46861 1.46756 1.46734 1.46621 1.46649 1.46935 1.46373 1.46768 1.46372 1.46907 1.46445 1.4709 1.46649 1.46791 1.47251 1.4677 1.46666 1.47824 1.46626 1.46571 1.45953 1.3422 1.06134 0.953635 0.926684 0.919474 0.915784 0.916211 0.907451 0.955771 0.957639 0.888421 0.870974 0.870387 0.861484 0.859972 0.848654 0.851554 0.843756 0.84989 0.843838 0.839252 0.835243 0.835375 0.834007 0.833217 0.831817 0.830699 0.829565 0.830793 0.832304 0.827558 0.82666 0.826341 0.832546 0.829522 0.824404 0.824322 0.827492 0.827974 0.824578 0.82592 0.82398 0.81787 0.823617 0.820149 0.815184 0.821474 0.825077 0.826883 0.834893 0.826002 0.826574 0.831567 0.827667 0.83351 0.826918 0.83095 0.824037 0.825966 0.823452 0.823577 0.821621 0.820827 0.820311 0.816837 0.821576 0.812489 0.818069 0.811892 0.814788 0.812683 0.813195 0.809594 0.810067 0.808477 0.806285 0.807863 0.805342 0.808038 0.806059 0.806093 0.809292 0.805223 0.803453 0.809463 0.806489 0.799175 0.796747 0.798611 0.796712 0.797085 0.79428 0.802035 0.802316 0.794299 0.793393 0.793882 0.795474 0.793913 0.799115 0.794946 0.797244 0.796122 0.788787 0.787894 0.790889 0.788526 0.788365 0.78427 0.791264 0.787377 0.790105 0.781463 0.788238 0.780376 0.787857 0.788967 0.781567
1.43186 1.43713 1.4325 1.42723 1.42952 1.43036 1.41791 1.43872 1.43133 1.44075 1.44541 1.42162 1.45206 1.45348 1.4512 1.45669 1.44865 1.45094 1.44838 1.44942 1.44644 1.4519 1.44994 1.45104 1.22548 0.927643 0.868742 0.850242 0.843685 0.864889 0.922574 0.974917 1.36577 1.42851 1.48646 1.45554 1.46065 1.44547 1.45571 1.46391 1.46278 1.45871 1.46215 1.47226 1.46894 1.46558 1.46101 1.46545 1.46606 1.46342 1.46103 1.46886 1.46435 1.47388 1.46137 1.46262 1.46238 1.44768 1.46796 1.44788 1.29747 1.03777 0.933257 0.922496 0.916727 0.919206 0.915166 0.907261 0.956127 0.927479 0.891984 0.867109 0.86412 0.848668 0.857198 0.846151 0.842198 0.84149 0.847292 0.840619 0.846688 0.839684 0.838006 0.837796 0.832227 0.829017 0.834401 0.827299 0.826715 0.824927 0.827578 0.828135 0.823333 0.823563 0.827339 0.822492 0.825644 0.818691 0.821218 0.824322 0.821775 0.819213 0.817527 0.823826 0.816183 0.815043 0.815961 0.82219 0.823073 0.81832 0.822718 0.824732 0.824956 0.823392 0.824467 0.827294 0.820963 0.832004 0.821225 0.829569 0.831415 0.818838 0.819183 0.8154 0.812776 0.818931 0.818614 0.808327 0.814998 0.808197 0.812775 0.807113 0.80727 0.808571 0.804903 0.814299 0.804491 0.799031 0.805441 0.810367 0.801958 0.802208 0.803877 0.798024 0.800796 0.801235 0.799638 0.80404 0.79609 0.798143 0.800734 0.792737 0.793277 0.793218 0.793981 0.792726 0.791726 0.798045 0.796976 0.792779 0.79306 0.789938 0.78287 0.789771 0.77624 0.77442 0.787578 0.790103 0.77514 0.784504 0.785518 0.779335 0.776155 0.78225 0.787452 0.779507
1.42761 1.43099 1.43211 1.43015 1.42316 1.42896 1.42837 1.42523 1.43414 1.42115 1.43966 1.42593 1.43602 1.44217 1.43906 1.44791 1.44438 1.44921 1.45173 1.45731 1.4555 1.45504 1.4463 1.44827 1.28556 0.966008 0.888429 0.860853 0.842891 0.921912 0.960688 1.17866 1.36552 1.48172 1.47715 1.46128 1.4511 1.46137 1.46006 1.46072 1.457 1.46165 1.45435 1.45456 1.45386 1.45137 1.45526 1.45882 1.45885 1.46382 1.45851 1.46195 1.45393 1.46375 1.46152 1.45955 1.46166 1.46226 1.45166 1.44661 1.44917 1.44582 1.29742 1.03768 0.926363 0.918517 0.913893 0.910429 0.909307 0.904915 0.952548 0.930086 0.89191 0.858429 0.856 0.85296 0.845756 0.847718 0.846108 0.845074 0.83602 0.837324 0.835055 0.83277 0.830172 0.831414 0.829378 0.825547 0.826742 0.826143 0.823749 0.822822 0.829888 0.82122 0.820545 0.821633 0.812922 0.81072 0.819172 0.814865 0.82417 0.818944 0.811632 0.816445 0.813841 0.814181 0.813617 0.812152 0.813331 0.811538 0.812389 0.813813 0.818759 0.818671 0.817092 0.822274 0.822427 0.824034 0.820621 0.819546 0.819924 0.808832 0.818275 0.814199 0.817142 0.810107 0.808914 0.808289 0.807353 0.80815 0.805134 0.805891 0.806044 0.802975 0.804251 0.803179 0.798317 0.800977 0.803318 0.802741 0.801563 0.800941 0.805195 0.79675 0.7975 0.795351 0.796049 0.792709 0.794214 0.792259 0.791423 0.790846 0.788819 0.789324 0.789798 0.788258 0.787539 0.792152 0.785167 0.788015 0.785486 0.786573 0.784824 0.778298 0.779006 0.786069 0.771418 0.772297 0.772304 0.777234 0.769717 0.762741 0.772736 0.774442 0.781274 0.772525
1.41953 1.41721 1.41942 1.42482 1.42551 1.41572 1.41897 1.42602 1.42475 1.41123 1.42445 1.42156 1.4208 1.44506 1.43332 1.43909 1.44735 1.44461 1.44068 1.44541 1.44699 1.43438 1.44319 1.41739 1.34346 0.960734 0.880982 0.894791 0.934022 0.958173 1.0568 1.08827 1.03597 1.32667 1.45631 1.44246 1.44526 1.44716 1.43775 1.45432 1.44134 1.43873 1.44652 1.44935 1.44604 1.4485 1.45065 1.44955 1.4557 1.45074 1.46034 1.44478 1.44701 1.44745 1.45547 1.45263 1.4518 1.44331 1.44828 1.44559 1.44727 1.44717 1.44496 1.42329 1.261 1.02129 0.920857 0.925369 0.913335 0.901274 0.895685 0.899826 0.934988 0.924324 0.881694 0.854704 0.851357 0.845031 0.844312 0.842984 0.83927 0.83554 0.832681 0.82951 0.831951 0.832304 0.829381 0.824073 0.823786 0.824965 0.822276 0.819869 0.820706 0.820638 0.819371 0.819865 0.816494 0.817253 0.813556 0.812509 0.813815 0.82457 0.81608 0.809057 0.815029 0.813889 0.81362 0.810973 0.809787 0.809471 0.809729 0.814983 0.807543 0.807752 0.805883 0.821361 0.810335 0.821056 0.819408 0.818332 0.819293 0.815835 0.818225 0.807706 0.809768 0.808006 0.807104 0.807936 0.806704 0.80458 0.80477 0.806685 0.80276 0.804632 0.804447 0.796701 0.79648 0.79942 0.802043 0.801461 0.802587 0.791584 0.789504 0.795167 0.793325 0.792323 0.791297 0.791677 0.791459 0.791498 0.790655 0.78751 0.788321 0.786264 0.787298 0.788298 0.784182 0.783148 0.780396 0.783798 0.794443 0.786266 0.781156 0.779931 0.773387 0.77183 0.779385 0.770001 0.773309 0.777664 0.766022 0.772482 0.781056 0.769082 0.767734 0.775306
1.41465 1.40992 1.41621 1.41754 1.4076 1.41121 1.4186 1.39763 1.42497 1.41315 1.41919 1.42879 1.42808 1.41978 1.42253 1.4283 1.42451 1.41363 0.968531 1.2349 1.30518 1.34205 1.41432 1.15099 1.10258 1.00826 0.985572 0.908105 1.02659 1.19449 1.12575 0.95113 0.8672 0.924827 1.23431 1.4435 1.44487 1.45515 1.44202 1.43142 1.4358 1.44333 1.43982 1.43917 1.44516 1.44531 1.44833 1.44141 1.44844 1.44028 1.44403 1.4463 1.44415 1.43933 1.43915 1.4407 1.44193 1.43901 1.43607 1.44835 1.44211 1.43818 1.43863 1.4364 1.43532 1.43126 1.25157 1.02779 0.920573 0.919739 0.896165 0.89322 0.895274 0.895245 0.938331 0.902816 0.887662 0.857997 0.844567 0.855072 0.842787 0.837879 0.833249 0.830082 0.831041 0.82873 0.829659 0.826724 0.821702 0.823175 0.828777 0.823708 0.822472 0.823291 0.821432 0.8166 0.817373 0.814582 0.815324 0.814277 0.809667 0.812432 0.810748 0.814661 0.814126 0.81151 0.812125 0.809184 0.808883 0.807387 0.80558 0.809649 0.800451 0.80272 0.804087 0.811315 0.800009 0.810134 0.803795 0.81739 0.807794 0.805223 0.818444 0.809688 0.807356 0.807931 0.807609 0.806101 0.803119 0.800121 0.805837 0.805709 0.796265 0.796684 0.798239 0.797743 0.793464 0.79264 0.792661 0.792083 0.790905 0.793736 0.792798 0.794135 0.791715 0.791567 0.791107 0.786908 0.788969 0.788148 0.78787 0.782735 0.786379 0.784884 0.784494 0.784639 0.780524 0.785113 0.77898 0.782368 0.78235 0.780901 0.777747 0.775126 0.780812 0.772297 0.780656 0.766575 0.767943 0.76624 0.766422 0.767108 0.766927 0.760438 0.775672 0.76395
1.3922 1.40394 1.40047 1.39419 1.40495 1.40338 1.4094 1.40274 1.41578 1.41226 1.41251 1.40799 1.42085 1.41702 1.41311 1.41246 1.41342 1.38997 1.01532 0.90783 0.976626 1.01151 1.18055 1.02411 1.26355 0.966006 0.980789 1.03397 1.17869 1.24734 1.26044 1.26009 0.888371 0.887767 0.86819 1.10226 1.39841 1.43974 1.44738 1.44085 1.44149 1.43746 1.4276 1.43593 1.43032 1.43859 1.43987 1.43267 1.43999 1.43591 1.43821 1.43727 1.43688 1.4382 1.43687 1.43988 1.43877 1.4385 1.43644 1.43024 1.44132 1.43711 1.43403 1.43446 1.43191 1.43315 1.43349 1.42201 1.24615 1.01032 0.921673 0.914319 0.900749 0.901018 0.899794 0.889106 0.920616 0.914913 0.888219 0.854407 0.854842 0.841372 0.846797 0.834768 0.829816 0.828394 0.828435 0.827573 0.828174 0.820185 0.824302 0.815691 0.819186 0.818231 0.811054 0.815979 0.813501 0.812485 0.80909 0.811588 0.805802 0.806201 0.804814 0.804592 0.810254 0.812358 0.809728 0.806494 0.804424 0.806168 0.805244 0.806658 0.802468 0.802967 0.79346 0.801857 0.799663 0.799507 0.807541 0.792112 0.800983 0.800756 0.800802 0.807259 0.805219 0.806665 0.806339 0.808034 0.80272 0.80292 0.8031 0.801807 0.795563 0.796555 0.795787 0.792684 0.794188 0.791337 0.791929 0.79048 0.790162 0.785796 0.790316 0.790786 0.791515 0.788499 0.785464 0.784122 0.782471 0.780228 0.774554 0.784754 0.78413 0.784893 0.779975 0.778988 0.776847 0.781986 0.772209 0.769432 0.773897 0.775521 0.771534 0.773084 0.773204 0.770794 0.770288 0.780772 0.769439 0.764975 0.761584 0.762264 0.762624 0.762394 0.77541 0.76261
1.37514 1.38118 1.38798 1.4007 1.39299 1.39034 1.38897 1.38778 1.40106 1.39782 1.41572 1.40958 1.39864 1.40978 1.40449 1.41053 1.40621 1.40404 1.39397 1.29629 1.12827 1.08261 1.01505 1.0562 1.0293 1.00143 1.11551 1.02512 1.25894 1.40793 1.41069 1.40542 1.39694 0.98246 0.889086 0.861747 0.960152 1.32106 1.42244 1.42513 1.4249 1.42665 1.42345 1.43265 1.42618 1.42894 1.42906 1.41665 1.42599 1.42803 1.42683 1.43871 1.422 1.42887 1.43366 1.43346 1.42505 1.4318 1.42184 1.43059 1.42583 1.43013 1.43146 1.43189 1.43111 1.42707 1.42211 1.42477 1.42298 1.39115 1.24356 1.01162 0.920621 0.902628 0.905239 0.891029 0.888 0.887608 0.919652 0.924837 0.88367 0.872581 0.849664 0.836174 0.835656 0.828922 0.827487 0.828988 0.825454 0.823971 0.821291 0.823026 0.820019 0.810207 0.818981 0.816224 0.810206 0.810075 0.810225 0.810063 0.809591 0.804091 0.805357 0.802482 0.802243 0.805523 0.800541 0.800843 0.800247 0.801105 0.797831 0.803064 0.794471 0.797906 0.797799 0.798849 0.794897 0.795326 0.795152 0.79613 0.80557 0.791016 0.796029 0.807438 0.804521 0.804795 0.801263 0.807028 0.80346 0.798135 0.804117 0.793539 0.800922 0.794665 0.792736 0.7931 0.794019 0.787128 0.788292 0.787993 0.785946 0.786463 0.785233 0.782551 0.778991 0.779985 0.780664 0.783024 0.780514 0.778552 0.775432 0.782489 0.7779 0.776401 0.772057 0.77051 0.781302 0.769581 0.768229 0.767967 0.765718 0.769291 0.769758 0.764636 0.77002 0.764566 0.774264 0.764341 0.76513 0.759846 0.765205 0.756858 0.759391 0.759152 0.765638 0.759619
1.37448 1.37892 1.37979 1.39141 1.37803 1.39089 1.38928 1.39387 1.39292 1.39299 1.39849 1.39704 1.39994 1.39308 1.40417 1.39632 1.40315 1.40547 1.40158 1.39874 1.30803 1.09052 0.983122 0.925798 0.965377 1.01748 0.977105 0.994709 1.23441 1.45057 1.40927 1.40915 1.4067 1.40048 1.18868 0.888932 0.862153 0.9002 1.16375 1.42035 1.42157 1.42592 1.42158 1.4302 1.42173 1.41841 1.42143 1.4102 1.4233 1.41053 1.43172 1.4209 1.42837 1.42038 1.42197 1.43169 1.42592 1.42887 1.42449 1.42211 1.42029 1.42166 1.42123 1.42606 1.42587 1.41626 1.42012 1.42336 1.41218 1.41448 1.40382 1.40989 1.26881 1.01488 0.917124 0.90264 0.889899 0.887446 0.885565 0.886613 0.915649 0.92964 0.884347 0.864094 0.845885 0.83562 0.828582 0.827133 0.827142 0.827431 0.827704 0.816752 0.827612 0.819579 0.820379 0.817329 0.811612 0.809417 0.80986 0.81176 0.803333 0.802257 0.800871 0.80153 0.802467 0.804271 0.800469 0.804591 0.798408 0.801613 0.794522 0.799748 0.794098 0.792247 0.793313 0.795825 0.795096 0.797277 0.800314 0.789887 0.790552 0.793534 0.798827 0.791269 0.796227 0.789807 0.799664 0.794084 0.795753 0.80204 0.795251 0.794825 0.792931 0.795645 0.786203 0.794933 0.783159 0.790965 0.788953 0.788358 0.779132 0.783374 0.784432 0.780316 0.781039 0.776886 0.778414 0.774506 0.768592 0.77827 0.768913 0.773131 0.775612 0.773544 0.774549 0.772146 0.766071 0.770628 0.767866 0.767872 0.763663 0.768612 0.763236 0.766433 0.761284 0.762188 0.763876 0.765241 0.763544 0.759077 0.76141 0.75416 0.757764 0.759139 0.756675 0.74609
1.3598 1.36343 1.3624 1.37345 1.37146 1.37073 1.37564 1.37831 1.38611 1.39085 1.38675 1.38751 1.38544 1.38661 1.39049 1.3896 1.39225 1.39513 1.39628 1.39457 1.3928 1.35197 1.03893 0.908615 0.860731 0.971055 1.02626 0.993513 1.24621 1.40529 1.40808 1.40626 1.40469 1.39649 1.3988 1.33612 0.911945 0.891204 0.872686 1.01968 1.37849 1.41881 1.42342 1.41992 1.4181 1.40612 1.41579 1.40922 1.40868 1.40724 1.40954 1.41733 1.41229 1.41624 1.41666 1.41647 1.41741 1.42182 1.41891 1.41128 1.41823 1.41492 1.42533 1.42313 1.41298 1.41775 1.4131 1.4184 1.40928 1.41159 1.40916 1.41082 1.40952 1.40348 1.27125 1.01891 0.918541 0.894028 0.884499 0.891729 0.878922 0.879051 0.894184 0.928744 0.887585 0.863489 0.854105 0.829383 0.830276 0.824672 0.822882 0.819603 0.822495 0.8292 0.822634 0.814286 0.817703 0.808149 0.812417 0.80931 0.808836 0.811288 0.80343 0.80291 0.797965 0.79859 0.793618 0.793331 0.788331 0.789774 0.793252 0.794658 0.791943 0.789801 0.793497 0.791614 0.793516 0.789262 0.789376 0.787721 0.789258 0.78786 0.787027 0.785887 0.793456 0.788204 0.787878 0.787824 0.792099 0.789393 0.794488 0.78914 0.792738 0.78707 0.789466 0.788378 0.784967 0.788153 0.79016 0.784392 0.777181 0.784274 0.779031 0.77292 0.779061 0.776331 0.771021 0.776209 0.77086 0.772012 0.764082 0.777328 0.769918 0.768414 0.766041 0.767011 0.768506 0.766048 0.764124 0.763008 0.762418 0.759296 0.761416 0.762383 0.759169 0.759786 0.758987 0.762265 0.755087 0.754727 0.760047 0.75497 0.762345 0.75341 0.750139 0.75168
1.34592 1.35652 1.36224 1.37168 1.37269 1.36983 1.38074 1.38018 1.38062 1.38592 1.38431 1.37905 1.38581 1.38038 1.38206 1.3978 1.40271 1.39144 1.39706 1.39762 1.39364 1.36942 1.36022 0.999082 0.91737 0.952639 1.17573 1.23488 1.3457 1.39922 1.39718 1.39595 1.4032 1.39275 1.3945 1.39278 1.38329 1.08042 0.91131 0.858352 0.956704 1.25719 1.41513 1.41826 1.42194 1.41057 1.40261 1.40559 1.40536 1.40827 1.39897 1.40472 1.41102 1.40916 1.41249 1.40532 1.41791 1.40338 1.41505 1.41152 1.40737 1.40874 1.41505 1.407 1.41296 1.4186 1.40694 1.40813 1.40694 1.40661 1.40712 1.40556 1.40543 1.40732 1.40655 1.4034 1.28238 1.03401 0.918688 0.882987 0.887841 0.877384 0.880144 0.87465 0.885026 0.927754 0.888958 0.858676 0.832201 0.828075 0.830995 0.826543 0.819427 0.820828 0.821624 0.81358 0.810815 0.810388 0.809651 0.798317 0.811363 0.810578 0.803022 0.802207 0.797854 0.80053 0.800548 0.794685 0.794085 0.789075 0.793424 0.790434 0.790648 0.790846 0.788979 0.790603 0.791624 0.788248 0.787484 0.787868 0.784446 0.787707 0.78978 0.785436 0.780498 0.782225 0.78393 0.7888 0.784665 0.777333 0.78734 0.788065 0.789633 0.789446 0.786069 0.788432 0.782143 0.779004 0.785599 0.777258 0.780645 0.781427 0.773332 0.779488 0.770226 0.775749 0.772711 0.77249 0.770259 0.76433 0.766297 0.769356 0.768717 0.76833 0.769316 0.75906 0.757757 0.761173 0.760919 0.758407 0.75948 0.760513 0.759015 0.756382 0.76006 0.757359 0.758471 0.758717 0.754003 0.7569 0.752127 0.750316 0.75713 0.753336 0.755977 0.753185
1.33871 1.34501 1.35636 1.35503 1.36009 1.36644 1.36731 1.36457 1.37074 1.37767 1.37471 1.36342 1.37044 1.37852 1.3885 1.38129 1.37871 1.38132 1.37581 1.38165 1.3707 1.38229 1.3611 1.2138 1.02522 1.07329 1.29313 1.36452 1.39875 1.39481 1.38202 1.38873 1.38518 1.39267 1.38474 1.3913 1.37898 1.37002 1.26678 0.918462 0.883018 0.890276 1.06489 1.39613 1.41593 1.40141 1.40212 1.40164 1.39592 1.40491 1.39882 1.40109 1.40275 1.40234 1.40306 1.40317 1.41109 1.39455 1.40824 1.40268 1.40437 1.40078 1.403 1.40139 1.40588 1.40655 1.40865 1.40633 1.40515 1.4057 1.40622 1.40729 1.40687 1.40555 1.39598 1.39283 1.39817 1.39702 1.30276 1.07923 0.924322 0.894201 0.894905 0.884425 0.870987 0.868109 0.871387 0.928725 0.88994 0.864951 0.841122 0.831678 0.829859 0.819797 0.817066 0.813438 0.817432 0.81436 0.810686 0.809933 0.801533 0.808966 0.803178 0.802948 0.802703 0.792476 0.796011 0.800404 0.795995 0.788939 0.79328 0.788828 0.789625 0.788358 0.785324 0.78782 0.785046 0.780799 0.78324 0.780129 0.781367 0.784912 0.784655 0.784961 0.782636 0.780295 0.777938 0.778459 0.777224 0.785507 0.777009 0.784947 0.769794 0.786031 0.784669 0.770931 0.780736 0.779602 0.777014 0.783849 0.774928 0.781415 0.773038 0.768642 0.772193 0.772869 0.77068 0.76592 0.764257 0.764265 0.768192 0.768136 0.762709 0.763163 0.764144 0.762572 0.753713 0.759348 0.757972 0.7549 0.755964 0.755327 0.755485 0.752574 0.752661 0.750789 0.752446 0.748862 0.751797 0.750869 0.749629 0.745374 0.745686 0.741101 0.742675 0.750894
1.33705 1.34231 1.34321 1.35532 1.35959 1.36272 1.35549 1.35412 1.36653 1.36257 1.35715 1.37244 1.36166 1.37661 1.3673 1.37279 1.36856 1.36924 1.37901 1.38125 1.36616 1.37971 1.37479 1.36783 1.186 1.10134 1.27951 1.38124 1.40191 1.39093 1.38949 1.38148 1.38163 1.38259 1.38151 1.38351 1.38633 1.37626 1.37842 1.37081 1.0187 0.907625 0.86923 0.95922 1.31896 1.39942 1.40244 1.39736 1.39281 1.39862 1.39457 1.39134 1.39647 1.39839 1.40028 1.39488 1.39524 1.39267 1.39791 1.39382 1.39318 1.39747 1.39735 1.39487 1.39294 1.39448 1.39073 1.38929 1.39308 1.40065 1.39766 1.38791 1.39042 1.39524 1.37924 1.3925 1.38904 1.39874 1.38877 1.38698 1.30889 1.09021 0.925153 0.885638 0.883664 0.868171 0.872031 0.865894 0.8888 0.899948 0.891998 0.864952 0.841708 0.831657 0.818364 0.81826 0.814034 0.812431 0.808761 0.811233 0.804893 0.799713 0.802136 0.798098 0.800195 0.792907 0.795264 0.794969 0.794659 0.789363 0.789021 0.790706 0.787119 0.789645 0.786902 0.780355 0.781663 0.783824 0.781601 0.779072 0.780305 0.77571 0.779808 0.775183 0.777788 0.775159 0.778011 0.77708 0.770355 0.774009 0.770139 0.769137 0.771568 0.770235 0.783818 0.780997 0.771853 0.779024 0.773859 0.774395 0.771766 0.773109 0.767876 0.77116 0.769298 0.765997 0.767209 0.765562 0.765868 0.761916 0.763858 0.758175 0.760339 0.757421 0.75616 0.754592 0.757457 0.750539 0.753057 0.75165 0.753257 0.749851 0.748075 0.753422 0.746354 0.7464 0.748321 0.747737 0.749564 0.741022 0.746022 0.741225 0.744764 0.736676 0.751382 0.748307
1.33028 1.33181 1.33111 1.34829 1.35849 1.34789 1.35176 1.36152 1.35169 1.35372 1.36905 1.35211 1.35366 1.35405 1.36207 1.36729 1.36888 1.3718 1.36773 1.36608 1.36882 1.35785 1.36716 1.37197 1.29467 1.19209 1.16249 1.36379 1.3957 1.376 1.37767 1.37788 1.37549 1.37561 1.37965 1.38992 1.38193 1.38472 1.37663 1.37733 1.36797 1.23969 0.908944 0.882893 0.882047 1.12936 1.39495 1.39939 1.3963 1.38883 1.37901 1.39082 1.39451 1.38717 1.3963 1.39207 1.39302 1.39017 1.38873 1.39046 1.38837 1.39498 1.39429 1.39036 1.38552 1.39377 1.38508 1.39707 1.39415 1.38447 1.3847 1.38519 1.37893 1.3855 1.38532 1.39184 1.39746 1.389 1.39486 1.38868 1.37661 1.38414 1.33128 1.14092 0.946989 0.88462 0.887891 0.870623 0.874151 0.860952 0.866498 0.90515 0.895709 0.847271 0.847766 0.833007 0.829662 0.814876 0.811795 0.806062 0.806171 0.800117 0.802828 0.802888 0.798838 0.791557 0.797416 0.79449 0.792425 0.793263 0.786207 0.790221 0.784304 0.788572 0.788741 0.783363 0.780882 0.782455 0.779651 0.778864 0.774287 0.775787 0.780744 0.774092 0.777557 0.775794 0.76968 0.765576 0.769535 0.769432 0.767293 0.768876 0.766987 0.76795 0.764301 0.765793 0.769549 0.774418 0.769828 0.775779 0.777702 0.774474 0.770375 0.765977 0.766666 0.764214 0.764567 0.762069 0.760396 0.759543 0.755291 0.757477 0.757104 0.755023 0.753756 0.753854 0.754755 0.74923 0.744244 0.746441 0.746107 0.751253 0.748637 0.744621 0.74579 0.742267 0.738445 0.744948 0.744044 0.743915 0.743474 0.740292 0.74058 0.736525 0.736996 0.743022
1.32559 1.31995 1.331 1.33802 1.3329 1.33656 1.33853 1.34476 1.34253 1.35027 1.34817 1.35063 1.34481 1.35398 1.36393 1.36836 1.34792 1.36103 1.35504 1.36559 1.35863 1.36243 1.36423 1.36682 1.35006 1.25645 1.29995 1.36264 1.37932 1.36838 1.3647 1.37169 1.37272 1.37228 1.37292 1.36955 1.37835 1.37118 1.37735 1.37493 1.36988 1.36565 1.35106 0.985882 0.910846 0.866937 0.990777 1.32397 1.39339 1.38134 1.3799 1.37958 1.38644 1.38374 1.38592 1.3788 1.38526 1.38502 1.3862 1.38706 1.38324 1.38636 1.38509 1.38699 1.38274 1.38196 1.38755 1.37563 1.38145 1.38609 1.38399 1.38448 1.3756 1.37545 1.37585 1.38617 1.38681 1.39152 1.37982 1.37746 1.38208 1.38258 1.38306 1.37677 1.34411 1.16593 0.973357 0.889657 0.869466 0.872972 0.866214 0.855049 0.855576 0.890332 0.895796 0.868174 0.842882 0.836304 0.817427 0.817256 0.819114 0.800788 0.804369 0.805011 0.804467 0.800988 0.798078 0.800112 0.791921 0.792464 0.790367 0.789129 0.787874 0.787185 0.786478 0.783721 0.780948 0.778451 0.77971 0.778049 0.773475 0.774969 0.774416 0.774134 0.771521 0.766872 0.768845 0.764166 0.767826 0.767143 0.768452 0.769451 0.765835 0.78055 0.761135 0.760905 0.761509 0.75638 0.759793 0.76887 0.768229 0.773531 0.769998 0.761914 0.767126 0.768058 0.763597 0.763348 0.760539 0.755741 0.758786 0.751426 0.755527 0.754277 0.754952 0.752531 0.749529 0.749556 0.748717 0.748677 0.747221 0.746837 0.745043 0.744316 0.736987 0.743573 0.744097 0.739959 0.737424 0.741351 0.7382 0.736096 0.735838 0.734463 0.739727 0.735323
1.31821 1.31711 1.31911 1.32103 1.3253 1.33701 1.33686 1.33771 1.34119 1.34433 1.34633 1.33846 1.34139 1.34892 1.34353 1.35205 1.35366 1.36155 1.36388 1.35232 1.35701 1.35971 1.36292 1.36079 1.36166 1.34878 1.34981 1.36032 1.36041 1.36608 1.36186 1.36068 1.35718 1.36381 1.37438 1.37471 1.37217 1.37184 1.36692 1.36365 1.37174 1.37124 1.37298 1.37469 1.19246 0.910628 0.879067 0.912918 1.15813 1.37755 1.40291 1.38936 1.37402 1.37161 1.38101 1.3794 1.38007 1.38216 1.37957 1.3758 1.38011 1.38091 1.37877 1.38038 1.37672 1.3774 1.37047 1.36934 1.37516 1.36959 1.37303 1.38052 1.37486 1.37647 1.37629 1.37842 1.3706 1.36771 1.36946 1.38433 1.38107 1.3766 1.37795 1.37285 1.37999 1.37746 1.35677 1.22525 1.01505 0.90803 0.868243 0.865862 0.865511 0.866311 0.848095 0.870488 0.891688 0.874592 0.83733 0.835985 0.81915 0.818359 0.809382 0.816729 0.796349 0.805993 0.797837 0.800739 0.792556 0.793387 0.789252 0.788013 0.788501 0.786937 0.78042 0.782309 0.780697 0.778779 0.780321 0.778948 0.774664 0.772969 0.772124 0.76924 0.767206 0.765445 0.76741 0.768489 0.763506 0.766269 0.766709 0.764833 0.764371 0.759022 0.758523 0.757145 0.757744 0.764019 0.758584 0.748304 0.753644 0.755542 0.76081 0.760379 0.761337 0.759725 0.761471 0.760652 0.762055 0.754727 0.756355 0.756271 0.755598 0.752107 0.751937 0.750067 0.74623 0.74874 0.745403 0.743975 0.741691 0.744874 0.740605 0.742061 0.740469 0.733395 0.739361 0.737937 0.737288 0.727962 0.726177 0.734566 0.734025 0.731034 0.737609 0.7332
1.30364 1.30546 1.31384 1.31738 1.31899 1.31918 1.32359 1.3317 1.33519 1.33537 1.33819 1.33823 1.33002 1.3299 1.33107 1.33519 1.35217 1.33696 1.34891 1.34594 1.35091 1.36277 1.35323 1.35111 1.34586 1.35365 1.34604 1.34702 1.36002 1.35615 1.35588 1.35668 1.35236 1.36125 1.37323 1.35518 1.35886 1.36961 1.36215 1.36515 1.36726 1.37048 1.35996 1.37053 1.33817 1.33204 0.994901 0.911506 0.870421 1.0048 1.34067 1.38006 1.38635 1.37042 1.37087 1.36869 1.37283 1.3674 1.368 1.37263 1.37288 1.37977 1.37358 1.37577 1.37793 1.37832 1.37693 1.36563 1.37145 1.37608 1.37777 1.37798 1.36767 1.37015 1.36881 1.37386 1.37713 1.36929 1.36608 1.37218 1.37563 1.37468 1.37486 1.36976 1.37398 1.3697 1.37765 1.36602 1.35406 1.27581 1.09534 0.930336 0.88152 0.867138 0.860914 0.850587 0.849876 0.868401 0.888361 0.884672 0.850063 0.835855 0.816976 0.81586 0.813562 0.803388 0.795242 0.796975 0.794908 0.796315 0.789567 0.793553 0.787067 0.786373 0.784791 0.776817 0.781579 0.775027 0.779168 0.777214 0.778133 0.772391 0.773274 0.772117 0.772095 0.770326 0.762212 0.763574 0.762617 0.765656 0.762363 0.759055 0.762311 0.756965 0.756746 0.754223 0.757665 0.753678 0.750244 0.753324 0.753536 0.754289 0.752186 0.753452 0.756663 0.752796 0.764384 0.761866 0.758765 0.760125 0.749426 0.75632 0.745879 0.757982 0.751399 0.747578 0.750106 0.748998 0.745652 0.744487 0.741092 0.742884 0.740252 0.73814 0.741721 0.734913 0.737863 0.735073 0.735765 0.732101 0.730023 0.727106 0.731913 0.740917 0.739451 0.7337
1.29698 1.28664 1.30799 1.31368 1.31211 1.3198 1.31673 1.31168 1.32754 1.33637 1.33002 1.32681 1.32814 1.33022 1.33661 1.34213 1.33062 1.34096 1.3433 1.33979 1.3467 1.34555 1.35377 1.33363 1.33589 1.34423 1.35031 1.35356 1.34333 1.35181 1.34705 1.35152 1.35932 1.34765 1.34916 1.35148 1.35205 1.35684 1.36046 1.35893 1.36446 1.36654 1.36774 1.35777 1.36115 1.34622 1.34122 1.20274 0.929529 0.879291 0.923693 1.14229 1.37271 1.38271 1.37108 1.3594 1.36008 1.36505 1.36594 1.36768 1.36794 1.36903 1.36344 1.36852 1.36749 1.36614 1.36795 1.36219 1.36248 1.36739 1.36821 1.36842 1.36773 1.37341 1.37091 1.36926 1.36845 1.37343 1.36179 1.36847 1.36376 1.36105 1.36036 1.36198 1.36298 1.36512 1.35849 1.36232 1.36525 1.36233 1.35675 1.31412 1.13591 0.929146 0.870753 0.868016 0.867884 0.856955 0.84543 0.857479 0.854075 0.886746 0.850418 0.847255 0.821975 0.822857 0.815584 0.805103 0.803615 0.787596 0.788692 0.793539 0.78561 0.784624 0.786516 0.779706 0.781852 0.772703 0.779723 0.777767 0.775506 0.774093 0.77151 0.769776 0.762271 0.76338 0.762744 0.758646 0.763421 0.760433 0.760863 0.755839 0.757943 0.755455 0.7558 0.754128 0.749024 0.752999 0.750414 0.753479 0.754247 0.746506 0.746101 0.747645 0.741836 0.74839 0.739172 0.743132 0.738933 0.757922 0.741092 0.755221 0.749795 0.744912 0.748055 0.745895 0.744538 0.747289 0.743663 0.742488 0.740185 0.739223 0.739319 0.734471 0.738308 0.736389 0.737145 0.733535 0.731516 0.731076 0.72845 0.73997 0.728705 0.732886 0.729036 0.73151
1.28501 1.29872 1.30183 1.30434 1.30864 1.30754 1.30796 1.31393 1.31124 1.31844 1.32667 1.31051 1.32187 1.32858 1.33117 1.32714 1.33206 1.32816 1.32912 1.3347 1.33942 1.34022 1.3393 1.33582 1.33367 1.33367 1.33306 1.33547 1.34034 1.33454 1.334 1.34238 1.344 1.3436 1.34456 1.34858 1.35115 1.3517 1.35164 1.34388 1.35196 1.35091 1.36234 1.35439 1.35436 1.35344 1.34219 1.34776 1.3364 1.00162 0.91964 0.870206 0.998411 1.3133 1.36606 1.36276 1.36402 1.36179 1.36125 1.3474 1.36383 1.36753 1.36773 1.36848 1.36196 1.36496 1.36822 1.3529 1.35871 1.35608 1.35922 1.35972 1.36164 1.3554 1.36569 1.35881 1.36353 1.36299 1.36183 1.3589 1.35885 1.35528 1.35576 1.36697 1.3572 1.3608 1.35185 1.35247 1.35133 1.35015 1.35884 1.36082 1.36043 1.31548 1.16371 0.981101 0.889884 0.869075 0.861343 0.855051 0.850196 0.852883 0.850611 0.883759 0.881151 0.85211 0.845415 0.822172 0.822125 0.801192 0.798801 0.790891 0.792812 0.789216 0.789075 0.786603 0.787004 0.778727 0.779383 0.774543 0.774586 0.773458 0.774038 0.769999 0.760776 0.76561 0.760379 0.763444 0.757896 0.756055 0.755338 0.756314 0.754414 0.751641 0.753689 0.751161 0.748331 0.747753 0.747435 0.745396 0.745033 0.741823 0.745924 0.740699 0.739959 0.744528 0.743731 0.740668 0.739542 0.745646 0.73777 0.741851 0.738944 0.739342 0.741922 0.742249 0.741438 0.743349 0.747141 0.739913 0.738425 0.733355 0.737262 0.741387 0.733242 0.742153 0.727747 0.733312 0.732355 0.728945 0.733 0.726312 0.738516 0.722196 0.735575 0.732194
1.28694 1.28934 1.29774 1.28703 1.30299 1.30165 1.30316 1.2987 1.30005 1.30696 1.30225 1.31122 1.32367 1.32118 1.30801 1.32059 1.32115 1.32875 1.32371 1.33232 1.32824 1.33511 1.32593 1.32578 1.33389 1.32975 1.33445 1.33381 1.33981 1.3346 1.33687 1.33715 1.34326 1.34119 1.34104 1.3445 1.33947 1.33889 1.34279 1.33987 1.34624 1.33982 1.34754 1.34614 1.35694 1.35632 1.33826 1.34411 1.34193 1.34113 1.2012 0.919208 0.888143 0.917545 1.1672 1.36001 1.37537 1.36424 1.36256 1.35624 1.35622 1.35761 1.34396 1.35712 1.34628 1.34667 1.34934 1.34649 1.352 1.35517 1.3586 1.35939 1.35697 1.35771 1.35957 1.35677 1.36032 1.35687 1.36124 1.36354 1.35536 1.35674 1.35344 1.35505 1.35489 1.35644 1.35739 1.34958 1.35571 1.36064 1.35624 1.36053 1.35317 1.35392 1.35958 1.32511 1.21828 1.02723 0.890829 0.859568 0.860233 0.84695 0.849032 0.849064 0.847048 0.874 0.880631 0.879998 0.843156 0.818481 0.822734 0.810774 0.793027 0.783945 0.78438 0.785084 0.783462 0.781535 0.778151 0.769284 0.771051 0.773371 0.772508 0.764166 0.764132 0.764937 0.757132 0.765337 0.758075 0.753659 0.752654 0.753337 0.752005 0.752359 0.746156 0.748172 0.74931 0.743909 0.74585 0.736745 0.744846 0.741632 0.744028 0.740771 0.738618 0.737845 0.736208 0.734826 0.737884 0.736167 0.736651 0.730717 0.735583 0.737079 0.734119 0.732238 0.741342 0.740486 0.736857 0.740322 0.739092 0.735923 0.735993 0.733852 0.732493 0.728938 0.732908 0.725251 0.72859 0.725712 0.732683 0.743303 0.723803 0.73774 0.742834 0.729671
1.27753 1.28545 1.29228 1.29086 1.29942 1.28855 1.29671 1.29869 1.30622 1.30298 1.30583 1.31482 1.30594 1.31212 1.32367 1.30965 1.31185 1.32054 1.32509 1.32686 1.32391 1.33106 1.33431 1.32731 1.32741 1.32745 1.3316 1.3257 1.3317 1.32316 1.32739 1.33326 1.33518 1.33902 1.33046 1.33701 1.33594 1.33763 1.33449 1.33694 1.33737 1.33947 1.34039 1.34524 1.33898 1.35173 1.34852 1.33785 1.33711 1.34403 1.33608 1.30919 1.05411 0.919758 0.875755 0.978546 1.27438 1.35715 1.3644 1.34745 1.35089 1.34911 1.34499 1.34805 1.33838 1.33878 1.35271 1.35132 1.34902 1.34265 1.35244 1.35352 1.35255 1.353 1.354 1.35497 1.35562 1.35595 1.35567 1.35421 1.353 1.35089 1.35079 1.3495 1.3534 1.35466 1.35329 1.34956 1.34638 1.35276 1.34343 1.3422 1.34298 1.35417 1.3456 1.34513 1.34579 1.33889 1.26555 1.08988 0.93774 0.875195 0.859014 0.852669 0.844284 0.843409 0.843385 0.841896 0.876521 0.877293 0.866779 0.826812 0.826104 0.807498 0.801286 0.786132 0.782492 0.782577 0.78063 0.779241 0.776112 0.770384 0.772386 0.764338 0.764298 0.762806 0.755295 0.763766 0.757366 0.762072 0.756211 0.750624 0.750141 0.750205 0.74911 0.746862 0.746292 0.744852 0.73718 0.741626 0.741812 0.737472 0.739015 0.737723 0.737248 0.735628 0.737058 0.732319 0.735919 0.73503 0.735502 0.730954 0.734966 0.735066 0.731549 0.729112 0.729397 0.72718 0.724389 0.72922 0.735086 0.739259 0.730347 0.730914 0.728736 0.727606 0.725902 0.721748 0.739794 0.727261 0.723803 0.722974 0.742775 0.729119 0.73842 0.729482
3637 2751 3381 3295 3319 2703 2637 2688 3163 3199 3043 3264 2990 3135 3078 3209 3171 3246 3224 3205 3474 3410 3512 3620 3585 3566 3523 3574 3521 3608 3569 3532 3653 3617 3689 3712 3668 3610 3614 3720 3765 3836 3913 3786 3709 3857 3824 3661 3829 3755 3776 3713 3880 3900 3859 3829 3666 3892 3700 3963 3835 3815 3829 3869 3829 3972 3855 3894 3933 3900 3978 3920 4007 3849 3994 3907 3936 3898 3887 3896 3992 3887 3867 3858 3963 3973 3925 3915 3992 3877 3867 3906 3896 3934 3963 3867 3743 3925 3867 3927 3791 3927 3869 3936 3968 3958 3978 3929 4031 3923 4012 4022 4116 4037 3988 3116 2337 2367 2359 2319 2271 2322 2222 2233 2305 2111 2215 2188 2093 2064 2118 2144 2100 2105 2111 2034 2028 1927 1932 2023 2110 2061 1850 1939 1939 2153 1920 1957 2017 1787 2004 2082 1938 1938 2102 2259 1871 2212 1844 1920 2382 1849 2120 2199 2521 2781 2853 3472 5154 5836 6726 5981 6042 6052 6025 6252
4206 3814 3689 3440 3021 2885 3019 2915 3021 3111 3148 3184 3103 3110 3118 3142 3171 3369 3304 3318 3382 3349 3373 3333 3514 3446 3485 3533 3384 3520 3605 3641 3522 3549 3654 3598 3728 3660 3664 3731 3570 3698 3655 3630 3652 3587 3714 3703 3734 3859 3838 3746 3879 3839 3788 3811 3892 3715 3845 3745 3671 3859 3919 3757 3914 3904 3890 3910 3920 3927 3888 3898 3869 3896 3820 3810 3954 3887 3943 3782 3943 3953 3782 3924 3867 3924 3953 3877 3972 3962 4038 3915 3924 3924 3820 3858 3839 3953 3924 3810 3829 3887 3925 3877 3994 4013 3994 3994 3949 4026 3968 3997 4100 4080 4022 3097 2256 2287 2397 2317 2268 2278 2220 2332 2284 2253 2226 2236 2198 2198 2118 2118 2079 2122 2105 2083 2089 1989 1927 2034 2000 2053 2007 2014 1927 2058 2020 1944 2154 1929 2221 2106 2069 1992 2018 2061 2328 2037 2098 2149 2293 2144 2414 2576 2699 2699 2981 3627 5279 6167 6223 5885 5844 5883 5928 5700
4356 4161 3648 3279 2981 2798 2780 2808 2939 3014 2998 3006 3000 3148 3225 3156 3079 3077 3148 3285 3431 3227 3412 3279 3344 3446 3533 3446 3483 3496 3546 3546 3595 3529 3748 3614 3614 3619 3681 3703 3578 3709 3663 3629 3725 3713 3682 3609 3609 3746 3807 3799 3809 3771 3791 3775 3775 3835 3790 3839 3884 3816 3982 3793 3793 3900 3975 3907 3859 3772 3820 3896 3896 3848 3934 3886 3962 3858 3868 3887 3821 3840 3878 3793 3868 3915 3868 3953 3849 3925 3878 3849 3859 3934 3859 3906 3897 3915 3925 3915 3972 3934 3839 3905 3752 3906 3887 3944 3907 3984 3984 3946 4017 3968 4031 3021 2413 2345 2375 2286 2267 2267 2228 2268 2250 2210 2161 2222 2049 2091 2104 2009 2107 2001 2133 1960 2062 1912 1923 1961 2050 2023 1984 1799 2096 1987 1880 2008 1932 1870 1867 2016 2016 2238 2018 2058 1966 2190 2079 2198 2222 2099 2427 2292 2450 2812 2860 3664 4968 5919 5883 5725 6114 6221 5949 5700
4421 4311 3856 3248 2904 2835 2986 2750 2898 2915 3103 3015 3072 3209 3156 2875 3120 3176 3188 3214 3187 3306 3435 3446 3331 3370 3483 3520 3436 3546 3558 3513 3506 3610 3569 3552 3608 3559 3626 3655 3684 3447 3629 3672 3671 3661 3599 3612 3622 3697 3778 3700 3650 3715 3665 3695 3879 3770 3678 3845 3686 3900 3890 3898 3888 3917 3829 3858 3867 3829 3943 3896 3924 3887 3783 3849 3925 3802 3964 3870 3936 3748 3917 3880 3823 3814 3851 3955 3851 3767 3833 3748 3851 3851 3973 3870 3870 3908 3908 3859 3897 3868 3821 3793 3848 3924 3934 3924 3858 3934 3925 4023 4033 3984 3978 3093 2344 2364 2295 2355 2286 2226 2247 2227 2278 2127 2240 2138 2089 2089 2143 2111 2156 2072 2139 2079 1993 1920 1974 2067 1938 1815 2046 2018 1972 1967 1944 1975 2056 1984 1920 2042 1991 2170 2082 2084 2018 2169 2148 2297 2127 2440 2546 2263 2521 2733 3588 3556 4980 6275 5972 5578 6186 5923 6162 5990
4311 4472 4293 3210 2669 2737 2888 2871 2981 2990 3031 2904 3072 2963 3093 3020 3091 2994 3037 3173 3200 3266 3140 3357 3458 3397 3446 3460 3474 3525 3431 3472 3691 3523 3653 3698 3537 3578 3535 3544 3501 3587 3598 3576 3661 3651 3663 3704 3646 3737 3670 3731 3695 3745 3730 3770 3698 3747 3764 3803 3820 3734 3869 3810 3848 3877 3810 3763 3915 3840 3755 3831 3840 3889 3908 3861 3861 3795 3854 3789 3892 3910 4003 3920 3854 3901 3929 3789 3901 3994 3836 3882 3827 3836 3882 3789 3799 3910 3910 3814 3917 4011 3870 3917 3915 4000 3963 3906 3886 4000 3915 3982 3992 3982 3975 3087 2277 2324 2305 2315 2226 2325 2236 2256 2157 2207 2248 2178 2138 2067 1996 2111 2018 2051 2051 2043 1947 1907 1898 1942 1934 1923 1961 2068 1920 2087 1909 2014 2023 2020 2056 1944 1892 1854 2170 2069 2084 2031 2034 2370 2198 2368 2149 2531 2781 2384 3298 3653 5330 5863 5931 6132 6112 6248 6172 5565
4145 4333 4375 3884 2577 2559 2699 2998 2909 2968 3094 2995 2948 2962 3224 2921 3063 2915 3051 3014 3045 3063 3076 3308 3151 3347 3387 3344 3396 3443 3402 3307 3523 3507 3592 3548 3546 3556 3533 3501 3629 3640 3640 3537 3560 3622 3727 3513 3630 3640 3525 3645 3701 3730 3629 3727 3647 3725 3676 3705 3753 3829 3743 3820 3715 3829 3736 3698 3868 3842 3776 3739 3786 3873 3836 3910 3938 3808 3914 3923 3812 3877 3858 3858 3942 3933 3914 3895 3831 3784 3831 3840 3886 3775 3877 3933 3831 3794 3775 3929 3808 3882 3817 3892 3880 3880 3955 3898 3897 3934 3868 4010 3924 3972 3934 3015 2306 2219 2315 2208 2217 2285 2275 2295 2157 2147 2167 2147 2087 2169 2179 2078 2068 2091 1934 1914 2054 1926 1971 1917 2040 2000 2000 1961 2068 2046 1880 2284 1956 2130 2129 2129 1895 2230 2106 1927 2186 2111 2217 2197 2148 2410 2340 2527 2739 2904 3072 3722 5253 6229 6533 6120 5830 6536 6210 5983
4472 4223 4381 4584 3217 2836 2698 2860 2780 2858 2842 2739 2904 3122 2964 3063 3037 3200 3147 3253 3114 3191 3257 3274 3311 3423 3260 3314 3513 3299 3432 3398 3507 3438 3603 3393 3426 3480 3533 3629 3471 3495 3599 3478 3488 3524 3357 3539 3665 3505 3661 3602 3668 3688 3628 3696 3705 3608 3762 3609 3733 3744 3696 3725 3727 3783 3711 3758 3767 3786 3882 3873 3761 3812 3821 3877 3840 3757 3895 3955 3836 3808 3771 3919 3891 3836 3808 3744 3836 3817 3799 3928 3753 3799 3790 3808 3799 3836 3863 3914 3831 3849 3858 3784 3873 3854 3864 3901 3983 3973 3842 3887 3897 3868 3734 3022 2355 2278 2249 2219 2344 2295 2227 2207 2217 2177 2117 2137 2117 2107 2127 2077 2047 2017 2039 1945 2093 1946 1947 1982 1960 1898 1956 1956 2050 2171 2080 2087 1979 2061 2046 1947 2214 2092 2004 2195 2131 2043 2084 2297 2441 2245 2439 2599 2774 2933 3026 3801 5262 6239 6263 5983 6452 6221 6149 6306
4146 4318 4418 4408 3696 2698 2615 3038 2921 3041 2963 2873 2832 3049 3063 2970 3187 3041 3084 3127 3089 3270 3187 3409 3218 3308 3373 3361 3275 3478 3535 3429 3537 3415 3567 3372 3426 3459 3387 3661 3391 3557 3375 3605 3503 3630 3660 3475 3455 3651 3590 3639 3637 3676 3570 3618 3638 3609 3676 3658 3696 3680 3661 3661 3701 3786 3720 3743 3771 3789 3766 3775 3720 3812 3845 3781 3781 3827 3882 3842 3832 3906 3842 3796 3823 3832 3915 3915 3897 3842 3768 3942 3796 3851 3814 3759 3860 3759 3823 3790 3836 3882 3781 3808 3895 3812 3803 3864 3910 3845 3938 3880 3833 3814 3906 3095 2242 2185 2115 2288 2182 2277 2209 2227 2091 2128 1991 2157 2038 2027 2027 2077 2057 2077 1996 2068 1966 1883 1977 1894 2014 1863 1811 1898 2067 2140 2017 2011 2064 2061 2225 1892 2153 1911 2252 2042 2387 2259 2030 2191 2142 2495 2356 2368 2687 3035 3216 3744 5340 6158 6158 6646 6275 6434 6462 6388
4433 4437 4372 4332 4263 3281 2812 2953 2980 2995 2978 2948 3006 3008 2938 3010 3014 3006 3240 3280 3257 3138 3323 3254 3213 3338 3420 3379 3432 3489 3339 3338 3626 3513 3393 3512 3480 3545 3482 3526 3499 3488 3544 3493 3428 3535 3515 3483 3533 3570 3600 3579 3540 3512 3714 3513 3609 3563 3658 3566 3670 3711 3739 3645 3650 3733 3724 3784 3710 3784 3725 3633 3762 3799 3714 3851 3842 3677 3704 3785 3767 3776 3821 3876 3876 3821 3885 3930 3757 3785 3803 3803 3821 3867 3794 3858 3876 3785 3794 3768 3924 3805 3869 3832 3909 3873 3808 3831 3840 3886 3882 3966 3854 3936 3889 3027 2264 2245 2242 2223 2307 2230 2221 2045 2190 2217 2091 2011 2058 2098 2077 1997 2016 2097 2006 1893 1986 2049 1945 1946 1990 1756 2003 1974 2094 2067 1949 2050 2023 2087 2014 1979 2035 2020 2141 2030 2167 2119 2310 2186 2257 2251 2441 2328 2864 3151 3037 3692 5380 6455 6449 6446 6046 6275 6274 6038
4271 4390 4479 4384 4297 3733 2560 2795 2934 2844 2832 2949 3134 2966 3010 3120 3032 3279 3268 3207 3138 3274 3133 3308 3396 3385 3379 3250 3375 3373 3371 3382 3524 3469 3416 3523 3450 3578 3433 3426 3499 3503 3428 3448 3445 3435 3473 3521 3541 3599 3628 3541 3502 3532 3638 3573 3573 3689 3680 3692 3655 3711 3659 3705 3581 3747 3609 3762 3753 3716 3714 3732 3723 3668 3848 3712 3703 3721 3867 3702 3766 3820 3910 3856 3811 3829 3820 3766 3793 3856 3811 3838 3766 3793 3802 3874 3793 3838 3821 3848 3730 3812 3858 3759 3860 3933 3814 3873 3827 3836 3951 3858 3868 3827 3892 3016 2314 2305 2189 2104 2062 2204 2221 2077 2113 2103 2071 2071 2020 2099 2117 1999 2117 2026 2057 1975 1914 1883 1903 1976 1988 1990 2022 1971 2073 1920 2133 2062 2050 1966 2203 2190 1979 1916 2056 2117 2092 2305 2080 2069 2134 2377 2454 2550 2633 3148 3137 3856 5685 6037 6094 6239 6546 6361 6034 5972
