65347 65352 65355 65361 65362 65365 65367 65371 65378 65380 65377 65376 65378 65380 65381 65383 65387 65390 65394 65394 65396 65392 65400 65400 65400 65402 65401 65404 65405 65407 65406 65409 65409 65413 65409 65412 65413 65413 65411 65413 65388 65353 0 0 0 0 0 0 0 0 0 0 0 0 0 0 0 0 0 0 0 0 0 0 0 0 0 65340 65339 65332 65333 65339 0 0 0 0 0 0 0 0 0 0 0 0 0 65350 65329 65331 65329 65337 65425 0 0 0 0 0 0 0 65396 65423 0 0 0 0 65379 65368 65372 65377 65382 65415 0 0 0 0 0 0 0 0 0 0 0 0 0 0 0 0 0 0 0 0 0 0 0 0 0 65410 65365 65389 65411 65415 65415 65417 65415 65414 65411 65411 65412 65411 65408 65404 65404 65404 65408 65403 65403 65405 65405 65404 65403 65401 65405 65400 65396 65393 65392 65385 65382 65378 65374 65372 65368 65366 65370 65368 65363 65359
65351 65352 65356 65361 65368 65372 65373 65379 65380 65380 65379 65384 65387 65388 65389 65389 65390 65395 65396 65397 65396 65398 65399 65399 65401 65401 65403 65406 65403 65406 65408 65411 65413 65414 65417 65416 65412 65412 65415 65412 65390 65348 65424 0 0 0 0 0 0 0 0 0 0 0 0 0 0 0 0 0 0 0 0 0 0 0 0 65396 65334 65333 65339 65349 65428 0 0 0 0 65380 0 0 0 0 0 0 0 65406 65334 65332 65334 65338 65380 0 0 0 0 0 0 0 0 0 0 0 0 0 65398 65367 65370 65376 65375 65390 0 0 0 0 0 0 0 0 0 0 0 0 0 0 0 0 0 0 0 0 0 0 0 0 0 0 65359 65387 65413 65417 65416 65419 65415 65413 65413 65413 65412 65411 65409 65411 65408 65407 65405 65406 65400 65406 65404 65401 65402 65400 65402 65399 65399 65397 65393 65388 65384 65379 65379 65378 65376 65371 65371 65371 65366 65363
65356 65356 65358 65370 65371 65372 65376 65379 65380 65381 65384 65386 65388 65395 65394 65392 65395 65397 65398 65398 65399 65398 65400 65400 65401 65402 65405 65405 65408 65406 65411 65410 65413 65415 65418 65414 65415 65411 65406 65393 65371 65304 65334 0 0 0 0 65399 0 0 0 0 0 0 0 0 0 0 0 0 0 0 0 0 0 0 0 0 65353 65381 65422 0 0 0 65326 65308 65308 65308 65392 0 0 0 0 0 0 0 65340 65335 65340 65350 65370 0 0 0 0 0 65410 0 0 0 0 0 0 0 0 65376 65371 65376 65378 65381 0 0 0 0 0 0 0 0 0 0 0 0 0 0 0 0 0 0 0 0 0 0 0 0 0 0 65351 65383 65406 65417 65418 65413 65418 65415 65412 65414 65411 65409 65414 65410 65408 65410 65409 65407 65404 65404 65403 65404 65403 65401 65402 65401 65398 65398 65395 65394 65387 65384 65380 65379 65378 65375 65370 65369 65369 65368
65360 65363 65362 65368 65367 65372 65375 65375 65380 65384 65386 65388 65393 65393 65393 65396 65397 65401 65399 65399 65401 65399 65400 65400 65405 65403 65407 65408 65408 65408 65414 65412 65413 65412 65413 65405 65402 65391 65379 65369 65356 65281 65205 65429 65350 65302 65354 65373 0 0 0 0 0 0 0 0 0 0 0 0 0 0 0 0 0 0 0 0 0 0 0 0 0 0 65314 65305 65305 65310 65337 0 0 0 0 0 0 0 65356 65371 65409 65439 0 0 65424 65365 65344 65344 65355 65412 0 0 0 0 0 0 0 65371 65372 65376 65381 65390 0 0 0 0 0 0 0 0 0 0 0 0 0 0 0 0 0 0 0 0 0 0 0 0 0 0 65360 65376 65403 65417 65419 65418 65415 65415 65412 65410 65411 65410 65411 65412 65410 65408 65407 65407 65407 65403 65404 65402 65401 65400 65404 65401 65397 65398 65398 65394 65390 65387 65384 65379 65378 65376 65375 65373 65371 65366
65363 65361 65368 65370 65371 65369 65375 65379 65382 65383 65390 65388 65390 65394 65397 65397 65397 65397 65403 65399 65399 65403 65405 65404 65406 65405 65411 65410 65412 65414 65414 65412 65407 65403 65396 65379 65370 65357 65343 65288 65202 65206 65283 65320 65336 65327 65357 65369 65420 0 0 0 0 0 0 0 0 0 0 0 0 0 0 0 0 0 0 0 0 0 0 0 0 0 65319 65306 65309 65312 65317 0 0 0 0 0 0 0 0 0 0 0 0 0 65418 65341 65337 65342 65347 65371 0 0 0 0 0 0 0 65387 65388 65404 65424 0 0 0 0 65401 65373 65373 65372 0 0 0 0 0 0 0 0 0 0 0 0 0 0 0 0 0 0 0 65414 65374 65402 65417 65419 65417 65414 65413 65413 65414 65413 65413 65412 65414 65410 65409 65409 65411 65405 65404 65407 65406 65405 65405 65400 65399 65398 65402 65399 65395 65392 65391 65386 65388 65383 65379 65376 65375 65371 65366
65360 65367 65369 65372 65374 65374 65377 65379 65380 65388 65391 65392 65392 65398 65395 65400 65399 65399 65394 65399 65399 65402 65407 65408 65407 65407 65409 65409 65415 65413 65416 65413 65406 65388 65380 65349 65283 65119 64772 64613 65052 65286 65292 65321 65331 65343 65337 65366 65386 0 0 0 0 0 0 0 0 0 0 0 0 0 0 0 0 0 0 0 0 0 0 0 0 0 65359 65311 65311 65314 65326 65426 0 0 0 0 0 0 0 0 0 0 0 0 0 65339 65347 65342 65352 65359 0 0 0 0 0 0 0 0 0 0 0 0 0 0 65366 65369 65368 65374 65376 0 0 0 0 0 0 0 0 0 0 0 0 0 0 0 0 0 0 0 0 65366 65394 65417 65420 65419 65418 65417 65418 65416 65414 65411 65411 65413 65410 65410 65410 65410 65406 65406 65407 65407 65405 65404 65403 65402 65401 65398 65404 65398 65399 65392 65391 65388 65384 65385 65382 65378 65378 65372
65355 65362 65366 65370 65376 65379 65381 65383 65384 65388 65391 65391 65395 65398 65395 65399 65400 65401 65401 65402 65401 65404 65410 65410 65409 65413 65411 65412 65411 65412 65418 65412 65399 65381 65228 64689 64457 64556 64723 64761 64952 65294 65299 65307 65322 65332 65332 65351 65375 0 0 0 0 0 0 0 0 0 0 0 0 0 0 0 0 0 0 0 0 0 0 0 0 0 65429 65334 65350 65391 65436 0 0 0 65380 65351 65353 65378 0 0 0 0 0 0 0 65351 65343 65345 65350 65354 0 0 0 0 0 0 0 0 0 0 0 0 0 0 65382 65366 65367 65370 65377 65403 0 0 0 0 0 0 0 0 0 0 0 0 0 0 0 0 0 0 0 65363 65386 65416 65420 65420 65419 65413 65420 65419 65417 65413 65413 65412 65413 65412 65415 65413 65414 65408 65407 65406 65409 65404 65403 65403 65405 65402 65402 65395 65398 65399 65394 65392 65388 65389 65385 65387 65380 65375
65351 65361 65365 65369 65371 65379 65384 65381 65387 65386 65392 65395 65396 65398 65398 65403 65399 65399 65400 65405 65407 65409 65409 65410 65412 65414 65413 65413 65413 65414 65413 65401 65381 65354 64082 64453 64652 64684 64871 65061 64921 65267 65261 65288 65330 65351 65341 65366 65369 65430 0 0 0 0 0 0 0 0 0 0 0 0 0 0 0 0 0 0 0 0 0 0 0 0 0 0 0 0 0 0 0 65347 65345 65352 65354 65361 0 0 0 0 0 0 0 65393 65354 65367 65387 65417 0 0 0 0 65381 65368 65380 0 0 0 0 0 0 0 65402 65365 65368 65375 65375 65384 0 0 0 0 0 0 0 0 0 0 0 0 0 0 0 0 0 0 0 65372 65383 65410 65421 65421 65422 65420 65420 65417 65416 65415 65417 65415 65415 65416 65413 65416 65414 65411 65408 65412 65407 65405 65406 65403 65401 65403 65402 65400 65401 65398 65397 65395 65393 65389 65386 65387 65386 65384
65350 65357 65366 65369 65374 65379 65382 65386 65391 65393 65395 65397 65400 65400 65400 65401 65399 65401 65403 65409 65412 65412 65409 65410 65415 65414 65417 65415 65405 65407 65393 65372 65333 65264 64293 64684 64872 64855 64774 65068 65068 65061 64985 65289 65290 65339 65343 65344 65356 65390 0 0 0 0 0 0 0 0 0 0 0 0 0 0 0 0 0 0 0 0 0 0 0 0 0 0 0 0 0 0 0 65366 65348 65348 65346 65354 65434 0 0 0 0 0 0 0 65439 0 0 0 0 0 65372 65367 65369 65368 65372 0 0 0 0 0 0 0 65438 65365 65370 65378 65388 65399 0 0 0 0 0 0 0 0 0 0 0 0 0 0 0 0 0 0 0 65414 65384 65409 65425 65424 65420 65423 65422 65422 65419 65417 65418 65419 65416 65417 65414 65415 65411 65414 65412 65412 65405 65410 65407 65403 65404 65404 65403 65404 65403 65401 65400 65398 65393 65391 65391 65391 65387 65387
65329 65350 65363 65367 65374 65373 65383 65384 65391 65393 65397 65398 65402 65399 65402 65403 65403 65406 65407 65413 65409 65410 65411 65412 65416 65414 65414 65408 65398 65382 65361 65329 65254 64855 64720 64867 64825 64656 64492 64615 65283 65359 64979 65235 65285 65333 65337 65304 65343 65367 0 0 0 0 0 0 0 0 0 0 0 0 0 0 0 0 0 0 0 0 0 65384 65309 65296 65409 0 0 0 0 0 0 65411 65348 65347 65352 65352 65394 0 0 0 0 0 0 0 0 0 0 0 0 0 65371 65370 65368 65369 65368 65419 0 0 0 0 0 0 0 65391 65417 65442 0 0 0 0 0 0 0 0 0 0 0 0 0 0 0 0 0 0 0 0 0 0 65376 65403 65422 65426 65426 65426 65420 65423 65420 65420 65420 65419 65416 65418 65415 65416 65413 65411 65412 65412 65412 65406 65406 65405 65406 65406 65406 65404 65400 65402 65400 65399 65398 65397 65395 65394 65390 65386
65326 65334 65349 65367 65374 65377 65383 65386 65391 65392 65398 65400 65402 65403 65402 65407 65408 65412 65407 65409 65407 65410 65415 65415 65418 65414 65408 65394 65365 65325 65258 65299 64941 64482 65022 65280 65020 64661 64386 64577 65088 65152 65112 65263 65315 65314 65333 65306 65338 65368 0 0 0 0 0 0 0 0 0 0 0 0 0 0 0 0 0 0 0 0 65284 65288 65288 65295 65334 0 0 0 0 0 0 0 65353 65358 65371 65389 65417 0 0 0 65406 65357 65351 0 0 0 0 0 0 0 65383 65369 65371 65369 65366 65380 0 0 0 0 0 0 0 0 0 0 0 0 0 0 0 0 0 0 0 0 0 0 0 0 0 0 0 0 0 0 0 0 65372 65399 65422 65427 65425 65426 65425 65423 65421 65421 65419 65417 65419 65414 65416 65418 65416 65416 65412 65412 65412 65409 65409 65404 65403 65404 65404 65404 65402 65406 65399 65396 65395 65397 65395 65392 65391 65390
65331 65335 65340 65350 65365 65379 65380 65386 65393 65394 65398 65400 65402 65402 65402 65408 65406 65407 65411 65409 65410 65415 65416 65414 65415 65411 65402 65377 65293 64755 64790 64937 65154 64321 65033 65299 64990 64742 65018 64812 65207 64915 65215 65290 65320 65305 65317 65323 65403 0 0 0 0 0 0 0 0 0 0 0 0 0 0 0 0 0 0 0 0 0 65288 65285 65279 65295 65306 0 0 0 0 0 0 0 65409 65437 0 0 0 0 65341 65329 65328 65332 65331 0 0 0 0 0 0 0 65421 65365 65367 65369 65376 65389 0 0 0 0 65410 65378 65416 0 0 0 0 0 0 0 0 0 0 0 0 0 0 0 0 0 0 0 0 0 0 0 0 0 65373 65398 65418 65429 65427 65425 65424 65424 65422 65421 65421 65421 65418 65417 65421 65417 65416 65417 65413 65411 65414 65413 65409 65408 65405 65406 65403 65404 65406 65401 65401 65400 65398 65397 65396 65390 65391 65395
65338 65339 65343 65346 65354 65366 65380 65385 65392 65391 65397 65400 65400 65405 65407 65412 65410 65410 65410 65414 65415 65414 65418 65419 65418 65411 65399 65263 64321 65128 65275 65156 65088 64835 64582 64759 64841 65097 64990 64896 64982 64923 65022 65273 65249 65212 0 0 0 0 0 0 0 0 0 0 0 0 0 0 0 0 0 0 0 0 0 0 0 0 65345 65285 65291 65287 65289 65435 0 0 0 0 0 0 0 0 0 0 0 0 65368 65326 65329 65332 65335 65400 0 0 0 0 0 0 0 65383 65403 65428 0 0 0 65396 65367 65369 65373 65371 65386 0 0 0 0 0 0 0 0 0 0 0 0 0 0 0 0 0 0 0 0 0 0 0 0 0 65407 65392 65418 65429 65430 65428 65424 65425 65422 65422 65422 65422 65421 65421 65418 65418 65417 65417 65414 65411 65415 65411 65411 65408 65409 65409 65407 65407 65406 65404 65404 65400 65399 65399 65397 65393 65392 65390
65340 65345 65348 65349 65350 65355 65364 65376 65391 65397 65398 65398 65400 65406 65406 65413 65412 65413 65413 65415 65417 65417 65416 65419 65419 65410 65397 65323 64134 64792 64855 0 65171 64785 64702 64817 64787 64934 64963 64883 64900 64898 65099 65302 65347 65316 0 0 0 0 0 0 0 0 0 0 0 0 0 0 0 0 0 0 0 0 0 0 0 0 65439 65290 65307 65312 65344 65410 0 0 0 65396 65351 65420 0 0 0 0 0 0 65431 65335 65330 65324 65331 65361 0 0 0 0 0 0 0 0 0 0 0 0 0 65422 65369 65367 65366 65365 65371 0 0 0 0 0 0 0 0 0 0 0 0 0 0 0 0 0 0 0 0 0 0 0 0 0 0 65387 65413 65426 65433 65428 65429 65428 65424 65425 65421 65421 65420 65421 65421 65421 65419 65417 65414 65412 65414 65413 65416 65413 65415 65413 65408 65409 65411 65407 65407 65403 65397 65397 65399 65395 65398 65396
65343 65348 65352 65355 65358 65360 65363 65368 65378 65388 65399 65402 65404 65407 65409 65411 65410 65414 65416 65417 65419 65419 65422 65417 65417 65409 65390 65337 64946 63832 64955 0 65073 65260 65215 65218 64391 64826 64910 64997 65261 65366 65393 65401 65400 65373 0 0 0 0 0 0 0 0 0 0 0 0 0 0 0 0 0 0 0 0 0 0 0 0 0 65378 65428 0 0 0 0 65336 65335 65337 65339 65369 0 0 0 0 0 0 0 65336 65336 65338 65344 65366 0 0 0 0 0 65414 65409 0 0 0 0 0 0 0 65367 65369 65369 65368 65371 0 0 0 0 0 0 0 0 0 0 0 0 0 0 0 0 0 0 0 0 0 0 0 0 0 0 65381 65412 65428 65430 65428 65430 65430 65427 65427 65422 65419 65415 65422 65422 65422 65422 65422 65422 65417 65419 65417 65416 65415 65416 65413 65410 65408 65406 65407 65402 65403 65397 65401 65397 65398 65396 65401
65344 65352 65353 65359 65359 65361 65367 65369 65370 65376 65386 65399 65404 65407 65409 65410 65414 65414 65417 65416 65422 65424 65421 65419 65415 65414 65398 65353 65128 64041 64839 65435 65032 65323 65230 65329 65368 65339 65375 65389 65398 65410 65419 65430 65432 65423 65403 0 0 0 0 0 0 0 0 0 0 0 0 0 0 0 0 0 0 0 0 0 0 0 0 0 0 0 0 0 0 65337 65339 65341 65338 65345 0 0 0 0 0 0 0 65367 65385 65419 0 0 0 65429 65376 65342 65350 65355 65376 0 0 0 0 0 0 0 65368 65367 65371 65373 65374 65412 0 0 0 0 0 0 0 0 0 0 0 0 0 0 0 0 0 0 0 0 0 0 0 0 0 65388 65416 65429 65430 65434 65432 65431 65428 65428 65427 65425 65420 65421 65421 65423 65421 65419 65422 65421 65421 65421 65416 65418 65415 65418 65415 65413 65409 65406 65402 65401 65400 65396 65397 65402 65395 65394
65343 65349 65356 65359 65365 65369 65374 65372 65376 65378 65379 65383 65396 65403 65407 65413 65412 65419 65418 65420 65423 65418 65418 65415 65417 65409 65409 65369 65214 63990 64867 65390 64985 65345 65313 65386 65417 65412 65409 65420 65426 65433 65437 65439 65436 65432 65397 0 0 0 0 0 0 0 0 0 0 0 0 0 0 0 0 0 0 0 0 0 0 0 0 0 0 0 0 0 0 65348 65336 65331 65345 65344 0 0 0 0 0 0 0 0 0 0 0 0 0 0 65354 65344 65350 65353 65364 0 0 0 0 0 0 0 65392 65380 65393 65416 0 0 0 0 0 0 0 0 0 0 0 0 0 0 0 0 0 0 0 0 0 0 0 0 0 0 0 65408 65418 65432 65432 65429 65431 65433 65431 65432 65429 65428 65428 65424 65425 65425 65426 65423 65424 65419 65420 65422 65420 65422 65420 65419 65418 65416 65414 65411 65408 65407 65403 65399 65400 65399 65396 65393
65335 65351 65355 65360 65368 65369 65372 65376 65375 65377 65379 65380 65382 65391 65404 65413 65413 65419 65423 65420 65420 65411 65413 65413 65411 65415 65424 65399 65273 64151 65069 65386 65074 65358 65373 65413 65433 65427 65429 65432 65434 65434 65435 65439 65437 65434 65404 65433 0 0 0 0 0 0 0 0 0 0 0 0 0 0 0 0 0 0 0 0 0 0 0 0 0 0 0 0 0 65410 65338 65344 65343 65353 65409 0 0 0 0 0 65406 0 0 0 0 0 0 0 65349 65350 65346 65350 65349 65429 0 0 0 0 0 0 0 0 0 0 0 0 0 0 0 0 0 0 0 0 0 0 0 0 0 0 0 0 0 0 0 0 0 0 0 0 0 65416 65417 65432 65430 65434 65426 65430 65431 65433 65433 65428 65426 65428 65428 65427 65425 65422 65424 65423 65422 65423 65418 65422 65421 65423 65421 65418 65418 65414 65412 65410 65409 65406 65403 65401 65401 65398
65332 65344 65352 65359 65366 65372 65377 65376 65381 65383 65384 65385 65387 65388 65389 65398 65408 65415 65419 65416 65417 65412 65412 65413 65421 65427 65424 65400 65294 64049 65050 65389 65095 65366 65391 65427 65434 65433 65435 65435 65435 65437 65436 65437 65436 65432 65416 65401 0 0 0 0 0 0 0 0 0 0 0 0 0 0 0 0 0 0 0 0 0 0 0 0 0 0 0 0 0 0 65368 65398 65431 0 0 0 65402 65337 65308 65315 65328 0 0 0 0 0 0 0 65369 65353 65356 65359 65357 65384 0 0 0 0 0 0 0 0 0 0 0 0 0 0 0 0 0 0 0 0 0 0 0 0 0 0 0 0 0 0 0 0 0 0 0 65412 65404 65416 65423 65433 65430 65433 65434 65433 65433 65431 65431 65429 65429 65429 65429 65428 65424 65424 65423 65425 65425 65423 65419 65421 65423 65414 65418 65417 65421 65418 65413 65414 65411 65408 65406 65404 65401 65399
65310 65335 65346 65353 65364 65372 65377 65380 65381 65383 65385 65388 65388 65391 65392 65393 65395 65403 65411 65416 65417 65413 65417 65419 65423 65426 65429 65407 65321 64026 65046 65375 65116 65355 65404 65431 65435 65434 65436 65434 65433 65436 65438 65438 65438 65439 65430 65405 0 0 0 0 0 0 0 0 0 0 0 0 0 0 0 0 0 0 0 0 0 0 0 0 0 0 0 0 0 0 0 0 0 0 0 0 65323 65312 65312 65320 65324 65434 0 0 0 0 0 0 65406 65363 65369 65385 65409 0 0 0 0 0 0 0 0 0 0 0 0 0 0 0 0 0 0 0 0 0 0 0 0 0 0 0 0 0 0 0 65413 65392 65387 65387 65396 65402 65413 65424 65428 65431 65432 65434 65434 65433 65435 65430 65434 65432 65429 65429 65426 65431 65427 65426 65425 65426 65426 65422 65421 65420 65419 65417 65419 65419 65420 65421 65417 65418 65411 65408 65405 65404 65399 65394
65239 65307 65337 65349 65362 65368 65376 65377 65382 65387 65389 65390 65393 65393 65394 65391 65396 65394 65401 65411 65420 65422 65423 65423 65425 65428 65429 65414 65352 64151 65106 65361 65173 65354 65419 65432 65438 65437 65437 65437 65439 65436 65439 65437 65440 65438 65436 65412 0 0 0 0 0 0 0 0 0 0 0 0 0 0 0 0 0 0 0 0 0 0 0 0 0 0 0 0 65421 65424 0 0 0 0 0 0 65377 65312 65315 65318 65319 65380 0 0 0 0 0 0 0 0 0 0 0 0 0 0 0 0 0 0 0 0 0 0 0 0 0 0 0 0 0 0 0 0 0 0 0 0 0 0 65419 65405 65397 65395 65405 65407 65413 65421 65423 65431 65431 65431 65427 65432 65432 65433 65434 65432 65433 65433 65433 65434 65432 65431 65429 65428 65425 65426 65426 65424 65426 65419 65419 65417 65416 65418 65414 65414 65412 65413 65415 65415 65412 65408 65403 65404 65397 65394
65228 65223 65294 65329 65352 65359 65373 65375 65381 65386 65389 65391 65393 65397 65396 65399 65397 65399 65400 65399 65410 65417 65427 65425 65428 65425 65424 65417 65378 64972 65139 65350 65249 65383 65425 65437 65438 65430 65439 65437 65435 0 65439 65438 65439 65439 65438 65426 65405 0 0 0 0 0 0 0 0 0 0 0 0 0 0 0 0 0 0 0 0 0 0 0 0 65355 65326 65320 65316 65363 0 0 0 0 0 0 0 65325 65319 65323 65330 65349 0 0 0 0 0 0 0 0 0 0 0 0 0 0 0 0 0 0 0 0 0 0 0 0 0 0 0 0 0 0 0 0 0 0 65427 65403 65396 65403 65408 65418 65420 65426 65433 65434 65436 65438 65433 65439 65434 65433 65434 65431 65432 65429 65432 65431 65432 65431 65434 65434 65432 65432 65430 65427 65427 65423 65426 65421 65421 65416 65414 65417 65415 65416 65409 65412 65409 65411 65412 65406 65406 65404 65404 65401 65396 65395
65275 65249 65210 65274 65320 65351 65361 65373 65379 65384 65388 65389 65394 65394 65399 65401 65400 65402 65403 65403 65404 65406 65417 65425 65428 65428 65430 65423 65395 65267 65030 65243 65343 65404 65429 65436 65436 65439 65438 65437 65440 65436 65439 65439 65437 65441 65439 65433 65404 0 0 0 0 0 0 0 0 0 0 0 0 0 0 0 0 0 0 0 0 0 0 0 0 65321 65316 65322 65327 65335 0 0 0 0 0 0 0 65334 65335 65354 65382 65429 0 0 0 0 0 0 0 0 0 0 0 0 0 0 0 0 0 0 0 0 0 0 0 0 0 0 0 0 0 0 0 65409 65404 65402 65409 65408 65418 65430 65434 65438 65443 65440 65440 65439 65441 65438 65437 65437 65435 65436 65436 65433 65435 65431 65432 65433 65432 65429 65430 65434 65433 65434 65431 65429 65430 65427 65427 65425 65425 65425 65428 65425 65423 65418 65418 65412 65409 65406 65407 65406 65403 65398 65400 65401 65396 65396
65266 65285 65274 65225 65245 65306 65346 65365 65374 65381 65387 65390 65392 65396 65400 65400 65404 65403 65405 65407 65407 65406 65410 65414 65423 65427 65428 65423 65409 65280 64891 65159 65367 65415 65429 65435 65435 65437 65438 65434 65438 65439 65440 65436 65441 65437 65441 65439 65417 0 0 0 0 0 0 0 0 0 0 0 0 0 0 0 0 0 0 0 0 0 0 0 0 65353 65316 65321 65322 65324 0 0 0 0 0 0 0 65429 0 0 0 0 0 0 0 0 0 0 0 0 0 0 0 0 0 0 0 0 0 0 0 0 0 0 0 0 0 0 0 65409 65401 65400 65411 65421 65429 65431 65436 65441 65434 65438 65436 65440 65440 65436 65443 65442 65439 65440 65438 65438 65439 65436 65439 65436 65436 65434 65432 65434 65435 65434 65432 65431 65433 65433 65435 65431 65430 65432 65430 65432 65431 65431 65431 65429 65427 65422 65422 65419 65419 65415 65413 65407 65407 65407 65402 65401 65399 65398
65147 65264 65290 65289 65257 65226 65286 65335 65362 65376 65385 65390 65392 65397 65398 65400 65403 65406 65405 65407 65409 65411 65410 65415 65416 65420 65426 65429 65407 65260 64894 65150 65373 65416 65428 65433 65433 65434 65438 0 65435 65438 65438 65439 65443 65436 65443 65440 65431 65411 0 0 0 0 0 0 0 0 0 0 0 0 0 0 0 0 0 0 0 0 0 0 0 0 65332 65320 65324 65327 65390 0 0 0 0 0 0 0 0 0 0 0 0 0 0 0 0 0 0 0 0 0 0 0 0 0 0 0 0 0 0 0 0 0 65439 65409 65404 65402 65411 65416 65421 65429 65436 65442 65444 65446 65442 65443 65442 65440 65440 65441 65442 65439 65437 65438 65438 65442 65442 65440 65442 65438 65442 65438 65439 65436 65437 65436 65434 65436 65431 65429 65433 65430 65435 65431 65434 65432 65432 65432 65428 65433 65431 65429 65430 65425 65426 65427 65425 65424 65420 65419 65413 65411 65409 65406 65405 65404
65040 65107 65244 65290 65310 65301 65251 65264 65322 65356 65377 65386 65390 65395 65399 65401 65404 65402 65408 65410 65409 65411 65415 65415 65414 65416 65420 65421 65407 65237 64907 65161 65383 65422 65427 65428 65430 65433 65436 65437 65439 65438 65439 65437 65441 0 65443 65440 65438 65410 0 0 0 0 0 0 0 0 0 0 0 0 0 0 0 0 0 0 0 0 0 0 0 0 65342 65356 65379 65419 0 0 0 0 0 0 0 0 0 0 0 0 0 0 0 0 0 0 0 0 0 0 0 0 0 0 0 0 0 0 0 65410 65403 65409 65412 65422 65431 65433 65440 65440 65440 65442 65436 65441 65441 65440 65444 65444 65444 65444 65442 65443 65441 65439 65440 65442 65439 65441 65442 65444 65443 65440 65443 65439 65441 65438 65439 65436 65435 65435 65435 65434 65435 65435 65435 65431 65432 65435 65435 65435 65432 65432 65432 65431 65432 65429 65430 65429 65427 65427 65425 65422 65423 65416 65418 65415 65414 65411
65118 65061 65078 65211 65287 65313 65320 65300 65253 65305 65348 65373 65384 65389 65396 65400 65404 65406 65408 65410 65415 65415 65413 65417 65417 65419 65419 65419 65398 65166 64989 65200 65390 65423 65428 65427 65427 65427 65433 65434 65433 65434 65436 65441 65441 65440 65440 0 65443 65419 0 0 0 0 0 0 0 0 0 0 0 0 0 0 0 0 0 0 0 0 0 0 0 0 0 0 0 0 0 0 0 0 0 0 0 0 0 0 0 0 0 0 0 0 0 0 0 0 0 0 0 0 0 0 0 65415 65410 65411 65421 65423 65428 65438 65441 65441 65446 65445 65446 65442 65442 65442 65440 65443 65443 65443 65446 65445 65443 65446 65444 65444 65444 65442 65444 65438 65441 65442 65441 65442 65443 65440 65442 65442 65441 65440 65439 65439 65437 65434 65437 65436 65436 65434 65435 65435 65431 65433 65431 65433 65433 65431 65432 65429 65430 65431 65429 65431 65429 65428 65425 65424 65429 65425 65422 65420 65418 65415
65150 65137 65107 65067 65162 65283 65313 65327 65320 65252 65282 65333 65362 65382 65391 65396 65402 65403 65403 65410 65412 65415 65417 65418 65418 65418 65418 65419 65394 65120 65025 65224 65395 65427 65434 65427 65428 65428 65427 65427 65433 65437 65437 65440 65438 65440 0 0 65440 65427 65415 0 0 0 0 0 0 0 0 0 0 0 0 0 0 0 0 0 0 0 0 0 0 0 0 0 0 0 0 0 0 0 0 0 0 0 0 0 0 0 0 0 0 0 0 0 0 0 0 0 0 65416 65413 65417 65421 65429 65434 65437 65443 65442 65444 65445 65444 65445 65445 65445 65447 65442 65444 65444 65439 65445 65442 65443 65444 65445 65445 65444 65442 65444 65439 65442 65443 65444 65443 65444 65439 65443 65443 65442 65444 65440 65442 65443 65442 65440 65440 65438 65436 65436 65434 65433 65435 65437 65433 65433 65430 65432 65428 65428 65431 65428 65431 65429 65426 65429 65431 65429 65428 65425 65425 65423 65422 65420 65420 65418
65159 65167 65165 65144 65098 65123 65255 65312 65333 65329 65296 65261 65302 65348 65377 65389 65394 65396 65404 65411 65412 65416 65416 65417 65420 65419 65422 65418 65398 65061 65061 65247 65393 65430 65434 65438 65437 65431 65427 65427 65429 65431 65432 65436 65438 65439 65439 65439 65440 65438 65411 0 0 0 0 0 0 0 0 0 0 0 0 0 0 0 0 0 0 0 0 0 0 0 0 0 0 0 0 0 0 0 0 0 0 0 0 0 0 0 0 0 0 0 0 0 0 65417 65411 65416 65420 65427 65436 65440 65442 65445 65446 65444 65447 65445 65445 65444 65443 65446 65444 0 0 65445 65445 65447 65444 65443 65444 65441 65445 65444 65445 65448 65444 65447 65444 65443 65446 65440 65441 65445 65440 65445 65444 65443 65443 65440 65442 65442 65440 65439 65438 65440 65440 65437 65431 65436 65434 65434 65431 65432 65431 65432 65430 65425 65425 65426 65425 65422 65424 65424 65424 65426 65422 65421 65420 65418 65417 65417 65416 65413
65151 65163 65185 65182 65169 65135 65113 65206 65304 65328 65335 65335 65266 65283 65330 65366 65385 65396 65400 65404 65409 65414 65416 65420 65421 65421 65423 65423 65394 64990 65079 65264 65395 65429 65433 65434 65438 65440 65437 65430 65429 65431 65431 65433 65435 65434 65437 65441 65440 65439 65421 65433 0 0 0 0 0 0 0 0 0 0 0 0 0 0 0 0 0 0 0 0 0 0 0 0 0 0 0 0 0 0 0 0 0 0 0 0 0 0 0 0 65431 65417 65420 65423 65428 65434 65438 65444 0 65445 65448 65444 65446 65444 65444 65445 65446 65446 65446 65446 65445 0 65445 65444 65446 65444 0 65447 65445 65446 65444 65445 65446 65443 65446 65445 65443 0 65447 65445 65447 65445 65444 65444 65443 65442 65444 65443 65445 65442 65439 65439 65441 65436 65440 65441 65443 65440 65439 65438 65435 65432 65433 65432 65434 65433 65434 65431 65430 65427 65425 65429 65423 65425 65421 65423 65420 65418 65419 65416 65416 65415 65414 65413
65167 65173 65174 65194 65189 65194 65167 65115 65156 65282 65326 65346 65355 65323 65264 65302 65349 65377 65394 65403 65409 65412 65417 65418 65419 65423 65422 65422 65396 64909 65069 65278 65398 65430 65430 65432 65434 65438 65441 65442 65438 65432 65431 65430 65429 65434 65436 65436 65439 65439 65431 65408 0 0 0 0 0 0 0 0 0 0 0 0 0 0 0 0 0 0 0 0 0 0 0 0 0 0 0 0 0 0 0 0 0 0 0 0 65424 65417 65414 65424 65430 65438 65440 65444 65448 65450 65444 65449 0 65447 65448 0 65447 0 65446 0 65445 65445 65447 65445 65445 65446 65444 65444 65446 65444 65447 65448 65446 0 0 65445 65447 65446 0 65445 65445 0 65446 65446 65445 65445 65446 65442 65444 65445 65442 65444 65444 65443 65440 65442 65439 65441 65439 65438 65441 65437 65440 65441 65441 65438 65435 65435 65435 65434 65433 65430 65431 65431 65430 65430 65428 65425 65422 65420 65422 65423 65421 65417 65420 65416 65414 65415
65165 65174 65183 65196 65185 65207 65204 65193 65145 65130 65232 65319 65350 65364 65358 65292 65286 65339 65373 65391 65399 65407 65411 65415 65419 65420 65420 65423 65392 64814 65057 65295 65403 65429 65430 65432 65432 65436 65438 65438 65442 65442 65440 65431 65426 65436 65436 65436 65436 65440 65437 65413 0 0 0 0 0 0 0 0 0 0 0 0 0 0 0 0 0 0 0 0 0 0 0 0 0 0 0 0 0 0 0 0 65424 65421 65421 65426 65435 65442 65443 0 65449 65450 0 65449 0 65448 65447 0 65446 65447 65448 65447 65448 65448 65446 65446 65446 65444 65447 65443 65447 0 65444 0 65448 65445 65449 65446 65446 65448 65445 65447 65446 65445 65448 65446 65443 65443 65443 65445 65445 65446 0 65448 65443 65446 65444 65443 65446 65443 65443 65445 65441 65443 65442 65441 65440 65439 65439 65439 65438 65441 65437 65438 65436 65435 65436 65434 65433 65433 65433 65430 65428 65424 65426 65423 65426 65426 65424 65422 65418 65421 65414 65416
65168 65184 65197 65196 65195 65214 65215 65222 65208 65177 65142 65182 65294 65345 65363 65365 65353 65290 65333 65368 65386 65397 65405 65412 65413 65418 65421 65419 65396 64754 65090 65298 65407 65432 65431 65432 65434 65434 65434 65436 65438 65441 65442 65444 65441 65430 65434 65436 65437 65434 65438 65426 65422 0 0 0 0 0 0 0 0 0 0 0 0 0 0 0 0 0 0 0 0 0 0 0 0 0 0 0 65421 65421 65427 65435 65437 65444 65446 65445 65448 65449 65450 0 0 0 0 65449 65452 65449 65449 0 0 0 0 0 0 65446 65445 65449 65445 0 65450 0 65450 65449 65446 0 65447 65443 0 65445 65448 65448 65445 0 65447 65447 65446 65443 65446 65445 65444 65444 65448 65442 65447 65446 65445 65447 65444 65444 65446 65443 65444 65442 65440 65442 65442 65443 65443 65443 65442 65440 65439 65440 65438 65439 65438 65436 65435 65433 65431 65428 65430 65433 65431 65427 65428 65427 65426 65424 65424 65423 65419 65419 65415 65414
65171 65188 65200 65208 65203 65220 65220 65210 65230 65228 65205 65174 65159 65250 65341 65358 65369 65376 65332 65318 65357 65381 65394 65405 65412 65413 65416 65421 65390 64675 65072 65317 65410 65427 65433 65434 65432 65434 65435 65436 65437 65439 65438 65441 0 65447 65443 65436 65437 65441 65441 65436 65412 0 0 0 0 0 0 0 0 0 0 0 0 0 0 0 0 0 0 0 0 0 0 65431 65425 65427 65436 65438 65444 0 65449 65451 65448 65449 0 65448 0 0 65450 0 65449 0 65451 65449 0 0 0 65450 65448 0 65447 65449 65449 65447 65447 65449 65444 65449 65448 65443 65450 65447 65445 65448 65444 65445 65447 65444 0 65447 65446 65449 65447 65447 65446 65445 65446 65446 65446 65447 65447 65445 65446 65444 65445 65446 65446 65445 65446 65443 65443 65443 65443 65443 65443 65441 65444 65440 65443 65442 65437 65441 65439 65439 65437 65436 65436 65435 65434 65432 65432 65431 65432 65427 65428 65425 65423 65424 65422 65421 65416 65421 65415 65414
65178 65183 65199 65203 65198 65213 65220 65217 65231 65237 65239 65226 65203 65168 65206 65316 65355 65365 65371 65355 65305 65336 65372 65390 65401 65409 65414 65416 65385 64613 65068 65326 65415 65430 65433 65433 65435 65434 65437 65437 65433 65438 65440 65438 65441 65444 65446 65446 0 65444 65439 65439 65426 0 0 0 0 0 0 0 0 0 0 0 0 0 0 0 0 0 65431 65422 65422 65429 65439 65443 65447 0 65453 0 0 65452 0 65450 0 0 0 0 0 0 0 65449 0 65450 0 0 65449 65448 0 0 0 0 0 0 65451 65447 0 0 65447 65450 65449 65446 0 65447 0 0 0 65447 0 65446 65447 65446 65447 65449 65446 65447 65446 65445 65447 0 65446 65448 65446 65447 65447 65443 65443 65444 65445 65447 0 65443 65447 65445 65443 65444 65442 65442 65442 65441 65442 65441 65436 65441 65441 65439 65438 65437 65435 65435 65434 65435 65433 65432 65434 65430 65430 65426 65425 65422 65420 65421 65418 65419 65416 65412
65180 65190 65195 65205 65209 65214 65219 65224 65234 65236 65240 65250 65253 65232 65192 65181 65271 65349 65366 65375 65367 65320 65318 65350 65382 65397 65405 65411 65376 64505 65036 65334 65416 65429 65432 65432 65435 65433 65437 65437 65437 65438 65438 65438 65439 65441 65442 65443 65445 0 0 0 65432 65428 0 0 0 0 0 0 0 0 0 0 0 0 65421 65425 65425 65434 65440 0 65449 65449 65451 65450 0 0 0 0 0 0 0 0 0 0 0 0 0 0 0 0 0 65450 0 0 0 0 65452 0 0 65451 65447 0 0 0 0 65449 0 0 65448 65447 65450 65447 65448 65450 0 65449 65446 0 65448 65446 65446 65448 65446 65447 65447 65445 0 65446 0 65448 65446 65445 0 65444 65444 65444 65443 65446 65445 65445 65446 65445 65446 65447 65442 65442 65443 65442 65442 65441 65441 65442 65438 65440 65439 65438 65437 65437 65436 65437 65435 65432 65432 65431 65431 65427 65425 65424 65422 65420 65416 65417 65415 65414
65187 65187 65194 65202 65207 65208 65223 65230 65233 65228 65238 65241 65252 65261 65256 65220 65181 65214 65330 65365 65372 65373 65361 65313 65328 65367 65389 65400 65367 64402 65019 65337 65417 65428 65432 65434 65435 65435 65434 65437 65437 65438 65439 65439 65439 65441 65441 0 65443 0 0 0 65446 65431 0 0 0 0 0 0 0 65413 65411 65414 65427 65433 65446 0 0 0 65448 0 0 0 0 0 0 0 0 0 0 0 0 0 0 0 0 0 0 0 0 0 0 0 0 0 0 0 0 0 0 0 0 0 0 0 65452 65448 0 0 0 0 0 65448 0 0 65449 65449 65447 65449 65447 65445 0 65447 65447 65448 65448 65444 65446 0 65446 65444 65445 65445 65447 65445 0 65447 65443 65443 65445 65441 65444 65392 65445 65444 65445 65443 65445 65443 65442 65442 65442 65443 65440 65441 65441 65437 65440 65439 65436 65438 65435 65433 65435 65430 65430 65429 65424 65426 65423 65420 65421 65419 65416 65414
65183 65189 65197 65210 65215 65220 65224 65224 65232 65232 65239 65251 65260 65268 65270 65262 65239 65199 65182 65279 65358 65373 65380 65375 65356 65315 65345 65376 65344 64321 64988 65339 65412 65427 65430 65430 65434 65436 65437 65437 65437 65437 65440 65437 65438 65439 65441 0 65443 65442 0 65445 0 65437 0 0 0 65416 65418 65422 65427 65429 65438 65440 65442 65443 65446 0 0 0 0 0 0 0 0 0 0 0 0 0 0 0 0 0 0 0 0 61049 0 0 0 0 65452 0 65452 0 65448 0 65449 0 0 65451 0 0 0 0 65452 0 0 0 65450 0 65448 0 65452 0 0 65451 65448 0 65450 65446 65445 65448 65446 65447 65446 65446 0 65444 65449 65449 0 65448 65445 65444 65446 65447 65445 65445 65441 65445 65445 65442 65442 65445 65442 65444 65443 65443 65442 65442 65440 65443 65441 65441 65442 65439 65439 65439 65439 65435 65436 65435 65435 65430 65431 65431 65425 65427 65425 65423 65424 65422 65421 65417
65182 65191 65202 65206 65220 65231 65231 65232 65237 65240 65252 65255 65257 65261 65265 65269 65271 65258 65228 65202 65212 65331 65373 65382 65387 65389 65356 65317 65284 64263 64981 65334 65415 65423 65429 65429 65433 65434 65436 65437 65438 65438 65439 65439 65440 65441 65442 65441 65444 65442 65441 65443 65443 65441 65439 65440 65444 65445 65442 65437 65441 65440 65440 65438 0 65441 65444 0 65446 65447 0 0 0 0 65451 0 0 0 0 0 0 0 0 0 0 65451 0 0 0 0 65452 0 0 0 0 0 0 0 65449 65450 0 0 0 0 0 65452 65450 65451 0 65450 0 0 65450 0 65451 0 65452 65450 65447 0 0 65447 65450 65448 0 0 65447 65446 65446 65445 65444 65447 65445 65449 0 65447 65447 65448 65446 65448 65447 65446 65445 65442 65444 65445 65442 65446 65444 65438 65444 65443 65441 65442 65441 65442 65441 65438 65438 65440 65439 65436 65435 65435 65436 65435 65433 65433 65428 65429 65427 65422 65422 65422 65417 65416
65186 65193 65206 65203 65218 65223 65231 65238 65246 65254 65256 65265 65263 65266 65265 65281 65280 65270 65274 65258 65220 65205 65272 65366 65382 65390 65396 65394 65255 64214 64989 65325 65407 65420 65422 65426 65432 65433 65436 65434 65437 65436 65440 65440 65439 65441 65438 65443 65441 0 0 65444 65445 65442 0 65446 0 65449 0 0 65443 65442 65440 65438 65437 65440 65442 0 65444 65443 65447 65446 65449 0 0 0 0 0 0 65451 0 0 0 0 0 0 0 0 0 0 0 0 0 0 0 0 0 0 0 0 0 65450 0 0 0 0 65450 65452 0 0 0 0 0 0 0 0 0 0 65449 0 65449 0 0 65449 0 65450 65446 65448 65446 65445 65447 65446 65442 0 65443 65445 65448 65445 65445 65447 65445 65448 65447 65446 65448 65445 65445 65445 65441 65440 65444 65441 65442 65441 65440 65441 65441 65439 65439 65438 65435 65436 65436 65438 65434 65432 65434 65433 65428 65431 65426 65424 65422 65418 65417 65414
65187 65196 65202 65204 65217 65230 65233 65236 65250 65248 65249 65258 65262 65259 65268 65273 65273 65279 65278 65287 65271 65258 65217 65221 65331 65380 65391 65390 65342 64293 64944 65299 65383 65407 65415 65422 65426 65428 65433 65435 65437 65438 65439 0 65442 65442 65443 65443 65443 65442 65444 65444 0 65445 0 0 65445 0 65448 0 0 0 65438 65441 65440 65439 65434 65437 65442 65440 65445 65442 65445 65445 65447 65449 0 0 0 0 0 0 0 0 0 0 0 0 0 0 0 0 0 0 0 0 0 0 0 0 0 0 0 0 0 0 65450 0 0 65450 0 0 0 0 65450 65450 0 65450 0 65450 65450 0 65449 65449 65449 0 65449 0 65449 65446 65445 65446 65446 65447 65445 65444 65445 65445 65444 65444 65443 65445 65443 65444 65449 65448 65445 65445 65444 65444 65444 65441 65444 65442 65440 65441 65441 65438 65438 65438 65438 65439 65435 65436 65436 65434 65434 65435 65432 65432 65430 65426 65424 65419 65416 65418
65190 65187 65199 65213 65214 65226 65235 65241 65248 65248 65252 65259 65260 65263 65262 65269 65274 65283 65288 65293 65286 65288 65272 65246 65222 65266 65365 65386 65318 64329 64956 65279 65333 65376 65398 65412 65419 65426 65430 65432 65435 65436 65437 65439 65439 65442 65442 0 65443 65443 65444 65445 0 65444 65444 65446 65446 0 65448 0 0 0 65452 65447 65441 65443 65443 65441 65438 65438 65439 0 0 65446 65447 65445 0 0 0 0 0 0 0 0 0 0 0 0 0 0 0 0 0 0 0 0 0 0 0 0 0 0 0 0 0 0 0 0 0 0 0 0 0 0 0 65452 65450 0 0 0 65449 0 0 0 0 0 65448 0 65448 65447 65447 65447 65446 65445 65445 65446 65447 65444 65444 65444 65443 65443 65444 65443 65444 65444 65446 65446 65442 65442 65444 65440 65443 65443 65440 65442 65439 65439 65440 65437 65439 65438 65436 65436 65435 65433 65432 65433 65430 65433 65431 65425 65426 65421 65418 65416
65190 65197 65207 65209 65213 65218 65232 65239 65245 65245 65251 65257 65263 65265 65271 65277 65270 65281 65290 65297 65293 65287 65294 65293 65277 65237 65209 65291 65300 64373 64961 65316 65397 65349 65351 65383 65405 65416 65423 65428 65429 65435 65438 65438 65440 65439 0 65442 0 65443 0 0 65445 0 65446 65445 0 65448 0 0 0 0 0 0 0 65450 65444 65442 65443 0 65441 65441 65438 65438 0 65446 0 0 0 0 0 0 0 0 0 0 0 0 0 0 0 0 0 0 0 0 0 0 0 0 0 0 0 0 0 0 65453 0 0 0 0 0 0 0 0 0 65452 65451 0 0 0 0 0 0 0 65450 0 0 0 65447 65450 65447 65448 0 65447 65447 65446 65446 65446 65446 65445 65444 65446 65445 65447 65446 65443 65443 65444 65446 65444 0 65441 65442 65438 65440 65439 65441 65441 65438 65439 65438 65437 65437 65435 65435 65432 65432 65429 65428 65428 65428 65423 65420 65420 65417
65185 65196 65213 65217 65225 65223 65227 65234 65234 65246 65251 65258 65264 65266 65277 65271 65271 65283 65291 65292 65294 65296 65300 65302 65303 65289 65248 65142 65058 64339 64965 65318 65400 65410 65397 65336 65360 65391 65410 65420 65427 65432 65435 65437 65439 65439 65441 65441 65443 65443 65443 65444 0 0 0 65447 65446 0 0 0 0 65449 0 0 0 0 0 65451 65444 65441 65445 65444 65440 65442 65441 65441 65443 0 0 0 65448 0 0 0 0 0 0 0 0 0 0 0 0 0 0 0 0 0 0 0 0 0 0 0 0 0 0 0 0 0 0 0 0 65450 0 0 65452 0 0 0 0 65452 0 0 0 0 65450 0 0 0 0 0 65450 65450 65447 65447 0 65447 65449 65447 65446 0 65447 65446 0 65446 65446 65446 65445 65444 65444 65443 65443 65441 65440 65439 65439 65438 65440 65437 65440 65440 65435 65436 65436 65434 65435 65433 65427 65426 65427 65427 65426 65425 65421 65419
65188 65207 65214 65220 65224 65225 65238 65239 65242 65248 65250 65265 65263 65265 65269 65280 65279 65283 65291 65294 65294 65297 65297 65306 65300 65299 65280 65199 65103 64232 64950 65308 65394 65404 65408 65411 65385 65334 65367 65400 65418 65424 65431 65434 65437 65436 65440 65442 65441 65443 65444 0 65446 0 0 65446 65447 65446 0 65448 0 0 0 0 0 0 0 0 0 0 65444 65446 0 65444 65442 65444 65439 65439 65442 65445 0 0 0 0 0 65452 0 0 0 0 0 0 0 0 0 0 0 0 0 0 0 0 0 0 0 0 0 0 0 0 0 0 0 0 0 0 0 0 0 0 0 0 0 0 0 0 65451 65451 0 0 65451 65448 0 0 65448 65450 65448 65447 65450 65448 0 0 65447 65445 65448 65445 65447 65445 65446 65447 65443 65443 65444 65440 65440 65441 65442 65441 65441 65436 65437 65439 65437 65437 65436 65436 65435 65434 65431 65428 65428 65425 65425 65422 65423 65421
65191 65198 65209 65219 65223 65226 65238 65244 65254 65257 65251 65261 65268 65264 65264 65278 65280 65287 65293 65301 65303 65298 65304 65303 65307 65307 65283 65220 65137 64296 64920 65187 65309 65396 65406 65408 65411 65412 65367 65346 65386 65411 65420 65431 65436 65437 65439 65439 65442 65442 65443 65445 65443 65445 0 0 0 65447 0 65449 0 0 0 0 0 0 0 0 0 0 0 0 65445 65447 65446 65445 65443 65441 65441 65442 0 65447 0 0 0 0 0 0 0 0 0 0 0 0 0 0 0 0 0 0 0 0 0 0 0 0 0 0 0 0 0 0 0 0 65453 0 0 0 0 0 0 0 0 0 0 0 0 65450 0 0 0 63502 0 0 0 0 65447 65448 65447 65447 65449 65450 65446 65449 0 65447 0 65445 65447 65447 65446 65441 65444 65442 65441 65441 65440 65439 65441 65438 65437 65440 65435 65437 65435 65435 65433 65434 65431 65433 65427 65426 65425 65422 65421 65420
65187 65197 65210 65221 65220 65228 65234 65240 65251 65254 65260 65260 65268 65271 65277 65276 65277 65287 65296 65296 65297 65292 65301 65309 65315 65310 65288 65219 65119 64361 64910 65120 65094 65225 65367 65402 65408 65411 65417 65413 65353 65364 65398 65413 65427 65433 65435 65438 65437 65442 0 65445 65445 65445 0 0 0 65446 0 0 0 0 65449 0 0 0 0 0 0 0 0 0 0 0 0 65448 65447 0 65443 65443 65440 65440 0 65446 65446 0 65449 0 0 0 0 0 0 0 0 0 0 0 0 0 0 0 0 0 0 0 0 0 0 0 0 0 0 0 0 0 0 0 0 0 0 0 0 0 0 0 65452 65450 0 0 0 0 0 65450 0 0 0 65449 65449 0 65449 65449 0 65449 65447 65447 65448 65445 65446 65446 65445 65444 65445 65443 65443 65441 65441 65441 65440 65439 65439 65441 65440 65436 65434 65433 65432 65433 65433 65429 65430 65427 65424 65424 65422 65418
65190 65198 65205 65213 65230 65232 65237 65233 65244 65257 65259 65265 65270 65270 65277 65284 65281 65283 65294 65298 65296 65297 65303 65312 65315 65309 65290 65225 65116 64316 64885 65137 65187 65230 65242 65295 65390 65407 65408 65414 65419 65402 65350 65375 65405 65420 65429 65433 65436 65440 65441 65443 65444 0 65446 0 0 0 0 0 65448 0 0 0 65448 0 0 0 0 0 0 0 0 0 0 0 0 65447 0 0 65443 65443 65443 65442 65442 65444 0 0 0 0 0 0 65452 0 0 0 0 0 0 0 0 0 0 0 0 0 0 0 0 0 0 0 0 0 0 0 0 0 0 0 0 0 0 0 0 0 65453 65452 0 65452 65451 65452 0 0 0 65451 0 65451 0 65450 0 0 0 65449 65447 65448 65447 65445 65446 65447 65446 65444 65445 65445 65442 65444 65442 65441 65441 65440 65440 65440 65441 65440 65435 65433 65434 65432 65427 65430 65431 65428 65426 65424 65420 65418
65190 65196 65213 65219 65227 65235 65241 65239 65243 65253 65246 65254 65269 65269 65279 65288 65286 65291 65289 65299 65293 65297 65303 65303 65302 65313 65293 65216 65136 64426 64899 65158 65238 65288 65288 65255 65237 65337 65401 65411 65416 65415 65420 65391 65355 65383 65411 65420 65431 65437 65438 65441 65441 65444 0 65443 65445 0 65446 0 0 0 0 65449 0 0 0 0 0 0 0 0 0 0 0 0 0 0 0 0 65449 65448 0 65444 65443 65446 65444 65444 65446 0 65449 0 0 0 0 0 0 0 0 0 0 0 0 0 0 0 0 0 0 0 0 0 0 0 0 0 0 0 0 0 65453 0 0 0 0 0 0 0 0 65450 0 0 0 65452 65450 0 65450 0 65451 0 65450 65448 0 0 65449 65448 0 0 65448 65446 65445 65443 0 65442 65443 65444 65441 65443 65442 65440 65441 65438 65440 65441 65439 65435 65435 65432 65431 65430 65428 65426 65424 65423 65420 65419
65183 65196 65214 65218 65221 65229 65231 65242 65243 65246 65249 65261 65268 65277 65282 65280 65288 65286 65287 65286 65288 65298 65305 65305 65309 65310 65297 65223 65136 64522 64942 65169 65255 65294 65320 65300 65288 65264 65270 65362 65410 65418 65417 65419 65421 65382 65363 65393 65413 65424 65432 65438 65440 65441 65441 65443 65444 65447 0 0 65448 0 0 0 0 65449 0 0 0 0 0 0 0 0 0 0 0 0 0 0 0 65446 0 0 65448 65445 0 65443 0 65443 65446 0 65446 0 0 0 0 0 0 0 0 0 0 0 0 0 0 0 0 0 0 0 0 0 0 0 0 0 0 0 0 0 0 0 0 0 0 0 0 0 0 0 0 0 65453 0 65451 65452 0 65451 65448 0 65449 65446 65447 0 65449 65447 65449 65446 65446 0 65444 65440 65441 65442 65440 65442 65439 65442 65444 65441 65439 65442 65441 65436 65434 65433 65430 65430 65425 65425 65425 65422 65420 65418
65186 65205 65211 65221 65224 65229 65232 65245 65244 65247 65251 65258 65263 65280 65283 65286 65279 65285 65290 65294 65293 65297 65304 65305 65309 65307 65298 65243 65138 64661 64959 65179 65254 65302 65318 65326 65319 65308 65290 65260 65292 65388 65416 65418 65420 65425 65422 65371 65366 65395 65415 65426 65431 65437 65440 65441 65444 65445 0 65446 0 65447 0 0 0 0 0 0 0 0 0 0 0 0 0 0 0 0 0 0 0 0 0 0 0 65448 0 65447 0 65443 65445 65444 0 65448 0 65449 65448 0 0 0 0 0 0 0 0 0 0 0 0 0 0 0 0 0 0 0 0 0 0 0 0 0 0 0 0 0 0 0 0 0 0 65451 0 65452 65451 0 0 0 65449 65449 65448 65449 65447 0 65447 65447 65448 65449 0 65447 65444 0 65444 65445 65443 65441 65439 65441 65437 65440 65442 65435 65437 65440 65438 65436 65436 65432 65431 65428 65428 65425 65425 65422 65420 65417
65187 65198 65210 65219 65227 65236 65238 65242 65246 65253 65250 65260 65264 65272 65277 65285 65280 65281 65289 65291 65289 65298 65308 65307 65312 65303 65294 65241 65142 64770 64981 65180 65245 65303 65324 65337 65333 65329 65324 65313 65289 65260 65323 65403 65418 65419 65423 65424 65422 65363 65364 65396 65417 65428 65433 65438 65439 0 65442 0 0 0 0 65446 0 0 0 0 0 0 0 0 0 0 0 0 0 0 0 0 0 0 0 0 0 0 0 0 0 65445 65445 0 65447 65446 0 0 0 0 0 0 0 0 0 0 0 0 0 0 0 0 0 0 0 0 0 0 0 0 0 0 0 0 0 0 0 0 0 0 0 0 0 0 0 0 0 0 65452 65449 0 0 0 65449 65450 65448 65448 65449 65448 65450 65447 65447 0 65448 65444 65443 65444 65439 65439 65435 65436 65440 65438 65437 65435 65437 65437 65436 65429 65431 65428 65429 65428 65426 65426 65421 65419 65415
65182 65196 65205 65205 65217 65229 65236 65245 65245 65253 65258 65257 65265 65264 65272 65278 65283 65289 65287 65294 65300 65300 65303 65313 65316 65307 65289 65232 65139 64919 65025 65174 65251 65311 65327 65334 65341 65340 65339 65340 65335 65311 65281 65272 65351 65411 65420 65425 65425 65427 65415 65360 65368 65399 65418 65428 65432 65436 65442 65444 0 65447 0 0 65448 0 0 0 0 0 0 0 0 0 0 0 0 0 0 0 0 0 0 0 0 0 0 0 65446 0 65447 65446 65445 65444 65447 0 65448 0 0 0 0 0 0 0 0 0 0 0 0 0 0 0 0 0 0 0 0 0 0 0 0 0 0 0 0 0 0 0 0 0 0 0 0 0 0 0 0 0 65451 65451 0 0 65448 65448 0 0 65448 0 0 65447 65449 65448 65446 65445 65444 65441 65439 65437 65434 65435 65435 65435 65435 65435 65436 65436 65435 65434 65430 65430 65426 65425 65423 65422 65420 65419
65185 65196 65204 65205 65213 65222 65230 65237 65241 65247 65254 65261 65264 65269 65272 65278 65287 65285 65292 65285 65303 65306 65305 65308 65301 65300 65271 65207 65093 65046 65097 65185 65253 65318 65332 65338 65340 65343 65343 65341 65344 65342 65335 65313 65288 65291 65375 65418 65424 65424 65426 65432 65416 65357 65374 65402 65420 65431 65437 65440 65442 65444 0 0 0 65447 65448 0 0 0 0 0 0 0 0 0 0 0 0 0 0 0 0 0 0 0 0 0 0 0 65449 0 65447 0 65442 65445 65444 0 0 0 65449 0 0 0 0 0 0 0 0 0 0 0 0 0 0 0 0 0 0 0 0 0 0 0 0 0 0 0 0 0 0 0 0 0 0 0 65451 0 65452 0 0 65450 0 0 65450 65449 0 0 0 65448 65447 65448 65446 65447 65446 65444 65442 65442 65434 65436 65435 65433 65435 65435 65436 65434 65433 65431 65432 65433 65431 65429 65424 65422 65420 65417
65181 65181 65201 65202 65219 65221 65234 65238 65246 65246 65256 65264 65261 65271 65274 65277 65285 65284 65291 65293 65299 65300 65303 65303 65296 65276 65244 65160 64942 65142 65158 65165 65230 65309 65333 65338 65340 65338 65343 65341 65343 65346 65346 65345 65334 65306 65278 65303 65392 65418 65425 65428 65429 65432 65410 65355 65381 65411 65425 65429 65436 65440 65442 0 0 0 0 0 0 0 0 0 0 0 0 0 0 0 0 0 0 0 0 0 0 0 0 0 0 0 0 0 0 0 0 65447 65444 65443 0 0 0 0 0 0 0 0 0 0 0 0 0 0 0 0 0 0 0 0 0 0 0 0 0 0 0 0 0 0 0 0 0 0 0 0 0 0 0 0 0 0 0 0 0 0 65450 65447 65450 65451 0 65446 0 65447 65446 65446 65448 65445 65447 65446 65442 65440 65439 65439 65435 65434 65434 65436 65435 65431 65431 65430 65428 65429 65428 65425 65421 65417
65173 65188 65205 65197 65219 65222 65232 65242 65241 65251 65259 65264 65268 65272 65279 65276 65287 65287 65292 65293 65300 65303 65305 65307 65287 65251 65175 64800 64235 65199 65208 65138 65199 65284 65327 65339 65341 65344 65342 65340 65346 65349 65345 65344 65348 65339 65325 65301 65285 65323 65404 65422 65427 65427 65427 65431 65403 65358 65389 65413 65423 65433 65438 65440 65443 65443 65445 0 65447 0 65448 0 0 0 0 0 0 0 0 0 0 0 0 0 0 0 0 0 0 0 0 0 0 0 0 0 0 65446 0 65446 0 65447 0 0 0 0 0 0 0 0 0 0 0 0 0 0 0 0 0 0 0 0 0 0 0 0 0 0 0 0 0 0 0 0 0 0 0 0 0 0 65453 0 65451 0 0 0 65450 65450 65449 0 65451 65448 65447 0 65448 65447 65448 0 65444 65445 65441 65438 65440 65443 65433 65433 65433 65432 65432 65430 65424 65426 65424 65422 65422 65417
65177 65186 65203 65209 65215 65218 65229 65233 65235 65249 65253 65262 65271 65273 65278 65281 65289 65288 65285 65297 65297 65307 65303 65297 65273 65215 65043 64366 64492 65279 65228 65173 65232 65252 65304 65328 65339 65340 65336 65341 65347 65353 65347 65349 65348 65342 65350 65345 65322 65297 65285 65339 65412 65422 65427 65426 65431 65429 65395 65364 65394 65411 65426 65432 65439 65440 65443 65443 0 0 0 0 0 0 0 0 0 0 0 0 0 0 0 0 0 0 0 0 0 0 0 0 0 0 0 0 0 0 0 0 0 0 0 0 65447 0 0 0 0 0 0 0 0 0 0 0 0 0 0 0 0 0 0 0 0 0 0 0 0 0 0 0 0 0 0 0 0 0 0 0 0 0 0 0 0 65449 0 0 0 0 0 0 0 65449 65447 0 0 65446 65446 65447 0 65436 65438 65438 65435 65433 65429 65425 65427 65425 65427 65428 65426 65423 65421 65419
65178 65187 65201 65205 65206 65220 65230 65241 65244 65248 65249 65263 65272 65275 65276 65280 65287 65281 65293 65298 65305 65310 65305 65274 65240 65128 64325 64089 64903 65407 65345 65248 65298 65204 65274 65312 65339 65337 65337 65340 65348 65353 65350 65343 65352 65356 65359 65358 65354 65344 65323 65297 65288 65358 65415 65425 65428 65429 65432 65430 65389 65363 65394 65414 65421 65430 65436 65440 65442 65446 65447 0 0 0 0 0 0 0 0 0 0 0 0 0 0 0 0 0 0 0 0 0 0 0 0 0 0 0 0 0 0 0 0 65445 65446 65445 0 0 0 65450 0 0 0 0 0 0 0 0 0 0 0 0 0 0 0 0 0 0 0 0 0 0 0 0 0 0 0 0 0 0 0 0 0 0 0 0 0 0 65450 0 65450 0 0 0 65450 65450 0 65447 65445 65446 65445 65443 65438 65436 65432 65433 65428 65422 65420 65418 65420 65422 65425 65423 65421 65419
65175 65189 65198 65203 65209 65222 65227 65233 65245 65247 65253 65262 65269 65279 65275 65282 65289 65288 65296 65302 65306 65305 65293 65249 65183 64854 63960 64068 65105 65416 65357 65272 65266 65131 65178 65289 65323 65334 65339 65345 65350 65347 65347 65350 65355 65359 65356 65355 65355 65356 65350 65349 65321 65297 65285 65365 65419 65426 65429 65431 65432 65428 65381 65365 65395 65414 65423 65432 65436 65441 65443 0 0 0 0 65449 0 0 0 0 0 0 0 0 0 0 0 0 0 0 0 0 0 0 0 0 0 0 0 0 0 0 0 0 0 65448 65448 0 0 0 0 0 0 0 0 0 0 0 0 0 0 0 0 0 0 0 0 0 0 0 0 0 0 0 0 0 0 0 0 0 65452 0 0 65451 65452 0 0 0 0 0 0 0 65447 65445 65445 65447 65446 0 65447 65447 0 65445 65445 65433 65434 65434 65431 65426 65427 65422 65418 65422 65420 65420 65419 65417
65167 65178 65194 65200 65209 65218 65222 65230 65234 65249 65248 65251 65271 65273 65273 65283 65286 65291 65293 65308 65309 65297 65276 65222 65046 64082 63825 64649 65297 65401 65377 65245 65168 64652 65198 65293 65329 65339 65346 65349 65348 65348 65348 65353 65354 65352 65358 65359 65357 65353 65354 65355 65355 65338 65318 65294 65296 65383 65425 65425 65426 65431 65429 65429 65385 65367 65395 65414 65425 65434 65437 65440 65444 0 0 65448 0 0 0 0 0 0 0 0 0 0 0 0 0 0 0 0 0 0 0 0 0 0 0 0 0 0 0 0 0 0 0 0 0 65445 65445 65447 0 65448 0 0 0 0 0 0 0 0 0 0 0 0 0 0 0 0 0 0 0 0 0 0 0 0 0 0 65452 0 0 0 0 0 65451 0 0 65450 0 0 65449 65446 65446 65445 65440 65444 65442 65444 65445 0 65443 65444 65441 65439 65436 65431 65424 65420 65418 65417 65416 65419 65417 65415
65158 65177 65196 65201 65206 65215 65226 65223 65233 65250 65247 65252 65266 65274 65279 65280 65285 65290 65296 65299 65302 65290 65257 65161 64391 63247 64056 65169 65400 65424 65240 65188 64788 64990 65248 65306 65330 65342 65347 65348 65348 65351 65352 65353 65353 65350 65358 65356 65356 65351 65353 65349 65363 65361 65353 65347 65319 65293 65310 65389 65426 65428 65430 65429 65433 65427 65380 65366 65396 65414 65425 65432 65436 65441 0 65445 0 0 65449 0 0 0 0 0 0 0 0 0 0 0 0 0 0 0 0 0 0 0 0 0 0 0 0 0 0 0 0 0 0 65449 65445 65445 65445 0 65445 0 0 0 0 0 0 0 0 0 0 0 0 0 0 0 0 0 0 0 0 0 0 0 0 0 0 0 65451 0 0 0 65450 0 0 0 0 65448 65448 65447 0 0 65444 65442 65441 65439 65442 65446 65444 65442 65444 65441 65438 65438 65433 65425 65420 65418 65417 65416 65413 65414
65165 65178 65190 65198 65202 65212 65215 65227 65236 65247 65246 65254 65268 65274 65284 65280 65275 65271 65277 65282 65281 65278 65234 65102 63510 63193 64669 65397 0 65305 65241 65078 64654 65194 65261 65309 65333 65342 65343 65352 65350 65347 65351 65357 65352 65355 65348 65351 65356 65355 65362 65369 65363 65363 65367 65366 65353 65344 65325 65297 65313 65394 65424 65430 65427 65431 65434 65426 65373 65367 65394 65416 65426 65431 65434 65441 0 65446 0 65447 0 0 0 0 0 0 0 0 0 0 0 0 0 0 0 0 0 0 0 0 0 0 0 0 0 0 0 0 0 0 0 0 65447 0 0 65442 65445 0 65447 0 0 0 0 0 0 0 0 0 0 0 0 0 0 0 0 0 0 0 0 0 0 0 0 0 0 0 0 0 65449 65447 65447 0 0 65449 65448 0 65445 65447 65443 65441 65442 65441 65444 65444 65443 65442 65440 65440 65440 65436 65428 65418 65417 65416 65411 65410
65163 65175 65189 65202 65210 65213 65220 65232 65235 65247 65251 65248 65257 65262 65277 65266 65251 65231 65227 65223 65219 65209 65187 65073 64464 63785 64980 0 65435 65167 65161 64560 65020 65155 65258 65318 65339 65340 65345 65346 65352 65349 65354 65354 65353 65349 65354 65354 65359 65350 65352 65361 65360 65365 65366 65367 65366 65367 65358 65332 65322 65298 65324 65400 65427 65430 65431 65432 65432 65426 65376 65368 65395 65413 65424 65433 65436 65441 65444 0 65446 65447 0 0 0 0 0 0 0 0 0 0 0 0 0 0 0 0 0 0 0 0 0 0 0 0 0 0 0 0 0 0 0 0 65450 0 65444 65446 0 0 0 65448 0 0 0 0 0 0 0 0 0 0 0 0 0 0 0 0 0 0 0 0 0 0 0 0 0 0 0 0 0 65445 0 0 65447 65445 0 65445 65443 65443 65440 65439 65439 65442 65443 65442 65441 65439 65437 65435 65435 65435 65426 65419 65408 65408
65158 65174 65183 65201 65209 65211 65226 65226 65236 65242 65246 65246 65252 65269 65270 65258 65229 65160 64972 65019 65068 65102 65067 64698 63510 63832 64766 65302 65020 64652 64644 64853 65199 65097 65216 65304 65335 65342 65345 65349 65352 65348 65347 65354 65358 65359 65356 65355 65355 65362 65361 65357 65358 65365 65365 65368 65369 65370 65369 65370 65360 65347 65313 65304 65327 65401 65428 65429 65431 65429 65434 65426 65379 65367 65395 65412 65426 65432 65438 65441 65443 0 0 0 0 0 0 0 0 0 0 0 0 0 0 0 0 0 0 0 0 0 0 0 0 0 0 0 0 0 0 0 0 0 0 0 0 65447 65444 65442 65445 65444 65446 0 0 0 0 0 0 0 0 0 0 0 0 0 0 0 0 0 0 0 0 0 0 0 0 65451 0 0 0 65448 0 0 65447 0 65445 65445 65442 65444 65442 65439 65438 65437 65438 65440 65440 65441 65437 65434 65432 65426 65425 65431 65427 65415
65153 65162 65171 65191 65206 65214 65214 65222 65230 65235 65245 65250 65262 65264 65262 65245 65207 64842 63496 63384 63879 64272 64301 63342 63124 63885 64277 64571 64422 64114 64391 65145 65448 65397 65165 65253 65302 65330 65346 65345 65354 65350 65352 65356 65356 65358 65354 65354 65360 65361 65365 65362 65362 65370 65371 65367 65366 65368 65365 65372 65367 65362 65358 65348 65326 65298 65327 65399 65429 65432 65432 65431 65432 65426 65384 65366 65392 65411 65425 65432 65437 0 65443 0 0 0 0 0 0 0 0 0 0 0 0 0 0 0 0 0 0 0 0 0 0 0 0 0 0 0 0 0 0 0 0 0 0 0 0 0 65446 0 65444 65442 65443 0 0 65446 0 0 0 0 0 0 0 0 0 0 0 0 0 0 0 0 0 0 0 65451 0 0 0 65450 0 0 65447 0 65445 65444 0 65443 65442 65439 65438 65435 65434 65436 65436 65434 65436 65432 65429 65425 65420 65419 65417 65423
65148 65158 65166 65184 65195 65205 65211 65216 65221 65232 65243 65251 65256 65265 65269 65250 65195 64656 63903 63998 63532 63211 62716 62289 62616 63559 64041 64075 64199 64646 64968 65038 65393 0 65449 65227 65228 65291 65327 65344 65349 65350 65351 65355 65355 65355 65357 65359 65366 65364 65361 65363 65365 65364 65366 65363 65368 65365 65371 65372 65373 65368 65369 65363 65362 65345 65321 65307 65329 65403 65428 65430 65430 65432 65435 65430 65391 65363 65386 65408 65423 65428 65435 65440 0 0 0 65446 0 65449 0 0 0 0 0 0 0 0 0 0 0 0 0 0 0 0 0 0 0 0 0 0 0 0 0 0 0 0 0 0 65451 0 0 65445 65442 65442 0 0 0 0 0 0 0 0 0 0 0 0 0 0 0 0 0 0 0 0 0 0 0 0 0 0 65448 65447 65447 0 0 65445 65444 65445 65442 65440 65440 65434 65433 65434 65433 65431 65434 65432 65429 65425 65421 65420 65415 65412
65138 65153 65171 65184 65194 65204 65208 65220 65221 65223 65231 65244 65254 65261 65265 65248 65213 65104 64730 63785 63293 63584 63796 62380 61610 61953 63143 63990 64419 65056 65149 65168 65102 65328 0 0 65334 65178 65269 65317 65333 65348 65347 65352 65352 65341 65357 65357 65361 65359 65367 65368 65367 65364 65366 65364 65371 65368 65368 65368 65371 65367 65374 65371 65361 65369 65359 65351 65327 65303 65334 65400 65427 65431 65433 65433 65434 65427 65392 65357 65381 65407 65420 65427 65437 0 65443 65445 0 0 0 0 0 0 0 0 0 0 0 0 0 0 0 0 0 0 0 0 0 0 0 0 0 0 0 0 0 0 0 0 0 0 0 65449 0 65443 65442 65443 65445 65443 65445 65446 65446 65448 0 0 0 0 65449 0 0 0 0 0 0 0 0 0 0 0 0 0 0 65447 0 65447 0 65446 65444 65444 65440 65440 65437 65436 65435 65434 65430 65428 65431 65432 65429 65425 65422 65417 65412 65412
65138 65154 65156 65177 65194 65198 65209 65223 65224 65227 65227 65248 65252 65254 65263 65254 65232 65224 65170 65025 64492 63453 64082 64434 64101 61742 62289 63482 64445 65109 65220 65264 65251 65196 65206 65423 0 65410 65190 65249 65305 65336 65348 65355 65353 65353 65360 65356 65351 65353 65366 65367 65371 65366 65367 65365 65361 65368 65370 65367 65361 65367 65372 65365 65371 65373 65369 65371 65362 65349 65328 65311 65327 65396 65426 65433 65431 65434 65433 65430 65397 65363 65381 65404 65421 65428 65436 65439 65443 0 0 0 0 0 0 0 0 0 0 0 0 0 0 0 0 0 0 0 0 0 0 0 0 0 0 0 0 0 0 0 0 0 0 0 0 0 65448 0 65446 65442 65443 65443 65445 0 65445 65445 0 65448 0 0 0 65450 65451 0 0 0 0 0 0 0 0 65449 0 0 65448 65447 65445 0 0 65443 65441 65442 65439 65437 65437 65435 65431 65429 65423 65425 65425 65425 65425 65419 65415 65409
65139 65148 65160 65166 65194 65191 65207 65219 65224 65227 65236 65245 65251 65254 65257 65247 65263 65261 65245 65207 65122 64886 64515 64995 65199 63768 63030 64145 64288 65096 65279 65317 65312 65291 65241 65135 65361 0 0 65265 65213 65288 65332 65350 65357 65359 65358 65362 65361 65353 65362 65363 65370 65364 65360 65363 65364 65367 65364 65368 65362 65362 65362 65375 65378 65378 65374 65375 65372 65373 65365 65351 65330 65314 65330 65395 65429 65431 65432 65435 65433 65433 65409 65363 65376 65403 65416 65429 65435 65440 0 65445 0 65446 0 0 0 0 0 0 0 0 0 0 0 0 0 0 0 0 0 0 0 0 0 0 0 0 0 0 0 0 0 0 0 0 0 0 0 0 65443 65444 0 65441 65444 0 0 65445 65446 0 0 0 0 0 0 0 0 0 65450 0 65449 0 0 65449 65447 65444 65446 65447 65445 65443 0 65441 65440 65440 65437 65435 65434 65432 65428 65424 65420 65420 65415 65414 65413 65409
65131 65143 65151 65163 65173 65190 65202 65213 65218 65223 65240 65242 65247 65236 65246 65268 65274 65277 65277 65268 65241 65138 64831 64505 64512 63920 63510 63785 64637 65226 65297 65331 65333 65324 65309 65260 65185 65262 65428 0 65370 65179 65253 65317 65342 65352 65357 65358 65364 65361 65356 65363 65369 65370 65371 65372 65371 65366 65362 65368 65370 65367 65367 65373 65375 65379 65379 65375 65376 65375 65380 65374 65366 65351 65329 65306 65318 65388 65424 65432 65432 65431 65436 65432 65408 65367 65375 65402 65417 65427 65435 65438 65442 0 65446 0 0 0 0 0 0 0 0 0 0 0 0 0 0 0 0 0 0 0 0 0 0 0 0 0 0 0 0 0 0 0 0 0 0 0 0 65444 0 65442 65443 65439 65442 65441 65443 0 0 65446 65447 0 0 0 0 0 0 65449 0 0 65448 0 65447 65445 0 65445 0 65445 65444 65440 65440 65440 65438 65434 65432 65432 65429 65424 65423 65419 65417 65414 65409 65404
65118 65133 65153 65164 65174 65186 65195 65197 65223 65228 65231 65238 65230 65241 65267 65271 65270 65279 65290 65286 65275 65240 65120 64695 64134 64241 63806 64707 65161 65260 65302 65327 65330 65340 65328 65317 65290 65236 65140 65365 0 65440 65243 65227 65302 65338 65350 65358 65358 65362 65363 65364 65363 65364 65371 65367 65369 65365 65367 65373 65371 65375 65368 65375 65373 65380 65379 65374 65372 65375 65383 65376 65374 65375 65367 65352 65336 65311 65321 65381 65426 65430 65433 65435 65436 65437 65418 65372 65371 65398 65414 65427 65433 65436 65441 65444 65445 65447 65447 65447 0 0 0 0 0 0 0 0 0 0 0 0 0 0 0 0 0 0 0 0 0 0 0 0 0 0 0 0 0 0 0 0 0 65445 65444 65443 65441 65441 65441 65442 65441 65441 65445 65445 0 0 0 0 65446 0 65446 65445 65446 0 0 0 65443 65443 65442 65443 65443 65439 65441 65437 65436 65433 65431 65430 65428 65426 65426 65422 65418 65414 65409 65405
65108 65131 65150 65161 65184 65186 65191 65202 65219 65216 65227 65231 65225 65243 65260 65268 65271 65274 65285 65284 65283 65272 65218 65005 63572 62966 63584 64879 65204 65274 65318 65329 65335 65338 65336 65336 65329 65308 65272 65180 65287 65429 0 65350 65189 65291 65327 65350 65360 65366 65365 65361 65366 65366 65371 65374 65367 65369 65371 65372 65370 65373 65374 65377 65374 65369 65373 65377 65378 65382 65379 65376 65373 65381 65377 65378 65373 65357 65330 65322 65322 65369 65419 65431 65433 65433 65438 65437 65416 65378 65370 65397 65412 65424 65431 65437 65440 65442 0 65446 0 0 0 0 0 0 0 0 0 0 0 0 0 0 0 0 0 0 0 0 0 0 0 0 0 0 0 0 0 0 0 0 0 0 0 0 65443 0 65438 65439 65439 65437 65441 65442 65441 65443 0 65441 65444 65445 65444 0 65445 65443 65444 65444 65442 65442 65443 65442 65438 65436 65436 65436 65434 65433 65431 65427 65426 65424 65422 65420 65415 65412 65406 65398
65107 65127 65145 65152 65171 65183 65190 65195 65207 65214 65216 65214 65235 65242 65253 65260 65258 65275 65284 65286 65293 65286 65260 65155 64553 62794 63736 64941 65227 65298 65322 65330 65334 65335 65336 65330 65334 65324 65327 65296 65231 65174 65398 0 65429 65220 65250 65316 65345 65362 65363 65364 65362 65368 65369 65371 65374 65374 65372 65369 65369 65377 65377 65373 65369 65370 65372 65375 65375 65379 65376 65376 65377 65378 65375 65379 65380 65375 65364 65360 65348 65327 65320 65365 65417 65430 65433 65436 65436 65437 65428 65394 65369 65390 65410 65421 65432 65434 65439 0 0 0 65447 0 0 0 0 0 0 0 0 0 0 0 0 0 0 0 0 0 0 0 0 0 0 0 0 0 0 0 0 0 0 0 0 0 0 65444 65442 65441 65438 65436 65437 65437 65439 65437 65439 65439 65440 65440 65439 65441 65439 65439 0 65439 65440 65441 65440 65439 65439 65437 65437 65434 65434 65433 65433 65426 65425 65423 65420 65417 65413 65408 65402 65398
65099 65121 65137 65146 65160 65176 65188 65187 65192 65202 65201 65230 65235 65246 65258 65261 65262 65271 65280 65287 65289 65291 65281 65242 65082 63929 64181 65061 65248 65308 65329 65327 65323 65330 65333 65337 65338 65344 65336 65337 65308 65266 65181 65318 65434 0 65315 65197 65291 65330 65349 65356 65360 65366 65366 65369 65367 65372 65366 65369 65365 65373 65374 65371 65371 65370 65368 65378 65377 65380 65372 65372 65382 65381 65374 65375 65377 65383 65380 65378 65374 65365 65349 65328 65321 65355 65408 65428 65432 65435 65436 65438 65433 65405 65371 65389 65407 65420 65426 65432 65436 65440 0 65444 65446 0 0 0 0 0 0 0 0 0 0 0 0 0 0 0 0 0 0 0 0 0 0 0 0 0 0 0 0 0 0 0 0 0 0 0 65441 65436 65436 65435 65436 65433 65434 65437 65437 65435 65436 65436 65437 65438 65436 65437 65437 65438 65438 65436 65434 65432 65433 65430 65431 65428 65427 65425 65424 65421 65417 65414 65410 65407 65397 65392
65091 65103 65128 65145 65153 65171 65188 65187 65185 65184 65204 65224 65232 65237 65251 65256 65265 65269 65275 65280 65282 65291 65283 65276 65227 65112 65024 65222 65275 65313 65331 65326 65327 65332 65339 65339 65342 65341 65344 65348 65339 65325 65297 65229 65198 65384 0 65413 65196 65242 65312 65340 65359 65363 65366 65368 65370 65369 65369 65368 65374 65376 65375 65376 65375 65375 65375 65376 65380 65375 65378 65375 65377 65380 65382 65376 65368 65378 65385 65378 65378 65381 65377 65367 65354 65335 65324 65334 65387 65418 65429 65437 65437 65438 65433 65410 65377 65381 65401 65417 65425 65429 65435 65438 65442 0 65445 0 0 0 0 0 0 0 0 0 0 0 0 0 0 0 0 0 0 0 0 0 0 0 0 0 0 0 0 0 0 0 0 0 0 0 0 65439 65435 65433 65431 65430 65431 65429 65431 65432 65433 65433 65434 65433 65433 65433 65433 65432 65431 65430 65428 65427 65426 65423 65421 65419 65417 65414 65412 65408 65406 65399 65392 65388
65077 65098 65117 65136 65148 65166 65174 65176 65176 65194 65213 65216 65232 65242 65248 65260 65257 65269 65279 65286 65282 65277 65288 65289 65276 65263 65264 65273 65295 65316 65320 65328 65330 65334 65337 65341 65340 65337 65340 65346 65344 65341 65333 65316 65274 65165 65301 65425 65448 65310 65193 65287 65337 65359 65360 65369 65364 65371 65368 65369 65376 65374 65374 65371 65373 65377 65374 65375 65379 65379 65375 65368 65378 65382 65382 65376 65375 65371 65380 65380 65384 65380 65384 65380 65376 65368 65359 65340 65320 65320 65367 65417 65430 65434 65435 65435 65433 65419 65386 65376 65391 65403 65418 65426 65431 65437 65438 65441 0 0 0 0 0 0 0 0 0 0 0 0 0 0 0 0 0 0 0 0 0 0 0 0 0 0 0 0 0 0 0 0 0 0 0 0 0 0 65438 65431 65431 65427 65426 65426 65424 65424 65426 65425 65425 65423 65425 65425 65424 65422 65422 65421 65421 65418 65416 65414 65410 65407 65406 65401 65395 65387 65385 65388
65065 65081 65105 65137 65147 65154 65164 65152 65190 65208 65216 65220 65233 65241 65253 65258 65263 65261 65272 65272 65284 65286 65293 65292 65295 65295 65292 65299 65313 65309 65318 65331 65332 65332 65333 65339 65338 65338 65339 65343 65345 65347 65353 65345 65336 65300 65240 65200 65374 0 65415 65202 65248 65324 65353 65367 65366 65372 65371 65372 65370 65372 65372 65370 65369 65371 65371 65373 65380 65377 65378 65375 65379 65380 65380 65373 65373 65379 65380 65383 65385 65383 65376 65379 65377 65372 65374 65374 65364 65347 65328 65314 65354 65412 65431 65433 65434 65435 65436 65427 65403 65372 65380 65396 65411 65412 65426 65433 65435 65437 0 0 0 0 0 0 0 0 0 0 0 0 0 0 0 0 0 0 0 0 0 0 0 0 0 0 0 0 0 0 0 0 0 0 0 0 0 0 65440 65434 65431 65428 65426 65423 65422 65420 65420 65419 65418 65417 65414 65415 65413 65410 65409 65406 65406 65405 65401 65396 65395 65391 65387 65377 65378 65379
65050 65072 65091 65119 65137 65136 65144 65166 65192 65194 65211 65215 65233 65239 65250 65256 65258 65264 65271 65276 65280 65291 65291 65298 65299 65304 65305 65312 65316 65316 65312 65323 65328 65335 65338 65339 65338 65340 65342 65341 65347 65348 65350 65351 65355 65342 65321 65285 65198 65309 65420 65444 65322 65193 65299 65342 65360 65370 65372 65375 65376 65376 65372 65376 65373 65376 65373 65372 65376 65376 65379 65378 65378 65377 65379 65379 65376 65376 65384 65387 65387 65382 65380 65374 65380 65380 65384 65384 65383 65377 65361 65344 65330 65322 65347 65400 65428 65434 65433 65437 65436 65431 65413 65384 65371 65384 65401 65411 65419 65428 65431 65437 0 0 0 0 0 0 0 0 0 0 0 0 0 0 0 0 0 0 0 0 0 0 0 0 0 0 0 0 0 0 0 0 0 0 0 0 0 0 65444 65441 65433 65429 65423 65422 65419 65418 65417 65413 65411 65411 65408 65405 65403 65398 65393 65393 65387 65386 65383 65380 65377 65371 65363 65359
65034 65063 65078 65101 65109 65110 65144 65167 65181 65195 65208 65215 65221 65236 65246 65252 65253 65266 65269 65271 65278 65281 65282 65292 65296 65291 65302 65313 65318 65321 65320 65323 65324 65325 65335 65334 65338 65334 65338 65345 65349 65352 65353 65353 65353 65356 65349 65334 65309 65260 65202 65368 65441 65413 65197 65244 65318 65341 65365 65374 65374 65372 65368 65376 65377 65377 65372 65370 65370 65373 65379 65377 65376 65378 65380 65380 65372 65378 65384 65380 65381 65383 65381 65378 65385 65383 65385 65381 65384 65386 65379 65376 65374 65363 65339 65330 65341 65389 65422 65433 65434 65433 65434 65433 65425 65401 65370 65369 65387 65404 65416 65424 65431 65435 65440 0 0 0 0 0 0 0 0 0 0 0 0 0 0 0 0 0 0 0 0 0 0 0 0 0 0 0 0 0 0 0 0 0 0 0 0 0 0 0 65440 65432 65426 65420 65417 65415 65412 65409 65406 65403 65401 65395 65393 65385 65383 65379 65374 65368 65361 65352 65346 65343
65040 65055 65057 65071 65094 65122 65140 65167 65188 65196 65210 65215 65225 65233 65235 65242 65251 65258 65267 65276 65276 65282 65287 65293 65295 65297 65304 65309 65314 65322 65322 65328 65330 65331 65335 65336 65341 65341 65336 65345 65344 65348 65348 65354 65354 65358 65354 65353 65349 65327 65301 65218 65278 65390 65438 65330 65178 65287 65341 65364 65375 65372 65375 65375 65372 65374 65377 65372 65374 65379 65380 65374 65376 65382 65381 65380 65379 65385 65384 65381 65380 65379 65387 65387 65389 65387 65386 65384 65384 65386 65384 65387 65385 65382 65374 65363 65347 65329 65332 65370 65415 65430 65434 65435 65435 65435 65430 65412 65380 65363 65376 65395 65409 65421 65429 65433 65437 0 0 65444 0 0 0 0 0 0 0 0 0 0 0 0 0 0 0 0 0 0 0 0 0 0 0 0 0 0 0 0 0 0 0 0 0 0 0 0 0 65439 65433 65425 65417 65410 65404 65398 65395 65395 65390 65387 65376 65370 65364 65356 65344 65336 65323 65327
