0.599905 0.592614 0.581649 0.576034 0.565902 0.55786 0.550735 0.542333 0.529838 0.525689 0.519203 0.50895 0.498809 0.494319 0.486753 0.479801 0.470408 0.462786 0.457682 0.447847 0.440079 0.430874 0.424088 0.409789 0.342659 0.297627 0.34292 0.381829 0.390142 0.376507 0.368381 0.362019 0.353859 0.346129 0.340754 0.332693 0.325242 0.31994 0.310312 0.300391 0.221046 0.192348 0.0 0.193179 0.253287 0.269657 0.261756 0.254149 0.246413 0.240199 0.233173 0.227467 0.220052 0.214046 0.208599 0.201277 0.195411 0.189731 0.183079 0.17709 0.170249 0.164626 0.157757 0.152026 0.145455 0.139451 0.133281 0.127576 0.120907 0.114879 0.108876 0.102617 0.0967106 0.0903966 0.0843369 0.0783382 0.0722978 0.0664772 0.0603008 0.0542535 0.0455663 0.0332503 0.024417 0.0196015 0.0155721 0.0117695 0.00791471 0.00412366 0.000380127 -0.00353612 -0.00727981 -0.0107305 -0.0141484 -0.0174952 -0.0210084 -0.0245631 -0.0280274 -0.0315683 0.0 -0.0385791 0.0 0.0 0.0 0.0 0.0 0.0 0.0 0.0 0.0 0.0 0.0 0.0 0.0 0.0 0.0 0.0 0.0 0.0 0.0 0.0 0.0 0.0 0.0 0.0 0.0 0.0 0.0 0.0 0.0 0.0 0.0 0.0 0.0 0.0 0.0 0.0 -0.169088 0.0 -0.17659 -0.18036 -0.184144 -0.187603 -0.191546 -0.195296 -0.199131 -0.20298 0.0 -0.21057 -0.214307 -0.218606 -0.222373 0.0 -0.231514 -0.233485 -0.238149 -0.241283 0.0 -0.249229 -0.253546 -0.257333 -0.259431 -0.265604 -0.268263 -0.273067 -0.277009 -0.281472 -0.28452 -0.288808 -0.294603 -0.297344 -0.300716 -0.306515 -0.310695 -0.314891 -0.322209 -0.326478
0.598615 0.583505 0.580973 0.574005 0.565924 0.557219 0.550761 0.541064 0.531989 0.525716 0.515715 0.505305 0.499939 0.492267 0.485024 0.478195 0.470813 0.462811 0.452658 0.44552 0.439389 0.431768 0.424364 0.413102 0.38459 0.323647 0.355431 0.381912 0.386741 0.37606 0.367415 0.360332 0.353069 0.345706 0.340409 0.333784 0.324972 0.318235 0.312165 0.303771 0.295598 0.260022 0.188273 0.0 0.176214 0.219 0.258638 0.256069 0.246245 0.239637 0.232044 0.226556 0.219988 0.213983 0.208063 0.201592 0.195594 0.188297 0.182261 0.176189 0.170087 0.163957 0.157934 0.1509 0.144555 0.13917 0.133151 0.126761 0.120914 0.114981 0.108541 0.102536 0.0964321 0.0904761 0.084287 0.0784067 0.0723458 0.0662706 0.0598719 0.0541979 0.0483064 0.0419992 0.0346502 0.0248254 0.0166524 0.0119297 0.0079574 0.00414876 0.000377151 -0.00335497 -0.00712334 -0.0112872 -0.015097 -0.0182816 -0.0214377 -0.0247365 -0.0281467 -0.0316246 -0.0351709 0.0 0.0 0.0 0.0 0.0 0.0 0.0 0.0 0.0 0.0 0.0 0.0 0.0 0.0 0.0 0.0 0.0 0.0 0.0 0.0 0.0 0.0 0.0 0.0 0.0 0.0 0.0 0.0 0.0 0.0 0.0 0.0 0.0 0.0 0.0 0.0 0.0 0.0 -0.172667 -0.176549 -0.18045 -0.183305 -0.187833 -0.190465 -0.19356 -0.199377 -0.201764 -0.205457 -0.209311 -0.212948 -0.216592 -0.221367 -0.226026 -0.228982 -0.232681 0.0 -0.240365 -0.24507 -0.249003 -0.252951 -0.255612 -0.259475 -0.263638 -0.267628 -0.272917 -0.276556 -0.281012 -0.284257 -0.288751 -0.293166 -0.297176 -0.301308 -0.307115 -0.310965 -0.317209 -0.321451 -0.326642
0.598989 0.589142 0.578568 0.570153 0.56145 0.554139 0.550247 0.538288 0.528292 0.52428 0.518131 0.506459 0.49967 0.4923 0.48281 0.475437 0.468097 0.460229 0.45471 0.446001 0.4363 0.43048 0.423441 0.413376 0.403272 0.359009 0.36282 0.387312 0.387077 0.373631 0.367054 0.358281 0.350692 0.344721 0.338746 0.330719 0.323638 0.317844 0.310561 0.30421 0.295716 0.289316 0.279103 0.201651 0.182168 0.0 0.187309 0.241312 0.248224 0.240968 0.233289 0.226214 0.220111 0.214102 0.207314 0.200613 0.194035 0.188477 0.181902 0.175474 0.169467 0.163188 0.157127 0.151516 0.144689 0.139125 0.133023 0.12648 0.120165 0.114726 0.108503 0.102156 0.0963173 0.0903683 0.0837254 0.0779179 0.0723653 0.0663998 0.0604326 0.0541664 0.0481158 0.0421614 0.0364182 0.0301701 0.0235684 0.015579 0.00878015 0.00423886 0.000380952 -0.00339591 -0.00717168 -0.0108193 -0.0145216 -0.0186706 -0.0228679 -0.0258548 -0.0286338 -0.0319723 -0.0352098 -0.038773 -0.0422037 -0.0457596 0.0 -0.052841 -0.056282 0.0 0.0 0.0 0.0 0.0 0.0 0.0 0.0 0.0 0.0 0.0 0.0 0.0 0.0 0.0 0.0 0.0 0.0 0.0 0.0 0.0 0.0 0.0 0.0 0.0 0.0 0.0 0.0 0.0 0.0 0.0 0.0 0.0 0.0 0.0 -0.184467 -0.187252 -0.190427 -0.194369 -0.198187 -0.202019 -0.205792 -0.2095 -0.213063 0.0 -0.220524 -0.223943 -0.228027 -0.231964 -0.235917 -0.239712 -0.245384 -0.247788 -0.253092 -0.25566 -0.259997 -0.262248 -0.266021 -0.272178 -0.276206 -0.279231 -0.284308 -0.287964 -0.292687 -0.296688 -0.301358 -0.305395 -0.310679 -0.313734 -0.321848 -0.327043
0.594975 0.583069 0.578363 0.56904 0.562833 0.553839 0.548532 0.537351 0.530674 0.521586 0.515477 0.506498 0.499711 0.491447 0.482751 0.475572 0.46709 0.460827 0.452539 0.446037 0.4366 0.428143 0.421487 0.414253 0.406135 0.39562 0.389857 0.389638 0.379937 0.374573 0.364518 0.35697 0.350127 0.343456 0.337087 0.33114 0.324451 0.317393 0.310118 0.303334 0.295718 0.289437 0.283404 0.274315 0.236188 0.176962 0.0 0.168021 0.207984 0.240168 0.235172 0.227714 0.220103 0.213024 0.206742 0.199385 0.194267 0.187875 0.181737 0.175756 0.169525 0.163448 0.157279 0.151218 0.14428 0.139229 0.132425 0.126413 0.120583 0.114329 0.108309 0.102316 0.0960223 0.0902245 0.0841756 0.0780231 0.0720215 0.0658054 0.0599933 0.0541591 0.0481396 0.0422446 0.0361221 0.0302105 0.0242747 0.0183491 0.0122 0.00574244 0.000433119 -0.0035331 -0.00723225 -0.0109991 -0.0146996 -0.0183593 -0.0221081 -0.0261007 -0.030701 -0.0335183 -0.0359589 -0.0392006 -0.0426855 -0.0460063 -0.0492866 -0.0529951 -0.0563464 0.0 -0.063425 0.0 0.0 0.0 0.0 0.0 0.0 0.0 0.0 0.0 0.0 0.0 0.0 0.0 0.0 0.0 0.0 0.0 0.0 0.0 0.0 0.0 0.0 0.0 0.0 0.0 0.0 0.0 0.0 0.0 0.0 0.0 0.0 0.0 0.0 0.0 0.0 -0.194051 -0.197358 -0.201543 -0.206057 -0.208778 -0.212484 -0.216595 -0.219603 -0.224234 -0.227157 -0.231249 -0.23476 -0.237924 -0.243302 -0.246755 -0.251035 -0.254781 -0.258536 -0.262204 -0.266659 -0.271243 -0.274854 -0.278979 -0.284881 -0.288334 -0.29189 -0.295988 -0.303492 -0.305781 -0.310284 -0.314925 -0.322249 -0.327449
0.591552 0.587675 0.576542 0.566787 0.558132 0.551206 0.543085 0.53696 0.526232 0.522579 0.514902 0.507057 0.49986 0.489804 0.483385 0.473398 0.466564 0.459843 0.451753 0.446172 0.435657 0.428708 0.421524 0.414884 0.406838 0.400912 0.394655 0.388323 0.379187 0.372533 0.363866 0.357436 0.350512 0.343619 0.337386 0.330748 0.322254 0.316488 0.309616 0.302841 0.296714 0.289988 0.283824 0.276049 0.268185 0.256772 0.187831 0.168599 0.159928 0.174759 0.224065 0.228374 0.221293 0.213242 0.205827 0.200092 0.193731 0.188143 0.181004 0.175563 0.169516 0.163131 0.156609 0.150796 0.144666 0.138432 0.132443 0.126457 0.119508 0.113356 0.10782 0.101854 0.0958305 0.0899496 0.0835635 0.0777182 0.0715722 0.0658259 0.0598469 0.0539357 0.0482157 0.0422846 0.0360181 0.0301941 0.0243233 0.0183234 0.0124174 0.00649034 0.000585994 -0.00494932 -0.00892233 -0.0116863 -0.0148931 -0.0185345 -0.0222672 -0.0258444 -0.0296136 -0.0334004 -0.0382304 -0.0417565 -0.0441881 -0.0467095 -0.0500268 -0.053226 -0.0563522 -0.0597427 -0.0629806 -0.0670681 0.0 0.0 0.0 0.0 0.0 0.0 0.0 0.0 0.0 0.0 0.0 0.0 0.0 0.0 0.0 0.0 0.0 0.0 0.0 0.0 0.0 0.0 0.0 0.0 0.0 0.0 0.0 0.0 0.0 0.0 0.0 0.0 0.0 0.0 0.0 0.0 0.0 0.0 -0.205201 -0.209052 -0.212452 -0.216879 -0.220295 -0.224775 -0.227624 -0.230961 -0.236277 -0.239289 -0.243178 -0.245814 -0.250814 -0.25493 -0.258876 -0.262549 -0.267595 -0.270111 -0.275818 -0.277914 -0.283906 -0.288183 -0.291416 -0.29745 -0.303882 -0.307283 -0.312255 -0.316465 -0.323696 -0.325752
0.594678 0.584068 0.575999 0.571635 0.558624 0.550915 0.5428 0.533429 0.527884 0.518834 0.50986 0.503933 0.497086 0.488562 0.479416 0.472579 0.465092 0.460176 0.448388 0.446133 0.435972 0.429106 0.422089 0.413822 0.404451 0.399225 0.390973 0.385102 0.37852 0.371955 0.363898 0.357319 0.350904 0.343219 0.335664 0.329608 0.323283 0.316245 0.309054 0.3021 0.294753 0.289096 0.282773 0.275308 0.269322 0.261735 0.254979 0.222006 0.165405 0.0 0.156884 0.191845 0.221572 0.214805 0.206778 0.200426 0.193646 0.18743 0.181267 0.175116 0.168871 0.163091 0.156438 0.150313 0.144232 0.138162 0.131961 0.125917 0.119703 0.113758 0.107767 0.10202 0.0959453 0.0898287 0.0837344 0.0778108 0.0717947 0.0659461 0.0597907 0.0538506 0.0479158 0.0420843 0.0359762 0.0301784 0.0242695 0.0183997 0.0123898 0.00648831 0.000592475 -0.00530861 -0.0112025 -0.0164276 -0.019079 -0.0200863 -0.0226724 -0.0261618 -0.0299073 -0.0334624 -0.0371409 -0.0407623 -0.0454704 -0.0496758 -0.0524699 -0.0550371 -0.057583 -0.0607953 -0.0635759 -0.0671489 -0.0706751 -0.0736718 0.0 0.0 0.0 0.0 0.0 0.0 0.0 0.0 0.0 0.0 0.0 0.0 0.0 0.0 0.0 0.0 0.0 0.0 0.0 0.0 0.0 0.0 0.0 0.0 0.0 0.0 0.0 0.0 0.0 0.0 0.0 0.0 0.0 0.0 0.0 0.0 0.0 0.0 -0.210632 -0.216218 -0.219944 -0.222613 -0.228346 -0.231864 -0.236075 -0.239347 -0.243414 -0.24714 -0.251426 -0.254803 -0.258557 -0.263573 -0.266875 -0.27037 -0.276183 -0.279508 -0.284487 -0.28772 -0.292331 -0.297838 -0.302083 -0.306124 -0.309952 -0.316756 -0.32052 -0.326164
0.591495 0.5834 0.575228 0.56446 0.557199 0.550071 0.541089 0.529243 0.526118 0.517305 0.51158 0.498755 0.49502 0.487723 0.480356 0.472926 0.465625 0.455823 0.448718 0.442005 0.433608 0.427309 0.41902 0.413872 0.407349 0.399272 0.391585 0.383633 0.375902 0.369306 0.3622 0.357728 0.349486 0.341611 0.336606 0.329501 0.322841 0.315877 0.309208 0.302312 0.294649 0.289479 0.283265 0.275671 0.269506 0.262686 0.254558 0.248322 0.236717 0.175258 0.156455 0.148742 0.162585 0.205065 0.208215 0.200597 0.194505 0.186007 0.18054 0.174376 0.168013 0.16254 0.156568 0.149801 0.144443 0.137778 0.13137 0.125859 0.119444 0.113342 0.107488 0.101324 0.0951478 0.0892521 0.0834629 0.0776742 0.0714393 0.0659703 0.059634 0.0537782 0.0478308 0.0419651 0.0359274 0.0301506 0.0241644 0.0183242 0.0123782 0.00647118 0.000590418 -0.00531162 -0.011161 -0.0170797 -0.0229608 -0.0280474 -0.0298548 -0.0293599 -0.0308201 -0.0338734 -0.0374482 -0.0410319 -0.0445498 -0.0480921 -0.052183 -0.0575689 -0.0611276 -0.0630903 -0.0655316 -0.0681156 -0.0710643 -0.0746618 -0.0773211 -0.0811153 0.0 0.0 0.0 0.0 0.0 0.0 0.0 0.0 0.0 0.0 0.0 0.0 0.0 0.0 0.0 0.0 0.0 0.0 0.0 0.0 0.0 0.0 0.0 0.0 0.0 0.0 0.0 0.0 0.0 0.0 0.0 0.0 0.0 0.0 0.0 0.0 0.0 0.0 -0.220808 -0.221847 -0.228405 -0.231159 -0.235964 -0.239232 -0.243745 -0.246114 -0.2502 -0.255335 -0.259097 -0.262771 -0.266843 -0.271927 -0.275847 -0.279779 -0.28362 -0.287892 -0.293679 -0.298339 -0.30248 -0.306524 -0.310581 -0.317166 -0.323482 -0.328577
0.591654 0.57861 0.571435 0.558536 0.556797 0.548002 0.536733 0.529404 0.52607 0.519268 0.510601 0.502718 0.496097 0.484791 0.47678 0.470179 0.462157 0.456259 0.447019 0.440881 0.432859 0.426043 0.418989 0.41205 0.404718 0.398335 0.392124 0.384958 0.376419 0.369043 0.363076 0.355398 0.348508 0.343079 0.335383 0.327888 0.321394 0.315844 0.308011 0.301709 0.295109 0.288111 0.281986 0.275287 0.26947 0.262484 0.255652 0.249494 0.242523 0.234903 0.207745 0.154482 0.146348 0.143634 0.176579 0.200395 0.194839 0.18795 0.180314 0.174749 0.167872 0.161853 0.155575 0.149865 0.143557 0.137309 0.131144 0.12559 0.119162 0.11334 0.107302 0.101278 0.0955519 0.0895737 0.083371 0.0774234 0.0715282 0.0656177 0.0596187 0.053638 0.0480537 0.0418826 0.0360181 0.0300913 0.024215 0.0182647 0.0123988 0.00647778 0.000591146 -0.00530227 -0.0111939 -0.0170935 -0.0229744 -0.0288922 -0.0345684 -0.040066 -0.0420786 -0.0398938 -0.039295 -0.0415647 -0.0450261 -0.048641 -0.0522305 -0.0557007 -0.0592337 -0.0641742 -0.0695548 -0.0721484 -0.074379 -0.0758945 -0.0791117 -0.0817117 -0.0847695 -0.0882597 -0.0917469 0.0 0.0 0.0 0.0 0.0 0.0 0.0 0.0 0.0 0.0 0.0 0.0 0.0 0.0 0.0 0.0 0.0 0.0 0.0 0.0 0.0 0.0 0.0 0.0 0.0 0.0 0.0 0.0 0.0 0.0 0.0 0.0 0.0 0.0 0.0 0.0 0.0 0.0 0.0 -0.234471 -0.23833 -0.242471 -0.246271 -0.251651 -0.254842 -0.260118 -0.26284 -0.267501 -0.271898 -0.276423 -0.280568 -0.28525 -0.288384 -0.294393 -0.298736 -0.303101 -0.306928 -0.313022 -0.317236 -0.327151 -0.329118
0.583089 0.576056 0.567754 0.560765 0.552655 0.541119 0.533696 0.533818 0.522591 0.518277 0.508058 0.500317 0.49221 0.485457 0.476846 0.470634 0.462415 0.455291 0.447826 0.441129 0.43436 0.426284 0.419487 0.412625 0.402507 0.396576 0.389582 0.383179 0.376238 0.36817 0.362067 0.355075 0.349138 0.341122 0.334725 0.329237 0.321906 0.315156 0.307075 0.301997 0.295763 0.287231 0.282194 0.275837 0.268533 0.261401 0.255891 0.248935 0.242851 0.236522 0.229041 0.219792 0.169429 0.146202 0.136289 0.145766 0.184497 0.188515 0.182123 0.175053 0.168021 0.161961 0.155546 0.149263 0.142856 0.136871 0.131005 0.125993 0.119086 0.113147 0.107004 0.10117 0.095348 0.0893631 0.0834059 0.0774059 0.0712365 0.0656027 0.0594261 0.0535219 0.0477869 0.0418728 0.0358709 0.0299939 0.0241057 0.0182369 0.0123428 0.00646511 0.000587723 -0.00527485 -0.0111721 -0.0170565 -0.0228851 -0.0288048 -0.0346344 -0.0404743 -0.046356 -0.0518489 -0.0549801 -0.0523975 -0.0491477 -0.0496822 -0.0530887 -0.0563754 -0.0598731 -0.0630791 -0.066832 -0.0707322 -0.0769977 -0.080843 -0.082437 -0.0842299 -0.0865183 -0.0893234 -0.0919653 -0.0954927 -0.0985589 0.0 0.0 -0.109763 0.0 0.0 0.0 0.0 0.0 0.0 0.0 0.0 0.0 0.0 0.0 0.0 0.0 0.0 0.0 0.0 0.0 0.0 0.0 0.0 0.0 0.0 0.0 0.0 0.0 0.0 0.0 0.0 0.0 0.0 0.0 0.0 0.0 0.0 0.0 0.0 0.0 -0.245522 -0.248212 -0.252098 -0.257619 -0.26359 -0.2662 -0.272471 -0.276701 -0.280746 -0.28491 -0.29057 -0.295112 -0.296748 -0.305048 -0.308342 -0.313324 -0.323043 -0.329322 -0.329428
0.567954 0.602767 0.625187 0.623376 0.621483 0.620898 0.608571 0.605987 0.597145 0.596349 0.585539 0.584226 0.575772 0.574127 0.566733 0.562382 0.561425 0.554288 0.549997 0.545909 0.541478 0.536705 0.536749 0.531652 0.528382 0.524499 0.520004 0.516789 0.516016 0.509693 0.507605 0.505442 0.500075 0.498748 0.495293 0.491676 0.491549 0.487161 0.484037 0.481194 0.479519 0.47502 0.474613 0.471738 0.468701 0.466296 0.46311 0.463731 0.460041 0.455572 0.45508 0.453454 0.449553 0.448214 0.445481 0.445479 0.440312 0.443223 0.436327 0.435839 0.435271 0.430164 0.43084 0.428639 0.426623 0.426799 0.421571 0.42351 0.420831 0.419906 0.418553 0.416511 0.415349 0.414107 0.413047 0.41095 0.41008 0.409043 0.404794 0.405251 0.404323 0.403228 0.399966 0.39932 0.398507 0.396135 0.395944 0.393499 0.394539 0.392368 0.393072 0.390132 0.390154 0.388095 0.386826 0.384693 0.382565 0.38375 0.380417 0.381005 0.380643 0.378981 0.378282 0.379332 0.37673 0.375788 0.375376 0.37183 0.373262 0.370948 0.370822 0.371051 0.371026 0.367773 0.367672 0.368102 0.373879 0.378004 0.380125 0.383658 0.38615 0.392075 0.39494 0.39852 0.405716 0.409058 0.413557 0.416132 0.422598 0.428023 0.433376 0.436626 0.444575 0.448653 0.454163 0.461021 0.466126 0.473736 0.482525 0.4836 0.493057 0.499244 0.509736 0.517937 0.527507 0.533258 0.538585 0.547521 0.556848 0.564767 0.581267 0.589796 0.597274 0.608484 0.622447 0.634555 0.642442 0.658987 0.673767 0.680405 0.697556 0.71732 0.729105 0.740477 0.753542 0.763258 0.778712 0.785659 0.785628 0.787545 0.786795 0.789663 0.785218 0.786992 0.785613 0.788803
0.552436 0.569273 0.607502 0.615059 0.612915 0.60896 0.60311 0.597466 0.593934 0.587519 0.583121 0.572779 0.5715 0.565185 0.560876 0.554611 0.550077 0.547178 0.541252 0.537317 0.534741 0.531201 0.527589 0.523285 0.520156 0.516334 0.511911 0.512199 0.507368 0.502823 0.499622 0.497846 0.494589 0.491699 0.48944 0.486406 0.482687 0.481874 0.478972 0.474075 0.473215 0.469834 0.467079 0.463293 0.461698 0.45968 0.456893 0.454119 0.453874 0.451645 0.448733 0.446268 0.444334 0.442065 0.440931 0.438771 0.435498 0.434223 0.43287 0.428424 0.428213 0.428095 0.42635 0.423926 0.423748 0.419622 0.419032 0.415442 0.414954 0.414302 0.412198 0.411905 0.40793 0.407653 0.406353 0.405318 0.403862 0.402242 0.399516 0.398511 0.399053 0.39652 0.395193 0.39353 0.392302 0.391337 0.389523 0.389598 0.387198 0.388741 0.385583 0.382688 0.382881 0.38248 0.380717 0.379901 0.380546 0.377687 0.37629 0.374556 0.374113 0.373333 0.372387 0.370933 0.371543 0.369243 0.369179 0.368349 0.368384 0.36645 0.365293 0.365175 0.36403 0.365472 0.36391 0.36287 0.368038 0.372442 0.376512 0.379386 0.384946 0.385683 0.391095 0.394272 0.398932 0.406204 0.409074 0.41369 0.416238 0.421836 0.426844 0.431258 0.437951 0.443793 0.448171 0.454484 0.462041 0.467784 0.474772 0.478455 0.485047 0.49482 0.502076 0.510323 0.515253 0.52549 0.530379 0.539792 0.547116 0.561899 0.56778 0.581757 0.592759 0.599353 0.614253 0.624657 0.637864 0.648525 0.662537 0.675342 0.686937 0.706302 0.718534 0.731531 0.738712 0.763272 0.764568 0.778474 0.774007 0.774808 0.777076 0.778357 0.780198 0.774094 0.775123 0.775427
0.544122 0.543888 0.579278 0.600965 0.601556 0.599547 0.595759 0.588409 0.585109 0.578614 0.574017 0.564904 0.564886 0.556627 0.553537 0.550287 0.544759 0.538637 0.536416 0.531923 0.5271 0.523966 0.52006 0.518537 0.51423 0.510555 0.508118 0.503171 0.49929 0.497947 0.494099 0.493305 0.488278 0.486386 0.483557 0.477548 0.476478 0.471628 0.471446 0.468005 0.465955 0.462286 0.457517 0.45671 0.455655 0.451959 0.451527 0.44931 0.44719 0.445253 0.441878 0.439368 0.437466 0.433958 0.433951 0.43004 0.429457 0.426844 0.42492 0.422243 0.424326 0.421244 0.419697 0.417228 0.415361 0.414942 0.412415 0.409898 0.409926 0.407341 0.405272 0.40338 0.403606 0.402827 0.399355 0.398084 0.39682 0.396829 0.39499 0.393073 0.393017 0.390356 0.388966 0.387582 0.386121 0.386519 0.386082 0.38405 0.382951 0.381269 0.38153 0.378007 0.377943 0.377297 0.376993 0.376189 0.373369 0.372072 0.370696 0.369242 0.368889 0.368712 0.366515 0.366602 0.363404 0.364938 0.364875 0.364987 0.364091 0.360749 0.360541 0.358223 0.35955 0.358428 0.35655 0.357728 0.363237 0.366213 0.368605 0.374149 0.376391 0.378729 0.384393 0.388795 0.393465 0.398831 0.40063 0.407303 0.408784 0.414463 0.42127 0.424673 0.431086 0.436491 0.44054 0.446923 0.452209 0.461383 0.468174 0.472832 0.477422 0.486433 0.494522 0.502291 0.507314 0.51626 0.520115 0.531894 0.542232 0.548075 0.56301 0.571182 0.580171 0.591555 0.602891 0.614705 0.629107 0.637841 0.651717 0.665289 0.675641 0.696024 0.707266 0.718018 0.730944 0.746851 0.755691 0.764835 0.763298 0.765612 0.764001 0.765264 0.764472 0.765574 0.763352 0.763116
0.533061 0.533009 0.54414 0.58031 0.591076 0.591218 0.588191 0.580426 0.574362 0.57236 0.568006 0.562097 0.553505 0.549047 0.544958 0.541585 0.537362 0.530382 0.52811 0.523603 0.521796 0.517414 0.514 0.510174 0.505938 0.503696 0.500269 0.495745 0.493638 0.490178 0.487333 0.485357 0.482117 0.478638 0.475856 0.472834 0.469403 0.466667 0.466233 0.461747 0.458969 0.458318 0.454807 0.451732 0.448167 0.447731 0.444361 0.441592 0.439929 0.437353 0.436049 0.434335 0.430872 0.430018 0.426913 0.426497 0.424668 0.423184 0.418285 0.418657 0.41545 0.414504 0.412984 0.412639 0.410469 0.408059 0.405824 0.40468 0.401381 0.401832 0.400794 0.39885 0.397163 0.396313 0.392565 0.393806 0.391899 0.391161 0.389435 0.388461 0.386997 0.382305 0.383923 0.38223 0.381538 0.381599 0.377272 0.37892 0.378088 0.373614 0.375115 0.373305 0.372331 0.370119 0.369985 0.370355 0.368741 0.367464 0.367852 0.364429 0.362422 0.362993 0.361246 0.359172 0.361589 0.358363 0.359713 0.358159 0.357859 0.355983 0.35611 0.354412 0.354135 0.35403 0.352764 0.351671 0.358259 0.362355 0.364208 0.366988 0.372704 0.375756 0.379238 0.384908 0.387912 0.391513 0.396134 0.400516 0.405921 0.408987 0.414674 0.420463 0.42551 0.427115 0.433206 0.440498 0.447305 0.453201 0.45971 0.465817 0.469483 0.479282 0.487325 0.49335 0.499398 0.511099 0.51421 0.523493 0.534091 0.539668 0.554276 0.564977 0.570987 0.582015 0.595408 0.605135 0.617231 0.626255 0.641118 0.654817 0.67343 0.686276 0.699343 0.712022 0.726408 0.734984 0.744122 0.753473 0.754161 0.751077 0.754074 0.752057 0.754552 0.756796 0.751692 0.752265
0.523242 0.521004 0.524712 0.544882 0.57961 0.581747 0.579548 0.572685 0.568531 0.563102 0.559249 0.548872 0.547301 0.540078 0.53537 0.532139 0.529523 0.525217 0.520335 0.518454 0.511827 0.51066 0.508149 0.502943 0.500044 0.497415 0.495814 0.489254 0.48676 0.48529 0.480053 0.477103 0.474421 0.473847 0.47069 0.467633 0.46334 0.461065 0.458472 0.455975 0.45291 0.45227 0.448402 0.444549 0.444442 0.439705 0.437302 0.437807 0.43278 0.431983 0.429379 0.428603 0.425114 0.423204 0.420728 0.419744 0.417699 0.416241 0.412655 0.414091 0.410279 0.408365 0.407362 0.405712 0.404071 0.401947 0.400731 0.398951 0.397752 0.394434 0.394723 0.392238 0.39156 0.390153 0.390959 0.387443 0.385813 0.382638 0.383961 0.380555 0.380911 0.380783 0.378621 0.377935 0.375541 0.374622 0.374607 0.372232 0.370842 0.369703 0.369058 0.369073 0.366075 0.365937 0.365479 0.36364 0.360256 0.360223 0.361747 0.360175 0.359017 0.358435 0.357288 0.356881 0.354519 0.353387 0.352343 0.353431 0.35248 0.349897 0.351986 0.350151 0.348894 0.349118 0.347134 0.347288 0.35385 0.354595 0.360441 0.362271 0.365344 0.369662 0.373744 0.378909 0.382852 0.386889 0.389948 0.394506 0.399739 0.401182 0.406029 0.414371 0.417677 0.421079 0.428398 0.434325 0.43919 0.446736 0.453472 0.45806 0.46634 0.472222 0.479798 0.486226 0.492594 0.502761 0.50708 0.521425 0.525626 0.535747 0.540248 0.552289 0.567667 0.577336 0.591957 0.597458 0.611483 0.626067 0.633201 0.644632 0.662257 0.675749 0.690918 0.695672 0.708098 0.723239 0.741193 0.742293 0.743406 0.742022 0.743331 0.744478 0.743116 0.741408 0.740052 0.740445
0.511076 0.511026 0.51287 0.517026 0.552577 0.573242 0.568687 0.564323 0.559129 0.553788 0.547877 0.544701 0.538753 0.537388 0.5314 0.528804 0.521096 0.520051 0.514239 0.508786 0.509126 0.50196 0.499908 0.496372 0.492022 0.490766 0.487615 0.483568 0.480534 0.478261 0.473607 0.471201 0.46716 0.46602 0.46193 0.45942 0.456677 0.453867 0.453203 0.448208 0.446833 0.44416 0.441419 0.439753 0.437202 0.433278 0.430101 0.429705 0.426309 0.426176 0.422398 0.421474 0.419261 0.417221 0.415515 0.413658 0.409707 0.410134 0.409033 0.404952 0.404354 0.40207 0.400359 0.400592 0.397527 0.396245 0.394648 0.395716 0.390915 0.391836 0.388581 0.38847 0.385793 0.384973 0.383517 0.381264 0.380705 0.378547 0.376315 0.376257 0.375162 0.374716 0.372911 0.370872 0.370364 0.369701 0.368642 0.366146 0.366865 0.364059 0.362944 0.362557 0.362095 0.361398 0.360065 0.358737 0.356933 0.355857 0.355509 0.353881 0.353143 0.35265 0.35128 0.351602 0.350966 0.350496 0.349228 0.347401 0.346706 0.346661 0.344285 0.342801 0.343014 0.343152 0.342893 0.343044 0.347076 0.350472 0.354605 0.359315 0.360881 0.36537 0.368251 0.373493 0.375747 0.380365 0.386619 0.390696 0.392917 0.400436 0.404229 0.407628 0.412753 0.418058 0.422726 0.428718 0.433911 0.440268 0.447383 0.453372 0.459382 0.465823 0.472121 0.47836 0.484539 0.494454 0.498782 0.509333 0.51942 0.527966 0.536624 0.547973 0.55836 0.570533 0.581163 0.590828 0.601699 0.61646 0.623476 0.634467 0.65281 0.666333 0.679063 0.689308 0.702973 0.713389 0.725795 0.729081 0.731961 0.731114 0.731979 0.734052 0.734514 0.734129 0.731175 0.733376
0.501849 0.499263 0.501416 0.507948 0.522037 0.557676 0.566036 0.556876 0.550259 0.548512 0.543444 0.536484 0.532046 0.528958 0.522323 0.517288 0.515416 0.511083 0.508089 0.502889 0.499028 0.496582 0.493168 0.490427 0.485085 0.482297 0.478057 0.477098 0.474684 0.470089 0.468927 0.46315 0.460801 0.45968 0.455659 0.454079 0.451705 0.448135 0.445789 0.441444 0.440414 0.434893 0.436378 0.432493 0.43191 0.428453 0.423808 0.42366 0.4228 0.420192 0.417676 0.414532 0.412917 0.412187 0.408997 0.407968 0.406869 0.401643 0.400722 0.401159 0.400016 0.397452 0.392518 0.395048 0.390926 0.390775 0.387463 0.388594 0.385853 0.383278 0.38348 0.381948 0.380424 0.37859 0.377633 0.377077 0.375106 0.3733 0.371264 0.371997 0.369262 0.368745 0.367444 0.366228 0.364229 0.363735 0.362379 0.36237 0.360946 0.360002 0.358747 0.357498 0.355781 0.356437 0.354179 0.351531 0.351888 0.350829 0.351118 0.350781 0.347922 0.348227 0.345378 0.348302 0.343407 0.343339 0.343039 0.343458 0.341032 0.339957 0.340551 0.339803 0.338665 0.337135 0.334896 0.336233 0.343213 0.347505 0.348073 0.35318 0.355435 0.36136 0.364511 0.366079 0.370527 0.377141 0.37906 0.384345 0.385967 0.392399 0.397567 0.400026 0.406988 0.410759 0.417676 0.423326 0.427467 0.436213 0.439262 0.445551 0.453719 0.460052 0.468591 0.471409 0.477321 0.486339 0.494817 0.501779 0.511371 0.520425 0.525267 0.542466 0.549412 0.560806 0.572732 0.581087 0.592186 0.603078 0.615659 0.623828 0.639549 0.654994 0.668339 0.67833 0.693679 0.703425 0.71246 0.720531 0.720278 0.720369 0.721475 0.721251 0.721791 0.722173 0.719104 0.721019
0.492505 0.491956 0.494981 0.498498 0.502423 0.532764 0.549414 0.546922 0.539349 0.5387 0.535028 0.528349 0.523086 0.519804 0.515563 0.512482 0.50755 0.503775 0.50156 0.496447 0.492084 0.489678 0.48753 0.483948 0.478775 0.476757 0.474834 0.468517 0.466867 0.46395 0.461529 0.458564 0.454738 0.452124 0.447775 0.446303 0.443892 0.440622 0.438714 0.437531 0.433986 0.432195 0.426705 0.425414 0.425158 0.421131 0.420896 0.418546 0.416208 0.414666 0.412743 0.409261 0.407124 0.4068 0.403352 0.402498 0.398445 0.394483 0.396704 0.394089 0.392966 0.390135 0.388171 0.388399 0.385672 0.382954 0.381725 0.380891 0.380065 0.379868 0.379445 0.375684 0.374109 0.373861 0.371988 0.370744 0.368496 0.368429 0.367591 0.365829 0.365159 0.364805 0.36081 0.359382 0.358814 0.35732 0.358236 0.355435 0.355742 0.354891 0.351175 0.352507 0.352137 0.350454 0.351493 0.34788 0.346834 0.345249 0.34398 0.343726 0.342467 0.342378 0.340974 0.341052 0.340046 0.335781 0.338285 0.337839 0.336076 0.33533 0.335445 0.33284 0.333668 0.331773 0.330584 0.331898 0.337823 0.341808 0.345177 0.348322 0.351555 0.35378 0.358833 0.361157 0.366783 0.371481 0.372032 0.377697 0.382434 0.385454 0.39069 0.395548 0.4005 0.403811 0.410372 0.415056 0.420231 0.427402 0.433723 0.438003 0.446427 0.452096 0.459773 0.465564 0.468987 0.480402 0.486501 0.493823 0.503172 0.513833 0.520599 0.530363 0.541125 0.552407 0.561874 0.571617 0.583416 0.591697 0.604304 0.6172 0.629572 0.645406 0.657305 0.668106 0.680011 0.690489 0.702483 0.710913 0.711902 0.70953 0.709138 0.710736 0.710611 0.711405 0.7069 0.708536
0.484688 0.48341 0.482222 0.485358 0.485319 0.501111 0.535658 0.540333 0.533531 0.530548 0.526776 0.521175 0.518649 0.511248 0.507079 0.503811 0.499442 0.49366 0.49252 0.488769 0.485513 0.482671 0.477073 0.476088 0.472586 0.469496 0.467527 0.464076 0.460957 0.456676 0.454376 0.451619 0.449113 0.44623 0.442659 0.439573 0.438452 0.435939 0.432662 0.430566 0.428172 0.426412 0.424198 0.420834 0.417793 0.417011 0.413607 0.411532 0.411167 0.407491 0.405833 0.403338 0.402472 0.401384 0.397764 0.394157 0.393635 0.391585 0.391311 0.38782 0.386104 0.38409 0.383618 0.381237 0.381162 0.37918 0.37713 0.37547 0.373893 0.373013 0.373821 0.369743 0.369036 0.367341 0.364967 0.3655 0.362299 0.361089 0.36103 0.360213 0.357724 0.357301 0.356197 0.354946 0.354234 0.35269 0.352294 0.348778 0.347783 0.348853 0.347869 0.346281 0.34546 0.343805 0.343834 0.341808 0.341847 0.341052 0.340262 0.336577 0.338011 0.334869 0.335245 0.335396 0.334407 0.334111 0.332445 0.330324 0.332261 0.33145 0.328348 0.328925 0.328436 0.327339 0.327857 0.326386 0.33313 0.335588 0.338898 0.341142 0.345624 0.34881 0.352776 0.353595 0.360432 0.363583 0.366129 0.371541 0.375036 0.381326 0.385776 0.389079 0.39379 0.396887 0.404653 0.410499 0.415352 0.422167 0.426978 0.432742 0.439071 0.44386 0.451872 0.458892 0.465466 0.471514 0.480488 0.485328 0.495851 0.50436 0.513215 0.52431 0.533783 0.54416 0.555444 0.565498 0.573445 0.585399 0.595007 0.612225 0.617527 0.634525 0.647259 0.656994 0.670059 0.679555 0.688527 0.699391 0.700042 0.700139 0.699922 0.697766 0.696182 0.698996 0.699055 0.699856
0.473257 0.474572 0.472122 0.473924 0.476445 0.480797 0.50799 0.526283 0.525161 0.52096 0.517334 0.514832 0.509901 0.50641 0.501679 0.496028 0.493382 0.490283 0.487749 0.482339 0.478202 0.476501 0.470687 0.469174 0.464102 0.463627 0.460297 0.455978 0.452992 0.452261 0.447916 0.44621 0.442284 0.439375 0.436559 0.434217 0.431275 0.42988 0.427425 0.422614 0.42141 0.419071 0.41644 0.416337 0.410684 0.410221 0.407943 0.407576 0.404332 0.403604 0.400232 0.397705 0.395795 0.3945 0.392684 0.389593 0.387344 0.386766 0.386044 0.382991 0.380778 0.377669 0.37909 0.374717 0.37457 0.372323 0.372566 0.371536 0.370288 0.367094 0.36586 0.363206 0.364615 0.360848 0.360542 0.35829 0.35597 0.355082 0.356149 0.355572 0.353651 0.35376 0.35155 0.349422 0.348573 0.347205 0.346367 0.34501 0.343508 0.344035 0.34082 0.341806 0.340325 0.339448 0.339476 0.33786 0.337148 0.334342 0.334315 0.334368 0.333227 0.332615 0.332458 0.330956 0.328858 0.328866 0.32888 0.327848 0.32712 0.325797 0.325907 0.323012 0.324186 0.32243 0.321356 0.322396 0.326309 0.328948 0.333709 0.337196 0.342054 0.342312 0.347114 0.350415 0.354105 0.361064 0.362884 0.365092 0.371257 0.373717 0.379075 0.385058 0.389763 0.392502 0.397769 0.403969 0.407362 0.415202 0.422453 0.425437 0.431731 0.439581 0.444229 0.452201 0.458044 0.462445 0.47365 0.477402 0.489904 0.495946 0.507046 0.515313 0.525473 0.535124 0.543564 0.552738 0.565144 0.578765 0.584455 0.59628 0.608618 0.62375 0.635711 0.650159 0.658665 0.670918 0.682665 0.687249 0.689238 0.687192 0.686501 0.686695 0.688495 0.68903 0.68565 0.687962
0.463379 0.464829 0.464547 0.464115 0.466278 0.466717 0.478656 0.509616 0.516398 0.513671 0.508396 0.506947 0.501636 0.499831 0.492786 0.488547 0.487257 0.48167 0.480872 0.475096 0.470418 0.468671 0.462502 0.46178 0.4584 0.455189 0.451767 0.447907 0.445127 0.444486 0.440069 0.439302 0.435673 0.430929 0.430352 0.428881 0.42554 0.421837 0.420555 0.417783 0.415774 0.412728 0.410069 0.406675 0.406286 0.405234 0.401204 0.400322 0.399002 0.396573 0.393113 0.391824 0.391287 0.387413 0.386003 0.383637 0.382913 0.380193 0.378225 0.378341 0.375352 0.371929 0.370513 0.370658 0.369257 0.368159 0.36522 0.365466 0.363798 0.362506 0.359893 0.358393 0.358228 0.356151 0.354744 0.352975 0.351875 0.350634 0.350504 0.350748 0.347609 0.347201 0.34481 0.344707 0.345125 0.342161 0.342 0.338826 0.338823 0.336837 0.335814 0.335826 0.334149 0.334245 0.332063 0.332831 0.331911 0.329964 0.328463 0.328515 0.327319 0.325096 0.326637 0.325086 0.324056 0.321113 0.322306 0.322102 0.321091 0.320159 0.320118 0.318531 0.317317 0.317587 0.316605 0.317552 0.321691 0.324283 0.327922 0.331273 0.335524 0.338746 0.341606 0.346483 0.348472 0.352404 0.358061 0.361422 0.364273 0.368627 0.373144 0.379169 0.383042 0.387976 0.390904 0.396318 0.403775 0.410802 0.414168 0.419128 0.426816 0.431663 0.438867 0.443075 0.450097 0.455402 0.464893 0.47252 0.480628 0.487396 0.498298 0.506798 0.518379 0.525875 0.53577 0.545853 0.557046 0.568586 0.578553 0.591404 0.602452 0.612925 0.625987 0.639484 0.646523 0.661429 0.67204 0.673588 0.675774 0.677275 0.676055 0.676562 0.676767 0.677688 0.677282 0.67641
0.455053 0.457249 0.453646 0.454536 0.455043 0.453786 0.457607 0.469933 0.496544 0.502291 0.502837 0.498513 0.494743 0.48856 0.4843 0.479228 0.475087 0.473007 0.471394 0.468061 0.464519 0.461974 0.457267 0.453781 0.451586 0.449555 0.444101 0.443819 0.439446 0.436656 0.434774 0.431196 0.428748 0.42587 0.423302 0.421563 0.41843 0.414796 0.41435 0.410006 0.410172 0.405414 0.403982 0.40337 0.402619 0.398869 0.396526 0.39478 0.393118 0.391393 0.386386 0.383879 0.384523 0.383203 0.381307 0.378473 0.377106 0.376258 0.371922 0.371673 0.368594 0.370105 0.367115 0.366313 0.364211 0.361898 0.361118 0.359038 0.357691 0.356206 0.355379 0.353399 0.350702 0.351488 0.348368 0.349673 0.347941 0.345637 0.343338 0.342493 0.341653 0.340964 0.338688 0.338587 0.335092 0.336882 0.336725 0.335415 0.332953 0.332377 0.331443 0.331094 0.329664 0.329613 0.327397 0.325475 0.327102 0.324756 0.321472 0.323694 0.322736 0.320768 0.319674 0.320903 0.318442 0.318521 0.317446 0.316738 0.31734 0.315698 0.313625 0.313807 0.314066 0.312006 0.310023 0.312406 0.317271 0.319452 0.321714 0.325805 0.330125 0.332413 0.335732 0.340448 0.342472 0.349257 0.351156 0.354235 0.358424 0.364018 0.366694 0.371362 0.379864 0.379198 0.385822 0.38974 0.396988 0.40293 0.407487 0.412135 0.419166 0.424369 0.431517 0.436241 0.441799 0.451466 0.45774 0.464856 0.470433 0.48215 0.490169 0.496421 0.509364 0.516874 0.524338 0.53574 0.546579 0.559416 0.56679 0.581145 0.592524 0.602278 0.617381 0.62798 0.634435 0.647854 0.65995 0.665749 0.665302 0.667776 0.665507 0.666779 0.667216 0.665272 0.666034 0.664717
0.443707 0.445714 0.44423 0.447528 0.446056 0.44754 0.445256 0.448029 0.454859 0.467903 0.47732 0.474819 0.476444 0.471805 0.467784 0.463857 0.459504 0.453836 0.454935 0.456262 0.456781 0.453323 0.448998 0.448301 0.444453 0.441431 0.437838 0.433677 0.431803 0.42987 0.427804 0.426116 0.423056 0.418554 0.417053 0.414474 0.412126 0.410444 0.407615 0.405885 0.403587 0.401519 0.398017 0.39619 0.395311 0.391703 0.390412 0.387476 0.387285 0.383364 0.38513 0.381159 0.377773 0.376765 0.374619 0.373699 0.371642 0.369594 0.369629 0.366525 0.363645 0.363487 0.360481 0.359338 0.358773 0.355291 0.355382 0.35391 0.352374 0.352341 0.34975 0.347522 0.346225 0.345362 0.344646 0.34223 0.341881 0.340259 0.337363 0.339091 0.335993 0.33489 0.334218 0.334119 0.332392 0.33202 0.330729 0.328946 0.329227 0.327453 0.326679 0.32598 0.32415 0.32346 0.322349 0.321101 0.321136 0.318476 0.319515 0.319635 0.314997 0.317046 0.314621 0.315115 0.315473 0.312419 0.312003 0.309811 0.308763 0.309999 0.310101 0.308496 0.306967 0.307226 0.306919 0.307117 0.311678 0.313962 0.316539 0.320126 0.32408 0.327185 0.332377 0.335071 0.338708 0.34214 0.344649 0.347527 0.352357 0.357416 0.360042 0.366425 0.369507 0.373252 0.380115 0.385335 0.389341 0.395968 0.403775 0.408122 0.410961 0.416866 0.426064 0.43245 0.436233 0.443244 0.449256 0.456899 0.466031 0.472703 0.481967 0.490527 0.500736 0.511494 0.517131 0.524784 0.541259 0.549724 0.560889 0.570759 0.581038 0.593141 0.606779 0.617333 0.628975 0.638492 0.649396 0.653742 0.651275 0.654153 0.653432 0.654077 0.656321 0.654417 0.653955 0.655779
0.434665 0.435889 0.436593 0.43559 0.43378 0.435983 0.436779 0.434994 0.433737 0.433375 0.434272 0.437449 0.432632 0.430839 0.426866 0.422327 0.417445 0.415569 0.417706 0.4266 0.434972 0.439275 0.439813 0.439204 0.437089 0.433547 0.432758 0.428312 0.425323 0.422851 0.419677 0.417879 0.413232 0.412105 0.409562 0.406604 0.404872 0.404077 0.399522 0.398466 0.397917 0.394184 0.392239 0.390375 0.387601 0.385972 0.383292 0.383379 0.381285 0.378072 0.375788 0.375697 0.371601 0.370964 0.370969 0.367184 0.366079 0.364561 0.362841 0.360708 0.358303 0.356606 0.356179 0.354358 0.352823 0.350386 0.349007 0.347493 0.346197 0.344696 0.342015 0.342484 0.341142 0.339107 0.338895 0.338617 0.332692 0.335357 0.333351 0.333235 0.33124 0.330296 0.3288 0.328076 0.324708 0.325736 0.323145 0.323416 0.322367 0.322021 0.320981 0.320644 0.318219 0.317194 0.315545 0.315435 0.316445 0.314392 0.314574 0.311064 0.311255 0.310544 0.311443 0.309694 0.308787 0.306836 0.306776 0.305603 0.30695 0.304387 0.304206 0.302 0.301968 0.301801 0.301148 0.301271 0.305958 0.309741 0.311709 0.314246 0.319813 0.321243 0.326338 0.329615 0.332831 0.337396 0.339295 0.343247 0.345871 0.350977 0.356026 0.361089 0.365742 0.366301 0.373036 0.37837 0.382869 0.390367 0.396038 0.398096 0.405938 0.411021 0.416408 0.423743 0.43003 0.43691 0.443026 0.450385 0.457624 0.465465 0.476789 0.48123 0.494062 0.503322 0.508203 0.520856 0.528185 0.540482 0.550639 0.560908 0.573985 0.584919 0.595164 0.606473 0.618486 0.628562 0.63684 0.64243 0.644361 0.643132 0.644276 0.645655 0.642448 0.643773 0.644143 0.64236
0.426777 0.427245 0.426328 0.427753 0.426485 0.426463 0.425359 0.42209 0.42166 0.417914 0.417217 0.41235 0.409663 0.406561 0.405125 0.400835 0.398424 0.398243 0.395216 0.397265 0.39711 0.402081 0.411094 0.419244 0.418742 0.421858 0.421302 0.42005 0.419727 0.415752 0.413693 0.411507 0.408352 0.405282 0.402507 0.401076 0.401124 0.395941 0.393219 0.39323 0.389347 0.386731 0.386006 0.384735 0.38125 0.379513 0.379105 0.376902 0.37568 0.371351 0.370979 0.367088 0.367355 0.364313 0.363008 0.361227 0.360145 0.358381 0.355936 0.35412 0.352724 0.352093 0.349817 0.348856 0.347626 0.345372 0.343881 0.342191 0.341606 0.337458 0.338737 0.33762 0.337332 0.334582 0.333483 0.332526 0.329451 0.329464 0.328866 0.327177 0.325152 0.324295 0.32269 0.323074 0.32189 0.321052 0.31974 0.318296 0.317951 0.317132 0.313922 0.313933 0.313606 0.310547 0.310639 0.311284 0.309811 0.30978 0.307905 0.306924 0.305537 0.305592 0.303665 0.303454 0.302975 0.303116 0.301068 0.301973 0.300208 0.299888 0.298748 0.299123 0.297099 0.297965 0.29643 0.29655 0.300392 0.304861 0.306929 0.311554 0.312191 0.31573 0.320177 0.324565 0.32703 0.329918 0.333646 0.337385 0.343145 0.3467 0.350129 0.355304 0.355563 0.363545 0.368624 0.372327 0.378552 0.383052 0.388474 0.392937 0.398604 0.40408 0.409855 0.412915 0.422167 0.427301 0.436886 0.442416 0.44973 0.457846 0.465001 0.478405 0.484346 0.493359 0.501695 0.51134 0.521946 0.531093 0.541915 0.551348 0.56375 0.574693 0.585104 0.596129 0.608276 0.616075 0.625495 0.631414 0.63208 0.632976 0.631707 0.634587 0.63137 0.632964 0.631724 0.633268
0.415739 0.418211 0.420393 0.417637 0.416682 0.41438 0.414869 0.411879 0.408337 0.405592 0.402155 0.399653 0.39639 0.392087 0.391392 0.38909 0.386241 0.383618 0.384718 0.382399 0.381978 0.381008 0.381512 0.381744 0.386081 0.388613 0.392741 0.399984 0.400235 0.400425 0.400209 0.40145 0.401183 0.398241 0.396482 0.395765 0.391285 0.389152 0.387442 0.384921 0.383986 0.382104 0.380573 0.377485 0.377135 0.373797 0.369926 0.370149 0.368883 0.366201 0.364275 0.362155 0.359028 0.357469 0.357206 0.357085 0.354332 0.351453 0.350881 0.347411 0.347326 0.347112 0.343059 0.342926 0.341047 0.340926 0.338588 0.337469 0.336222 0.335183 0.331391 0.330565 0.330082 0.328461 0.326845 0.326311 0.325445 0.325458 0.323796 0.322744 0.320556 0.319044 0.319551 0.316168 0.316483 0.31546 0.315382 0.312085 0.311948 0.311413 0.311084 0.310154 0.307215 0.307503 0.306385 0.304734 0.30443 0.303526 0.302895 0.302202 0.301176 0.299885 0.298061 0.298728 0.297517 0.295234 0.29652 0.296129 0.295608 0.29408 0.293433 0.295485 0.292218 0.292595 0.29264 0.292352 0.298348 0.299153 0.304289 0.305311 0.309248 0.313939 0.314172 0.317663 0.321976 0.324673 0.328398 0.331182 0.336559 0.340589 0.343679 0.348482 0.352481 0.358676 0.36052 0.364969 0.37121 0.378495 0.380939 0.386411 0.39094 0.398232 0.402385 0.406623 0.414321 0.424456 0.429239 0.436872 0.441698 0.449173 0.460208 0.46885 0.476203 0.485878 0.489182 0.501147 0.512176 0.524501 0.53337 0.544095 0.554439 0.563628 0.575316 0.587611 0.595366 0.604568 0.612393 0.620464 0.620977 0.619227 0.622251 0.622372 0.622216 0.623214 0.619925 0.621943
0.407091 0.409445 0.405612 0.407831 0.403884 0.403382 0.399118 0.398568 0.393432 0.391238 0.388363 0.38689 0.380999 0.380246 0.377708 0.377252 0.374396 0.372792 0.375524 0.374281 0.369011 0.368136 0.368365 0.366827 0.364893 0.36576 0.365274 0.364933 0.364939 0.367798 0.370795 0.372036 0.375511 0.37838 0.380443 0.382375 0.383304 0.38155 0.381151 0.378546 0.376959 0.37411 0.373013 0.370522 0.370046 0.366708 0.366384 0.3628 0.361761 0.360731 0.358377 0.356898 0.356026 0.352968 0.352113 0.34914 0.348831 0.347268 0.345051 0.343503 0.340639 0.340298 0.339038 0.338709 0.335941 0.334237 0.332804 0.332038 0.33174 0.328741 0.330434 0.326259 0.324004 0.324327 0.321293 0.322021 0.319986 0.318682 0.317975 0.316548 0.31539 0.314039 0.314208 0.312076 0.312714 0.310723 0.30979 0.30761 0.306093 0.307017 0.305179 0.304136 0.302768 0.302721 0.300965 0.299609 0.299245 0.298227 0.297541 0.295345 0.296645 0.296499 0.293193 0.293386 0.293121 0.292134 0.292142 0.290701 0.290982 0.289946 0.289971 0.289604 0.287985 0.288024 0.287405 0.287387 0.291545 0.297169 0.299091 0.301485 0.304417 0.305168 0.310705 0.314594 0.316764 0.321337 0.32439 0.32519 0.330061 0.334479 0.339042 0.339746 0.346605 0.3488 0.357898 0.358512 0.364229 0.372512 0.373767 0.378929 0.386732 0.389575 0.396745 0.403194 0.406425 0.415347 0.422334 0.428601 0.438008 0.441609 0.451003 0.460291 0.4675 0.477941 0.485617 0.497083 0.503044 0.515129 0.523757 0.533724 0.543934 0.553082 0.567852 0.576597 0.586 0.596896 0.604019 0.609715 0.609662 0.609969 0.609728 0.612642 0.611024 0.611373 0.610257 0.6121
0.397729 0.396932 0.39573 0.39275 0.390608 0.390262 0.384516 0.382552 0.380942 0.380365 0.374763 0.373736 0.370276 0.370559 0.370375 0.365538 0.366994 0.364615 0.362384 0.36245 0.360579 0.358786 0.358277 0.354836 0.354483 0.353871 0.352801 0.351277 0.350427 0.34899 0.347232 0.346744 0.34653 0.346389 0.34619 0.348838 0.353532 0.358226 0.362919 0.365704 0.365995 0.366161 0.363317 0.363304 0.362774 0.361074 0.359253 0.357507 0.355574 0.353455 0.351215 0.350484 0.34976 0.348523 0.344299 0.345747 0.343297 0.340921 0.338813 0.336972 0.334815 0.333638 0.33396 0.332731 0.330406 0.329839 0.327527 0.325482 0.323378 0.32484 0.32223 0.320661 0.320455 0.31838 0.317797 0.317866 0.314643 0.313752 0.312672 0.311467 0.30975 0.30791 0.308333 0.307406 0.30377 0.305628 0.304132 0.3049 0.300056 0.299928 0.30116 0.299234 0.298279 0.296748 0.297222 0.294601 0.294308 0.293374 0.2938 0.292421 0.290788 0.289158 0.290893 0.288431 0.288558 0.288432 0.287404 0.286767 0.286006 0.284536 0.284236 0.284458 0.280991 0.278628 0.26777 0.2438 0.206961 0.23108 0.259902 0.230964 0.198557 0.195207 0.30468 0.308295 0.313093 0.31549 0.31783 0.318938 0.32626 0.327846 0.331925 0.336148 0.341301 0.344632 0.349025 0.356058 0.359102 0.365248 0.370097 0.373314 0.37938 0.385664 0.389325 0.395778 0.401326 0.40749 0.414338 0.420147 0.42631 0.432962 0.442101 0.450071 0.461073 0.469972 0.476962 0.486995 0.492836 0.505554 0.515557 0.524857 0.533383 0.544374 0.55588 0.566684 0.575224 0.585837 0.596424 0.597109 0.597398 0.59845 0.599446 0.600456 0.600448 0.600794 0.599358 0.599858
0.389457 0.388203 0.383584 0.383365 0.378107 0.375155 0.37423 0.369966 0.367059 0.366704 0.363423 0.362689 0.362295 0.358924 0.358153 0.35812 0.357235 0.353323 0.352396 0.352465 0.348861 0.348556 0.348128 0.344433 0.342979 0.342844 0.341998 0.340705 0.338706 0.338345 0.335782 0.33557 0.333679 0.333419 0.332196 0.331047 0.330747 0.330972 0.3303 0.332408 0.33394 0.335798 0.337853 0.340876 0.345763 0.347507 0.347587 0.345689 0.343863 0.344671 0.346187 0.343298 0.342463 0.339337 0.338965 0.337706 0.337347 0.332471 0.333018 0.331725 0.329738 0.328077 0.328139 0.327444 0.325293 0.323784 0.322599 0.321738 0.318978 0.317747 0.317473 0.314287 0.314214 0.314335 0.31199 0.311487 0.307569 0.308533 0.307665 0.306674 0.303599 0.304137 0.302528 0.302631 0.299828 0.300572 0.297841 0.297644 0.295491 0.2941 0.294359 0.293989 0.293306 0.292185 0.291447 0.29103 0.287831 0.287864 0.287775 0.286676 0.285518 0.28506 0.28486 0.283333 0.28257 0.282762 0.28169 0.280876 0.278479 0.275894 0.26125 0.238726 0.186967 0.0 0.0 0.0 0.0 0.0 0.0 0.0 0.0 0.0 0.286801 0.304253 0.306656 0.310792 0.311998 0.314875 0.32013 0.323027 0.325615 0.32988 0.333259 0.337806 0.343974 0.347778 0.35211 0.357874 0.361527 0.367776 0.371459 0.37755 0.382624 0.38778 0.394577 0.400552 0.404857 0.412303 0.420686 0.424793 0.433487 0.443452 0.451355 0.460401 0.469281 0.477668 0.484443 0.494865 0.504731 0.515624 0.523913 0.533161 0.545693 0.554754 0.565247 0.573452 0.583957 0.585429 0.587383 0.586341 0.586915 0.588441 0.587963 0.589783 0.587705 0.587993
0.374321 0.374759 0.370309 0.370763 0.367728 0.363064 0.358486 0.360095 0.358626 0.355468 0.35102 0.352525 0.351819 0.347936 0.349005 0.346836 0.345652 0.344866 0.342474 0.342225 0.340051 0.339563 0.337413 0.333735 0.33315 0.332766 0.330727 0.327997 0.328918 0.326657 0.326063 0.325924 0.323949 0.323571 0.320919 0.32094 0.319448 0.320306 0.319906 0.31806 0.317108 0.31711 0.314599 0.315371 0.316463 0.317182 0.317091 0.315185 0.314982 0.321117 0.331324 0.333384 0.33695 0.332513 0.333462 0.330668 0.329443 0.330098 0.326079 0.325312 0.324801 0.323423 0.319623 0.319566 0.319079 0.31698 0.317064 0.315537 0.314201 0.312499 0.312355 0.310725 0.307859 0.308289 0.305743 0.305065 0.303896 0.303475 0.301632 0.300848 0.300689 0.297495 0.297965 0.296268 0.296187 0.294499 0.292815 0.292189 0.291504 0.290266 0.288845 0.288979 0.288682 0.287273 0.286426 0.284962 0.284309 0.284031 0.282082 0.284046 0.280056 0.279856 0.279597 0.279094 0.277476 0.274123 0.265056 0.246605 0.202348 0.0 0.0 0.0 0.0 0.0 0.0 0.0 0.0 0.0 0.0 0.0 0.0 0.0 0.215096 0.298141 0.300431 0.306047 0.306288 0.310672 0.313186 0.316525 0.318744 0.322857 0.327361 0.331122 0.338926 0.341959 0.347906 0.352164 0.356058 0.359839 0.364838 0.368649 0.376788 0.380633 0.386146 0.391488 0.398568 0.405607 0.415477 0.420971 0.424952 0.436567 0.4429 0.451311 0.457825 0.471953 0.478592 0.487773 0.494922 0.505074 0.512286 0.525426 0.534005 0.543073 0.555563 0.562168 0.573633 0.574161 0.575355 0.575056 0.575947 0.575931 0.576977 0.578235 0.574878 0.576286
0.363791 0.363576 0.359612 0.356894 0.353868 0.353627 0.349212 0.34867 0.345058 0.343832 0.343639 0.342815 0.342192 0.338266 0.339063 0.337071 0.336106 0.333567 0.333509 0.329795 0.329188 0.328149 0.324666 0.32434 0.324148 0.322208 0.320593 0.319489 0.317582 0.316935 0.316607 0.316163 0.314483 0.312315 0.313698 0.310308 0.311084 0.310689 0.310548 0.30757 0.307013 0.306958 0.306662 0.305879 0.305844 0.304337 0.302346 0.300302 0.30011 0.300968 0.301647 0.305028 0.314909 0.32313 0.322838 0.325184 0.322396 0.321694 0.321487 0.321348 0.319076 0.315775 0.315471 0.314257 0.312562 0.312579 0.311443 0.30873 0.308154 0.306061 0.305982 0.302683 0.304439 0.302549 0.301577 0.300427 0.299038 0.297411 0.297247 0.295386 0.294259 0.293135 0.291834 0.290476 0.290215 0.28759 0.289402 0.285935 0.286418 0.285813 0.284239 0.283945 0.283289 0.281423 0.280593 0.280374 0.277304 0.279219 0.278221 0.277531 0.273866 0.273122 0.267457 0.247259 0.207897 0.177586 0.0 0.0 0.0 0.0 0.0 0.0 0.0 0.0 0.0 0.0 0.0 0.0 0.0 0.0 0.0 0.0 0.0 0.292042 0.29606 0.299659 0.302286 0.304063 0.307137 0.311205 0.313315 0.31919 0.321814 0.326976 0.329746 0.333885 0.340818 0.343997 0.34886 0.35349 0.35733 0.362984 0.369463 0.37447 0.379807 0.387341 0.391284 0.397802 0.406903 0.412719 0.421498 0.427675 0.435318 0.445689 0.45163 0.460429 0.468818 0.4785 0.484805 0.49487 0.503072 0.514796 0.523132 0.532011 0.5487 0.555939 0.561676 0.563473 0.563618 0.565507 0.564905 0.565019 0.566175 0.567731 0.562441 0.566153
0.352825 0.349891 0.350709 0.348304 0.343954 0.342209 0.339027 0.33825 0.336226 0.336157 0.335844 0.332227 0.331871 0.330526 0.329752 0.326874 0.324817 0.323951 0.320865 0.320514 0.317887 0.317555 0.315198 0.314761 0.314515 0.312867 0.312209 0.310336 0.310675 0.308516 0.308138 0.306182 0.305943 0.30425 0.303053 0.302716 0.30269 0.302185 0.300657 0.298594 0.298415 0.298847 0.296809 0.296952 0.296378 0.293099 0.292781 0.291265 0.292163 0.290962 0.289587 0.28864 0.29082 0.291263 0.293149 0.299592 0.306214 0.311039 0.312395 0.310945 0.311534 0.30914 0.309202 0.309089 0.307669 0.307567 0.304368 0.302965 0.30258 0.301605 0.299562 0.299371 0.296385 0.297811 0.296681 0.293115 0.292292 0.29189 0.290718 0.289908 0.28934 0.288062 0.287264 0.285994 0.284014 0.283347 0.283397 0.281488 0.281783 0.281725 0.280363 0.278351 0.278125 0.276952 0.277329 0.275925 0.274703 0.271641 0.270128 0.262372 0.238134 0.177946 0.0 0.0 0.0 0.0 0.0 0.0 0.0 0.0 0.0 0.0 0.0 0.0 0.0 0.0 0.0 0.0 0.0 0.0 0.0 0.0 0.0 0.268507 0.292468 0.295811 0.2961 0.298319 0.300064 0.305188 0.3093 0.313002 0.31569 0.320138 0.32466 0.32841 0.333804 0.337762 0.342763 0.346204 0.35251 0.356101 0.36226 0.367525 0.371834 0.379695 0.381662 0.391092 0.398595 0.404102 0.412388 0.419719 0.42634 0.435814 0.442796 0.451839 0.458877 0.468353 0.476069 0.484683 0.496121 0.503873 0.51172 0.523087 0.536305 0.543951 0.549315 0.550821 0.551965 0.552998 0.552533 0.552833 0.5551 0.555107 0.552716 0.553371
0.34314 0.339278 0.338038 0.333527 0.3354 0.329993 0.328058 0.327795 0.325575 0.324409 0.325028 0.323023 0.320909 0.320026 0.319152 0.317801 0.313911 0.311007 0.310298 0.310505 0.309208 0.30774 0.305258 0.304775 0.30472 0.304253 0.302054 0.301304 0.30158 0.29989 0.299643 0.297315 0.296727 0.296444 0.295752 0.294116 0.294569 0.291586 0.290985 0.290984 0.289688 0.291296 0.290309 0.287203 0.285465 0.284325 0.28437 0.283361 0.281535 0.28301 0.281315 0.282741 0.281 0.280967 0.280647 0.281445 0.28049 0.281298 0.281876 0.286496 0.289771 0.295095 0.297088 0.297156 0.297813 0.298241 0.299315 0.298118 0.296284 0.29533 0.295022 0.294719 0.292963 0.289872 0.291563 0.288773 0.288667 0.285362 0.285439 0.28517 0.284148 0.282374 0.281593 0.2807 0.280218 0.279855 0.277286 0.277397 0.277395 0.275825 0.27583 0.274326 0.273582 0.271095 0.270125 0.265376 0.247824 0.187548 0.0 0.0 0.0 0.0 0.0 0.0 0.0 0.0 0.0 0.0 0.0 0.0 0.0 0.0 0.0 0.0 0.0 0.0 0.0 0.0 0.0 0.0 0.0 0.0 0.0 0.189874 0.286194 0.289523 0.29192 0.293326 0.295152 0.29828 0.303304 0.307928 0.309142 0.312962 0.318152 0.321761 0.32834 0.333397 0.336039 0.341184 0.34492 0.348432 0.356181 0.359368 0.364893 0.371451 0.376657 0.383316 0.391672 0.398498 0.403788 0.411681 0.418038 0.427186 0.433173 0.442441 0.451077 0.458415 0.465841 0.472752 0.485336 0.493223 0.504733 0.518357 0.525256 0.532125 0.532659 0.537557 0.539104 0.539681 0.541195 0.54192 0.542164 0.543159 0.54082 0.542455
0.332349 0.327363 0.326642 0.322721 0.322564 0.321387 0.319016 0.31798 0.317794 0.316655 0.31385 0.313151 0.309894 0.309871 0.308903 0.307111 0.304322 0.301783 0.302219 0.301122 0.2985 0.298486 0.295238 0.295183 0.294899 0.294681 0.292946 0.292744 0.292315 0.2909 0.290954 0.289381 0.287118 0.286497 0.286348 0.284695 0.283747 0.283968 0.283326 0.282922 0.282293 0.281266 0.2799 0.277155 0.277075 0.276597 0.275607 0.275487 0.27543 0.275379 0.274183 0.273683 0.273591 0.273217 0.272331 0.272542 0.272068 0.271314 0.270966 0.270623 0.270628 0.27058 0.268707 0.268782 0.269319 0.272944 0.28388 0.289104 0.290279 0.289347 0.288648 0.287097 0.286008 0.284752 0.283899 0.283165 0.282606 0.279202 0.280132 0.280097 0.279098 0.277818 0.277909 0.276352 0.276506 0.275241 0.273638 0.273348 0.27198 0.270217 0.26971 0.265051 0.253452 0.231324 0.191209 0.0 0.0 0.0 0.0 0.0 0.0 0.0 0.0 0.0 0.0 0.0 0.0 0.0 0.0 0.0 0.0 0.0 0.0 0.0 0.0 0.0 0.0 0.0 0.0 0.0 0.0 0.0 0.0 0.0 0.279763 0.28319 0.285878 0.288633 0.288922 0.294169 0.297238 0.29928 0.305427 0.308298 0.311179 0.317309 0.321313 0.32591 0.328666 0.333697 0.337233 0.344676 0.347952 0.354328 0.359499 0.364339 0.368787 0.374772 0.382006 0.389733 0.395551 0.401977 0.411013 0.418431 0.426936 0.434822 0.443092 0.448495 0.456822 0.465004 0.474938 0.482234 0.498547 0.507347 0.511945 0.519974 0.520734 0.522166 0.522652 0.526998 0.528114 0.52846 0.52942 0.531361 0.530225 0.531401
0.320473 0.316259 0.31556 0.314041 0.312472 0.31286 0.309484 0.309358 0.307065 0.30672 0.30445 0.304531 0.301992 0.30104 0.298467 0.295791 0.295741 0.294248 0.293461 0.292161 0.289197 0.288727 0.2874 0.288556 0.286499 0.285945 0.286144 0.283084 0.283471 0.283063 0.281348 0.280956 0.278861 0.278427 0.276238 0.276444 0.274216 0.27489 0.274775 0.274383 0.271735 0.271414 0.268952 0.268194 0.268288 0.267486 0.268098 0.267195 0.268493 0.266588 0.266715 0.26752 0.266421 0.264429 0.264127 0.263887 0.263483 0.2637 0.262745 0.262579 0.260796 0.260584 0.259817 0.259614 0.258912 0.259331 0.258638 0.261912 0.269316 0.276106 0.279496 0.27971 0.280429 0.280316 0.2777 0.278598 0.276436 0.276116 0.275689 0.273484 0.273899 0.272815 0.274016 0.270936 0.270753 0.270351 0.269174 0.267499 0.26004 0.242512 0.203618 0.165838 0.0 0.0 0.0 0.0 0.0 0.0 0.0 0.0 0.0 0.0 0.0 0.0 0.0 0.0 0.0 0.0 0.0 0.0 0.0 0.0 0.0 0.0 0.0 0.0 0.0 0.0 0.0 0.0 0.0 0.0 0.0 0.0 0.258027 0.279062 0.282028 0.282472 0.284497 0.288388 0.292177 0.294398 0.297812 0.302536 0.307612 0.311457 0.31424 0.320941 0.321765 0.32827 0.333146 0.337129 0.341922 0.346447 0.351444 0.355717 0.362118 0.367169 0.374412 0.381335 0.390173 0.398121 0.402535 0.410015 0.418271 0.422463 0.432967 0.440558 0.44679 0.454786 0.46438 0.47796 0.486991 0.495242 0.500143 0.503023 0.505337 0.509485 0.510603 0.511617 0.514586 0.516749 0.517038 0.519585 0.516935 0.518973
0.308876 0.307897 0.306985 0.304982 0.301837 0.300954 0.300539 0.299155 0.296748 0.29613 0.295348 0.292747 0.292497 0.289237 0.28963 0.286566 0.287825 0.284104 0.283679 0.283205 0.282513 0.28104 0.281603 0.280091 0.278814 0.277434 0.276792 0.276493 0.273685 0.273403 0.271621 0.271354 0.269033 0.269893 0.268479 0.267906 0.268117 0.268168 0.266507 0.263471 0.262878 0.261076 0.260497 0.260476 0.26013 0.261332 0.261271 0.259455 0.259515 0.260076 0.258388 0.258244 0.257118 0.256491 0.256856 0.255691 0.255846 0.255129 0.253706 0.254695 0.253501 0.251929 0.251892 0.250821 0.250901 0.250549 0.250419 0.250347 0.250497 0.250486 0.252551 0.256852 0.262571 0.269054 0.270201 0.271788 0.271472 0.270506 0.27145 0.269621 0.269483 0.267662 0.265518 0.265499 0.262928 0.247089 0.228263 0.181921 0.0 0.0 0.0 0.0 0.0 0.0 0.0 0.0 0.0 0.0 0.0 0.0 0.0 0.0 0.0 0.0 0.0 0.0 0.0 0.0 0.0 0.0 0.0 0.0 0.0 0.0 0.0 0.0 0.0 0.0 0.0 0.0 0.0 0.0 0.0 0.0 0.186811 0.271939 0.275879 0.275982 0.280434 0.281816 0.285187 0.287686 0.29251 0.294588 0.300815 0.304516 0.309058 0.313614 0.318073 0.320384 0.325702 0.32937 0.334441 0.338639 0.346971 0.348139 0.355843 0.363011 0.369477 0.373614 0.381745 0.387267 0.393316 0.403096 0.408239 0.415487 0.423213 0.430008 0.438583 0.444811 0.459966 0.468133 0.475593 0.483482 0.488326 0.489255 0.489682 0.493899 0.495387 0.498266 0.500704 0.502929 0.504766 0.506039 0.5042 0.506827
0.300218 0.296263 0.295945 0.295012 0.293466 0.293619 0.29226 0.290237 0.288731 0.285948 0.28519 0.282432 0.282528 0.280072 0.279738 0.278192 0.278096 0.277398 0.276984 0.27404 0.2748 0.272924 0.272213 0.271674 0.268347 0.267443 0.266656 0.265004 0.26407 0.263308 0.263261 0.262731 0.260849 0.260551 0.260477 0.258782 0.260563 0.256608 0.256074 0.254464 0.254915 0.252996 0.253458 0.25441 0.253803 0.25288 0.25277 0.252557 0.251114 0.25059 0.250233 0.250256 0.248997 0.248708 0.248639 0.247824 0.247336 0.246371 0.245891 0.245844 0.244626 0.244534 0.243646 0.244095 0.242841 0.242339 0.242693 0.24337 0.243198 0.242656 0.242917 0.242383 0.242811 0.243879 0.246015 0.251504 0.256622 0.26105 0.262876 0.26343 0.261488 0.255352 0.244066 0.203507 0.167259 0.0 0.0 0.0 0.0 0.0 0.0 0.0 0.0 0.0 0.0 0.0 0.0 0.0 0.0 0.0 0.0 0.0 0.0 0.0 0.0 0.0 0.0 0.0 0.0 0.0 0.0 0.0 0.0 0.0 0.0 0.0 0.0 0.0 0.0 0.0 0.0 0.0 0.0 0.0 0.133221 0.265617 0.269732 0.271227 0.274931 0.276709 0.278926 0.282711 0.285537 0.290152 0.294293 0.297529 0.302288 0.30625 0.311036 0.313941 0.318538 0.321794 0.327179 0.334428 0.337838 0.342677 0.345626 0.354586 0.361063 0.365593 0.372986 0.378652 0.384064 0.393505 0.401492 0.409398 0.413146 0.420386 0.428594 0.438822 0.450581 0.459112 0.464178 0.471491 0.473492 0.474003 0.477261 0.478469 0.481763 0.483955 0.488465 0.486417 0.487752 0.491809 0.491705 0.49308
0.28993 0.287512 0.287038 0.287453 0.284075 0.283789 0.282686 0.280607 0.279086 0.27632 0.276075 0.274204 0.273376 0.272122 0.270336 0.26894 0.268958 0.267471 0.26718 0.265227 0.263822 0.264307 0.262704 0.261112 0.25985 0.259399 0.258794 0.25681 0.256328 0.253883 0.253896 0.253436 0.253301 0.252695 0.252731 0.251132 0.250599 0.248592 0.248021 0.248035 0.246948 0.246816 0.245531 0.246568 0.246714 0.24634 0.245289 0.245031 0.243782 0.243168 0.24235 0.241851 0.241775 0.241443 0.241586 0.240009 0.239272 0.238645 0.238597 0.236466 0.237313 0.237224 0.236254 0.236017 0.237138 0.236075 0.235745 0.235887 0.236032 0.235661 0.236281 0.236176 0.235295 0.23556 0.235621 0.236983 0.236323 0.236444 0.223749 0.215523 0.178658 0.0 0.0 0.0 0.0 0.0 0.0 0.0 0.0 0.0 0.0 0.0 0.0 0.0 0.0 0.0 0.0 0.0 0.0 0.0 0.0 0.0 0.0 0.0 0.0 0.0 0.0 0.0 0.0 0.0 0.0 0.0 0.0 0.0 0.0 0.0 0.0 0.0 0.0 0.0 0.0 0.0 0.0 0.0 0.0 0.248891 0.263219 0.267245 0.267557 0.270131 0.272503 0.276933 0.279271 0.283196 0.2875 0.29129 0.295249 0.299485 0.303469 0.307202 0.310789 0.316348 0.321711 0.323857 0.330418 0.33429 0.341421 0.346764 0.352285 0.358839 0.363333 0.372816 0.379118 0.383997 0.39147 0.399721 0.405851 0.412329 0.419101 0.430919 0.439427 0.444721 0.451665 0.453375 0.458142 0.460647 0.46148 0.46418 0.468373 0.469086 0.471454 0.474113 0.472721 0.477721 0.474029 0.480557
0.280782 0.278643 0.278614 0.275635 0.276533 0.273148 0.27272 0.270163 0.269272 0.268815 0.266025 0.266063 0.264569 0.263297 0.262775 0.26152 0.260064 0.259618 0.25718 0.257748 0.254754 0.254026 0.252311 0.253429 0.25053 0.250563 0.250394 0.250232 0.248359 0.248003 0.2462 0.244769 0.24666 0.245863 0.243368 0.243051 0.241554 0.242436 0.240797 0.24035 0.239395 0.239731 0.239199 0.238364 0.238869 0.236968 0.23738 0.23667 0.236426 0.235113 0.234981 0.234905 0.232332 0.233133 0.233224 0.232961 0.232703 0.232347 0.230774 0.229867 0.22988 0.230609 0.230121 0.230501 0.229715 0.229696 0.228715 0.228702 0.228895 0.228838 0.228835 0.229647 0.229599 0.229352 0.2286 0.227143 0.214089 0.173485 0.0 0.0 0.0 0.0 0.0 0.0 0.0 0.0 0.0 0.0 0.0 0.0 0.0 0.0 0.0 0.0 0.0 0.0 0.120509 0.116824 0.116838 0.118271 0.0 0.0 0.0 0.0 0.0 0.0 0.0 0.0 0.0 0.0 0.0 0.0 0.0 0.0 0.0 0.0 0.0 0.0 0.0 0.0 0.0 0.0 0.0 0.0 0.0 0.184983 0.257031 0.261929 0.263512 0.264897 0.267621 0.270764 0.272788 0.277437 0.280866 0.284202 0.290687 0.295026 0.295978 0.299721 0.303839 0.308796 0.313252 0.318654 0.32226 0.32811 0.333459 0.337631 0.345874 0.350656 0.358894 0.363351 0.370228 0.377129 0.382224 0.39022 0.396094 0.402674 0.41275 0.421177 0.427948 0.43406 0.440886 0.441547 0.444393 0.443382 0.447906 0.450376 0.45217 0.451628 0.454624 0.459513 0.459651 0.46141 0.461245 0.464268
0.273597 0.270039 0.267705 0.267164 0.264851 0.266051 0.265791 0.264028 0.258635 0.25939 0.258074 0.256354 0.255057 0.254699 0.254296 0.251841 0.250889 0.250458 0.249111 0.247569 0.247008 0.24579 0.244989 0.245418 0.244478 0.243647 0.243129 0.241602 0.242568 0.241613 0.239806 0.240181 0.238592 0.237263 0.237605 0.234628 0.234429 0.233331 0.232289 0.232208 0.232583 0.232913 0.232295 0.231233 0.230977 0.229726 0.22968 0.22899 0.228904 0.227576 0.22715 0.226879 0.227508 0.225951 0.225842 0.225737 0.223599 0.223652 0.22341 0.223421 0.222443 0.222213 0.222879 0.222457 0.223873 0.223062 0.22275 0.223184 0.223175 0.22312 0.223958 0.223464 0.221243 0.211512 0.187752 0.153626 0.0 0.0 0.0 0.0 0.0 0.0 0.0 0.0 0.0 0.0 0.0 0.0 0.0 0.0 0.0 0.0 0.0 0.0 0.109706 0.112084 0.11244 0.112846 0.113501 0.114158 0.0 0.0 0.0 0.0 0.0 0.0 0.0 0.0 0.0 0.0 0.0 0.0 0.0 0.0 0.0 0.0 0.0 0.0 0.0 0.0 0.0 0.0 0.0 0.0 0.0 0.126302 0.251542 0.254972 0.256814 0.259461 0.261118 0.263881 0.268004 0.270635 0.274979 0.279435 0.28285 0.287731 0.289662 0.294418 0.29788 0.301354 0.306151 0.31283 0.317255 0.321393 0.327873 0.33012 0.337853 0.345254 0.349937 0.354739 0.364344 0.367457 0.372728 0.380778 0.386249 0.397988 0.404127 0.410187 0.416427 0.423053 0.423883 0.427254 0.428679 0.429963 0.431777 0.43615 0.437893 0.441525 0.442779 0.443679 0.445323 0.4474 0.446605 0.452544
0.263664 0.260305 0.259263 0.258637 0.256743 0.255726 0.255123 0.253157 0.252418 0.250624 0.249144 0.248884 0.246514 0.24627 0.24573 0.243591 0.24412 0.2418 0.241391 0.239741 0.239197 0.235972 0.237334 0.236663 0.235998 0.235837 0.235433 0.23469 0.234892 0.232879 0.233784 0.232377 0.230585 0.228998 0.228696 0.227516 0.226098 0.225766 0.225488 0.224579 0.223187 0.224098 0.224866 0.223345 0.224122 0.223928 0.223105 0.221899 0.221866 0.221545 0.219723 0.219412 0.219299 0.21919 0.220103 0.217676 0.21787 0.216567 0.216479 0.216539 0.216844 0.217587 0.216642 0.21744 0.217468 0.217258 0.217099 0.217185 0.217129 0.214955 0.206373 0.181507 0.152318 0.0 0.0 0.0 0.0 0.0 0.0 0.0 0.0 0.0 0.0 0.0 0.0 0.0 0.0 0.0 0.0 0.0 0.0 0.0 0.0 0.0 0.0 0.109582 0.109639 0.109987 0.109951 0.109869 0.0 0.0 0.0 0.0 0.0 0.0 0.0 0.0 0.0 0.0 0.0 0.0 0.0 0.0 0.0 0.0 0.0 0.0 0.0 0.0 0.0 0.0 0.0 0.0 0.0 0.0 0.24165 0.250139 0.252809 0.253444 0.256566 0.258919 0.259719 0.265257 0.268172 0.272122 0.275497 0.282845 0.283847 0.286962 0.291315 0.294062 0.298441 0.305046 0.310932 0.313093 0.320244 0.324752 0.329325 0.335893 0.340949 0.34528 0.352703 0.359109 0.365737 0.371094 0.378616 0.387711 0.392892 0.400295 0.406175 0.408819 0.412534 0.409933 0.414333 0.416133 0.419764 0.420179 0.42582 0.426009 0.428138 0.428959 0.430912 0.429867 0.43169 0.435166
0.253651 0.251382 0.251268 0.248124 0.248173 0.24555 0.245364 0.24474 0.243086 0.243068 0.238972 0.238332 0.239415 0.236877 0.237236 0.236183 0.234602 0.234005 0.23356 0.232005 0.23206 0.229794 0.228943 0.228873 0.228422 0.228846 0.227973 0.2273 0.225094 0.22482 0.223544 0.223234 0.221924 0.221004 0.2188 0.218946 0.217998 0.217773 0.217552 0.216527 0.216507 0.216302 0.215436 0.216049 0.215763 0.216288 0.215062 0.216212 0.215375 0.214212 0.213338 0.212611 0.212597 0.211217 0.211401 0.210832 0.211164 0.210745 0.210094 0.210483 0.211205 0.211177 0.211105 0.211741 0.21097 0.210155 0.20751 0.197117 0.168458 0.140849 0.0 0.0 0.0 0.0 0.0 0.0 0.0 0.0 0.0 0.0 0.0 0.0 0.0 0.0 0.0 0.115478 0.110413 0.109614 0.0 0.0 0.0 0.0 0.0 0.0 0.0 0.107113 0.107122 0.10671 0.106628 0.107392 0.110408 0.0 0.0 0.0 0.0 0.0 0.0 0.0 0.0 0.0 0.0 0.0 0.0 0.0 0.0 0.0 0.0 0.0 0.0 0.0 0.0 0.0 0.0 0.0 0.0 0.0 0.190376 0.24334 0.246365 0.247645 0.249832 0.25179 0.254942 0.25834 0.261035 0.264405 0.26831 0.273321 0.276057 0.279424 0.283995 0.289871 0.293372 0.297364 0.302664 0.307213 0.311345 0.316742 0.322782 0.32865 0.332175 0.339335 0.345165 0.350727 0.35626 0.363512 0.372827 0.377413 0.383672 0.389567 0.392169 0.394934 0.39791 0.398945 0.399649 0.404292 0.404777 0.409262 0.409822 0.410344 0.415031 0.416075 0.418072 0.418494 0.41524 0.421359
0.245034 0.242733 0.241607 0.241262 0.238702 0.238083 0.237712 0.236817 0.23329 0.232751 0.232505 0.231165 0.22993 0.230372 0.229105 0.226657 0.225883 0.224926 0.224877 0.223887 0.224181 0.223016 0.221718 0.222358 0.221592 0.221912 0.219329 0.219146 0.217564 0.21599 0.214378 0.214221 0.213416 0.212385 0.210987 0.21076 0.210584 0.211714 0.210665 0.210411 0.210672 0.208112 0.207966 0.207732 0.207964 0.207508 0.207703 0.207347 0.207826 0.207065 0.206861 0.206982 0.206602 0.2048 0.204704 0.204933 0.205579 0.204391 0.205135 0.204139 0.204751 0.204495 0.202365 0.199323 0.185071 0.144609 0.0 0.0 0.0 0.0 0.0 0.0 0.0 0.0 0.0 0.0 0.0 0.0 0.0 0.0 0.0 0.0 0.0 0.105482 0.105522 0.105107 0.105332 0.105878 0.0 0.0 0.0 0.0 0.0 0.0 0.0 0.102073 0.104774 0.10451 0.106211 0.107684 0.108475 0.0 0.0 0.109896 0.103977 0.103495 0.104933 0.0 0.0 0.0 0.0 0.0 0.0 0.0 0.0 0.0 0.0 0.0 0.0 0.0 0.0 0.0 0.0 0.0 0.0 0.0 0.124066 0.235093 0.240017 0.240847 0.24482 0.246587 0.24813 0.252684 0.257111 0.260114 0.263498 0.266567 0.270621 0.27427 0.27635 0.282485 0.286776 0.289543 0.294419 0.299358 0.305668 0.310501 0.313712 0.320216 0.325945 0.332632 0.336098 0.340803 0.346516 0.358194 0.363958 0.36634 0.370014 0.377356 0.379885 0.380243 0.382086 0.38523 0.387293 0.389992 0.390841 0.394193 0.39454 0.39927 0.399739 0.400843 0.402587 0.404635 0.400931 0.404259
0.235869 0.234296 0.233722 0.231978 0.231701 0.230021 0.229476 0.226926 0.226582 0.225639 0.2234 0.223404 0.223458 0.22134 0.220481 0.220093 0.219988 0.218965 0.216431 0.216117 0.215899 0.214449 0.215436 0.215465 0.213989 0.212248 0.2112 0.20902 0.208808 0.206962 0.206807 0.205159 0.204335 0.204468 0.204154 0.20398 0.20476 0.20333 0.20448 0.202746 0.201559 0.201415 0.201184 0.200104 0.200782 0.199756 0.199499 0.200277 0.200252 0.20014 0.200078 0.199213 0.199516 0.199106 0.199103 0.19955 0.199866 0.198578 0.198455 0.19713 0.193313 0.173546 0.143371 0.0 0.0 0.0 0.0 0.0 0.0 0.0 0.0 0.0 0.0 0.0 0.0 0.0 0.0 0.0 0.0 0.0 0.0 0.0 0.0 0.10176 0.102066 0.102417 0.102636 0.103699 0.0 0.0 0.0 0.0 0.0 0.0 0.0 0.101462 0.106087 0.0 0.0 0.0 0.0 0.0 0.100881 0.100587 0.100872 0.100669 0.101979 0.103913 0.0 0.0 0.0 0.0 0.0 0.0 0.0 0.0 0.0 0.0 0.0 0.0 0.0 0.0 0.0 0.0 0.0 0.0 0.0 0.226909 0.234161 0.237076 0.238068 0.240324 0.242812 0.246388 0.248038 0.253342 0.256407 0.259256 0.263242 0.26688 0.27098 0.274415 0.27922 0.283586 0.288692 0.291045 0.297362 0.301742 0.30723 0.311552 0.317076 0.323304 0.327267 0.333398 0.33978 0.346918 0.352336 0.356489 0.359508 0.363697 0.366935 0.368758 0.369714 0.370543 0.37491 0.375114 0.377887 0.380444 0.381663 0.383688 0.383527 0.385484 0.389286 0.391978 0.390305 0.393306
0.227498 0.226018 0.225601 0.224 0.223687 0.223334 0.220802 0.218691 0.216955 0.216814 0.216406 0.214966 0.214977 0.213418 0.213036 0.213155 0.210632 0.210092 0.210005 0.209477 0.209624 0.208394 0.208285 0.205335 0.203773 0.202753 0.20165 0.2006 0.20044 0.199314 0.198282 0.198625 0.198796 0.199015 0.198137 0.197882 0.198114 0.196595 0.196178 0.195679 0.195579 0.194827 0.193949 0.194431 0.193038 0.193091 0.192886 0.192815 0.193446 0.192773 0.192801 0.192528 0.192736 0.192905 0.193511 0.191775 0.19165 0.184804 0.16925 0.136242 0.0 0.0 0.0 0.0 0.0 0.0 0.0 0.0 0.0 0.0 0.0 0.0 0.0 0.0 0.0 0.0 0.0 0.0 0.0 0.0 0.0 0.0 0.0 0.0987372 0.0997673 0.0994182 0.099286 0.0996292 0.102863 0.0 0.0 0.0 0.0 0.0 0.0 0.0 0.0 0.0 0.0 0.0 0.0 0.0 0.0978377 0.0980267 0.0976555 0.0981061 0.0983854 0.098277 0.0 0.0 0.0 0.0 0.0 0.0 0.0 0.0 0.0 0.0 0.0 0.0 0.0 0.0 0.0 0.0 0.0 0.0 0.0 0.190183 0.225792 0.231195 0.233118 0.234176 0.235895 0.240417 0.242939 0.245994 0.249715 0.252921 0.255743 0.261075 0.263348 0.269058 0.271485 0.277444 0.280644 0.28562 0.288978 0.293499 0.298698 0.304801 0.308707 0.314004 0.319276 0.324789 0.332058 0.338015 0.343771 0.348298 0.34837 0.351766 0.354281 0.353443 0.356839 0.359936 0.360976 0.36424 0.364763 0.365431 0.366926 0.370568 0.373182 0.374081 0.375219 0.375956 0.374917 0.380027
0.217186 0.217671 0.216557 0.215007 0.21586 0.214325 0.213064 0.21234 0.210522 0.210078 0.207707 0.207891 0.206372 0.205911 0.204757 0.204658 0.20378 0.204127 0.203696 0.20314 0.201334 0.200619 0.196625 0.195019 0.194156 0.194592 0.194214 0.192895 0.192099 0.194013 0.192454 0.193002 0.192698 0.192569 0.192317 0.190661 0.191017 0.190524 0.189567 0.188786 0.188521 0.187792 0.187238 0.187029 0.186484 0.185647 0.186382 0.185299 0.187182 0.187418 0.187488 0.18697 0.184387 0.121164 0.175188 0.151456 0.126652 0.0 0.0 0.0 0.0 0.0 0.0 0.0 0.0 0.0 0.0 0.0 0.0 0.0 0.0 0.0 0.0 0.101708 0.0977912 0.0977762 0.101158 0.0 0.0 0.0 0.0 0.0 0.0 0.0926694 0.0966863 0.0968081 0.0968891 0.0976414 0.0987717 0.0 0.0 0.0 0.0 0.0996645 0.0972824 0.0 0.0 0.0 0.0 0.0 0.0 0.0 0.0927142 0.0952458 0.0953465 0.0943576 0.0951739 0.09574 0.0 0.0 0.0 0.0 0.0 0.0 0.0 0.0 0.0 0.0 0.0 0.0 0.0 0.0 0.0 0.0 0.0 0.0 0.0 0.125369 0.220922 0.223967 0.226808 0.228894 0.231453 0.232748 0.235704 0.240709 0.244281 0.247394 0.250262 0.253566 0.257904 0.261443 0.265422 0.269285 0.272604 0.27735 0.280609 0.284783 0.290303 0.296185 0.301741 0.304688 0.310064 0.320814 0.323511 0.327391 0.332154 0.335635 0.338047 0.339907 0.340082 0.341965 0.343775 0.346253 0.347432 0.348009 0.352196 0.352094 0.354641 0.357116 0.357485 0.360783 0.362326 0.36397 0.363359 0.363332
0.210311 0.208535 0.208106 0.207381 0.205932 0.205049 0.204559 0.204247 0.203939 0.201205 0.201082 0.198879 0.198089 0.198833 0.197504 0.196564 0.196391 0.196308 0.195977 0.194683 0.191547 0.189683 0.18917 0.189166 0.187952 0.187707 0.187175 0.186899 0.18817 0.186861 0.186891 0.187008 0.18609 0.185926 0.185724 0.183581 0.183679 0.18341 0.183682 0.182347 0.182463 0.181468 0.181921 0.180483 0.179874 0.179022 0.179859 0.179796 0.180105 0.180295 0.180159 0.174535 0.16265 0.0 0.0 0.0 0.0 0.0 0.0 0.0 0.0 0.0 0.0 0.0 0.0 0.0 0.0 0.0 0.0 0.0 0.0 0.0912817 0.0947653 0.0948299 0.0944481 0.0956949 0.0968612 0.0 0.0 0.0 0.0 0.0 0.0 0.0 0.0960198 0.0959754 0.0969482 0.0 0.0 0.0 0.0929236 0.0932512 0.0931327 0.0928526 0.0933865 0.0954667 0.0 0.0 0.0 0.0 0.0 0.0 0.0 0.0924662 0.0923195 0.0923367 0.0934953 0.095796 0.0 0.0 0.0 0.0 0.0 0.0 0.0 0.0 0.0 0.0 0.0 0.0 0.0 0.0 0.0 0.0 0.0 0.0 0.0 0.0 0.21428 0.218425 0.221921 0.222054 0.224536 0.226738 0.229112 0.234462 0.236359 0.23942 0.242696 0.246025 0.250274 0.253541 0.257607 0.261354 0.264657 0.269385 0.274293 0.281092 0.284658 0.287363 0.292795 0.295443 0.305931 0.309871 0.312988 0.317464 0.32078 0.323986 0.324342 0.327913 0.328248 0.329395 0.332375 0.33168 0.334729 0.336603 0.337382 0.339068 0.342731 0.342347 0.344456 0.347307 0.346908 0.347204 0.347938 0.350582
0.201038 0.202003 0.198995 0.198631 0.199022 0.196587 0.19624 0.195692 0.194155 0.194447 0.193255 0.191906 0.191348 0.191413 0.190702 0.190489 0.190405 0.189057 0.186164 0.185201 0.18347 0.183213 0.182636 0.181293 0.181459 0.181669 0.181397 0.18105 0.180586 0.18049 0.179351 0.179305 0.178338 0.178181 0.177265 0.177278 0.176974 0.176875 0.176339 0.176368 0.175761 0.175039 0.174281 0.174406 0.174813 0.173549 0.17245 0.166695 0.166881 0.154022 0.126549 0.0 0.0 0.0 0.0 0.0 0.0 0.0 0.0 0.0 0.0 0.0 0.0 0.0 0.0 0.0 0.0 0.0 0.0 0.0 0.0 0.0 0.0924295 0.0918609 0.0925166 0.0924632 0.0920954 0.0 0.0 0.0 0.0 0.0 0.0 0.0 0.0 0.0 0.0 0.0 0.0 0.0 0.08761 0.0900558 0.0901379 0.0896297 0.0907386 0.0913362 0.0 0.0 0.0 0.0 0.0 0.0 0.0 0.0910292 0.0916763 0.0 0.0 0.0 0.0 0.0 0.0 0.0 0.0 0.0 0.0 0.0 0.0 0.0 0.0 0.0 0.0 0.0 0.0 0.0 0.0 0.0 0.0 0.0 0.192292 0.212228 0.215138 0.216661 0.218429 0.221481 0.224222 0.22801 0.231289 0.232975 0.23535 0.239177 0.242614 0.247145 0.24964 0.253352 0.256713 0.262745 0.266576 0.271269 0.275936 0.278718 0.28378 0.29133 0.297119 0.299922 0.304284 0.307442 0.309799 0.312088 0.312552 0.314129 0.315184 0.317973 0.318805 0.319401 0.321899 0.322392 0.326362 0.327042 0.328022 0.3298 0.331466 0.332021 0.33296 0.335703 0.333863 0.339142
0.193012 0.19188 0.19108 0.190568 0.190305 0.189401 0.188182 0.187975 0.185687 0.186615 0.185944 0.185119 0.183304 0.184724 0.182844 0.182919 0.18165 0.180111 0.177986 0.176859 0.176687 0.176006 0.175726 0.175529 0.176161 0.175384 0.175201 0.174082 0.174221 0.172684 0.172754 0.171971 0.171777 0.171004 0.171442 0.170794 0.170423 0.169591 0.169773 0.168562 0.169293 0.168905 0.168752 0.168256 0.167338 0.16488 0.155675 0.0 0.0 0.0 0.0 0.0 0.0 0.0 0.0 0.0 0.0 0.0 0.0 0.0 0.0 0.0 0.0 0.0 0.0945939 0.0 0.0 0.0 0.0 0.0 0.0 0.0 0.0891068 0.0889385 0.088886 0.0894458 0.0892808 0.0 0.0 0.0 0.0 0.0 0.0 0.0921627 0.0 0.0 0.0 0.0 0.0 0.0 0.0 0.0874586 0.0874617 0.0872367 0.0878908 0.0880877 0.0 0.0 0.0 0.0 0.0 0.0 0.0 0.0 0.0 0.0 0.0 0.0 0.0 0.0 0.0 0.0 0.0 0.0 0.0 0.0 0.0 0.0 0.0 0.0 0.0 0.0 0.0 0.0 0.0 0.0 0.0 0.0 0.138138 0.205393 0.208443 0.210727 0.212324 0.215009 0.217701 0.221408 0.22466 0.22606 0.229834 0.23191 0.235276 0.239664 0.243403 0.2454 0.250448 0.256251 0.258244 0.263686 0.267032 0.270548 0.276743 0.283663 0.287227 0.29112 0.292902 0.297849 0.298394 0.300489 0.300619 0.302617 0.302962 0.304785 0.305825 0.30779 0.309967 0.312038 0.312523 0.312535 0.315202 0.319048 0.318689 0.321116 0.321701 0.322294 0.322774 0.327277
0.186599 0.18472 0.183868 0.183376 0.182146 0.18147 0.180606 0.179825 0.179439 0.178283 0.177909 0.177694 0.177214 0.176508 0.176308 0.174576 0.172201 0.170908 0.17058 0.170449 0.170245 0.170122 0.169471 0.1697 0.16902 0.169334 0.168171 0.167962 0.167228 0.167028 0.16551 0.16566 0.164154 0.164049 0.163835 0.163286 0.163418 0.163253 0.16313 0.163535 0.163344 0.164018 0.16271 0.16036 0.125681 0.0 0.0 0.0 0.0 0.0 0.0 0.0 0.0 0.0 0.0 0.0 0.0 0.0 0.0 0.0 0.0 0.0919087 0.0881348 0.0877747 0.0881942 0.0907263 0.0 0.0 0.0 0.0 0.0 0.0 0.084816 0.0860219 0.0860452 0.0865871 0.0884606 0.0 0.0 0.0900935 0.086538 0.0854965 0.0856014 0.0866307 0.0 0.0 0.0 0.0 0.0 0.0 0.0 0.0845541 0.0845941 0.0841916 0.0846398 0.0853105 0.0 0.0 0.0 0.0 0.0 0.0872131 0.0858947 0.0 0.0 0.0 0.0 0.0 0.0 0.0 0.0 0.0 0.0 0.0 0.0 0.0 0.0 0.0 0.0 0.0 0.0 0.0 0.0 0.0 0.0 0.0 0.0 0.0 0.0925967 0.198167 0.201751 0.2037 0.205393 0.2087 0.209995 0.214029 0.217324 0.219053 0.222178 0.225763 0.228945 0.231798 0.235113 0.23923 0.243359 0.246105 0.25177 0.255259 0.25789 0.261933 0.269671 0.273368 0.277269 0.279169 0.284622 0.284527 0.285698 0.287797 0.288721 0.290345 0.292056 0.292741 0.294589 0.295486 0.297049 0.300206 0.300517 0.3013 0.30411 0.304993 0.305729 0.307877 0.307541 0.308343 0.308019 0.311739
0.17842 0.177138 0.176734 0.175428 0.17496 0.173857 0.173513 0.172911 0.172577 0.172585 0.170615 0.169924 0.169426 0.169045 0.167664 0.165698 0.163963 0.164162 0.164032 0.163906 0.163527 0.163226 0.163113 0.162527 0.162791 0.161884 0.161789 0.16016 0.160368 0.159848 0.158968 0.158786 0.158645 0.158034 0.157136 0.15708 0.157718 0.156942 0.157659 0.157036 0.156853 0.152148 0.131571 0.106324 0.0 0.0 0.0 0.0 0.0 0.0 0.0 0.0 0.0 0.0 0.0 0.0 0.0 0.0 0.0 0.0 0.0 0.0849624 0.0842549 0.0848747 0.0853878 0.0859377 0.0 0.0 0.0 0.0 0.0 0.0 0.0 0.0860064 0.0 0.0 0.0 0.0 0.0 0.0830824 0.0828606 0.082854 0.0821698 0.0832006 0.0 0.0 0.0 0.0 0.0 0.0 0.0 0.0810864 0.0819462 0.0831997 0.0 0.0 0.0 0.0 0.0829461 0.081026 0.0813931 0.0814039 0.0823805 0.0 0.0 0.0 0.0 0.0 0.0 0.0 0.0 0.0 0.0 0.0 0.0 0.0 0.0 0.0 0.0 0.0 0.0 0.0 0.0 0.0 0.0 0.0 0.0 0.0 0.0 0.184821 0.195172 0.198354 0.200171 0.200331 0.205162 0.206963 0.210291 0.213158 0.215742 0.219606 0.221374 0.225512 0.22908 0.232258 0.236394 0.23985 0.243209 0.246762 0.249815 0.256432 0.262812 0.264699 0.265346 0.27023 0.271855 0.27397 0.273809 0.275759 0.277166 0.278472 0.28053 0.281189 0.282935 0.284283 0.285753 0.287271 0.287305 0.288057 0.291104 0.291765 0.294426 0.294165 0.295305 0.296341 0.29769 0.297912
0.171446 0.170759 0.16931 0.168818 0.16742 0.166903 0.166101 0.16632 0.165311 0.164779 0.164324 0.163947 0.163035 0.161589 0.159506 0.157683 0.158303 0.157459 0.158085 0.157144 0.156922 0.15674 0.156491 0.156494 0.155332 0.156017 0.155042 0.154285 0.154098 0.153279 0.153242 0.152433 0.151454 0.151183 0.150845 0.150582 0.150427 0.149751 0.148098 0.133118 0.105363 0.0 0.0 0.0 0.0 0.0 0.0 0.0 0.0 0.0 0.0 0.0 0.0 0.0 0.0 0.0 0.0 0.0 0.0 0.0 0.0 0.0818866 0.0819305 0.0812837 0.0815029 0.082691 0.0 0.0 0.0 0.0 0.0 0.0 0.0 0.0 0.0 0.0 0.0 0.0 0.0 0.0799371 0.0804473 0.0799237 0.0797804 0.0798792 0.0 0.0 0.0 0.0 0.0 0.0 0.0 0.0 0.0 0.0 0.0 0.0 0.0 0.0 0.078426 0.078607 0.0785819 0.0784196 0.0788103 0.0 0.0 0.0 0.0 0.0 0.0 0.0 0.0 0.0 0.0 0.0 0.0 0.0 0.0 0.0 0.0 0.0 0.0 0.0 0.0 0.0 0.0 0.0 0.0 0.0 0.0 0.135288 0.18838 0.191625 0.19446 0.195068 0.198125 0.20126 0.20311 0.206086 0.208581 0.21238 0.215068 0.216396 0.221594 0.224486 0.229076 0.232483 0.234737 0.237778 0.24528 0.250574 0.252489 0.25537 0.258299 0.258791 0.261565 0.261576 0.263766 0.263793 0.26579 0.267441 0.268996 0.269378 0.269983 0.272608 0.272549 0.275126 0.276995 0.277647 0.277946 0.28126 0.280162 0.282048 0.282926 0.285783 0.282847 0.287333
0.164608 0.162289 0.162058 0.161481 0.161364 0.15978 0.159393 0.158313 0.159019 0.157809 0.15786 0.155864 0.154294 0.152628 0.15187 0.15212 0.151958 0.15125 0.151889 0.150742 0.150323 0.149566 0.14974 0.149403 0.148455 0.148367 0.148145 0.148065 0.147239 0.145805 0.145772 0.145538 0.145342 0.145319 0.144926 0.143387 0.134888 0.0 0.0 0.0 0.0 0.0 0.0 0.0 0.0 0.0 0.0 0.0 0.0 0.0 0.0 0.0 0.0 0.0 0.0 0.0 0.0 0.0 0.0 0.0 0.0 0.0770886 0.0783994 0.0784765 0.0784546 0.0801338 0.0811801 0.0 0.0 0.0 0.0816081 0.0785301 0.0 0.0 0.0 0.0 0.0 0.0 0.0 0.0757171 0.0769739 0.0773669 0.0765638 0.0774238 0.0790823 0.0 0.0 0.0 0.0 0.0 0.0 0.0 0.0 0.0 0.0 0.0 0.0 0.0 0.0748251 0.0754983 0.0759729 0.075517 0.0759268 0.0777686 0.0 0.0 0.0 0.0 0.0 0.0 0.0 0.0 0.0 0.0 0.0 0.0 0.0 0.0 0.0 0.0 0.0 0.0 0.0 0.0 0.0 0.0 0.0 0.0 0.0 0.0877447 0.161816 0.176225 0.186047 0.188146 0.190958 0.1927 0.195897 0.198969 0.201745 0.204394 0.207322 0.210834 0.214255 0.217992 0.221231 0.224107 0.226178 0.232272 0.236476 0.240251 0.242299 0.244972 0.246905 0.249395 0.250526 0.250878 0.251888 0.252289 0.255002 0.255041 0.257812 0.258454 0.258412 0.260559 0.262024 0.262561 0.265193 0.26561 0.265894 0.268596 0.268443 0.270679 0.271804 0.272025 0.271125 0.272344
0.157013 0.15587 0.154631 0.154315 0.153461 0.152715 0.152513 0.152282 0.151652 0.15049 0.148967 0.148188 0.146546 0.146012 0.145817 0.144894 0.145538 0.145256 0.145077 0.144239 0.144036 0.143903 0.14374 0.142626 0.142703 0.142027 0.141158 0.141148 0.140552 0.139828 0.139961 0.138821 0.138601 0.138352 0.137585 0.137441 0.0 0.0 0.0 0.0 0.0 0.0 0.0 0.0 0.0 0.0 0.0 0.0 0.0 0.0 0.0 0.0 0.0 0.0 0.0 0.0 0.0 0.0 0.0 0.0 0.0 0.0727855 0.0764256 0.0775918 0.0776025 0.0 0.0 0.0758761 0.075827 0.074881 0.0756677 0.0755253 0.0760569 0.0 0.0 0.0 0.0 0.0 0.0 0.0 0.0739958 0.0746304 0.0750736 0.0755816 0.0 0.0 0.0 0.0764045 0.0738433 0.0740357 0.0739727 0.0 0.0 0.0 0.0 0.0 0.0 0.0 0.0709016 0.0727987 0.0728713 0.0727525 0.0726985 0.0737348 0.0 0.0 0.0 0.0 0.0 0.0777654 0.0 0.0 0.0 0.0 0.0 0.0 0.0 0.0 0.0 0.0 0.0 0.0 0.0 0.0 0.0 0.0 0.0 0.0 0.0 0.0 0.132204 0.1371 0.143268 0.157869 0.174889 0.185545 0.189987 0.192197 0.194187 0.19781 0.199621 0.204142 0.206751 0.210022 0.212814 0.217216 0.219734 0.227862 0.228012 0.231876 0.23214 0.23504 0.237788 0.238669 0.239855 0.241181 0.24093 0.242934 0.243558 0.244355 0.245094 0.245773 0.247627 0.249891 0.2512 0.251615 0.252539 0.253674 0.254112 0.256306 0.257401 0.258809 0.259112 0.259997 0.260381 0.262199
0.149148 0.14877 0.146995 0.146628 0.147078 0.145875 0.145618 0.146077 0.144535 0.143195 0.141185 0.140922 0.139795 0.140086 0.13897 0.1393 0.139792 0.138372 0.138808 0.137559 0.13692 0.136667 0.137306 0.136141 0.135457 0.135821 0.13464 0.135105 0.133902 0.134405 0.133054 0.133155 0.13285 0.132988 0.131279 0.131299 0.100612 0.0 0.0 0.0 0.0 0.0 0.0 0.0 0.0 0.0 0.0 0.0 0.0 0.0 0.0 0.0 0.0 0.0 0.0 0.0 0.0 0.0 0.0 0.0 0.0 0.0 0.0 0.0 0.0 0.0 0.0 0.0703375 0.0723884 0.0719723 0.0714957 0.0726538 0.072672 0.0 0.0 0.0 0.0 0.0 0.0 0.0 0.0729081 0.0 0.0 0.0 0.0 0.0 0.0701465 0.0701454 0.0710683 0.0711302 0.0709465 0.073903 0.0 0.0 0.0 0.0 0.0 0.0 0.0 0.0698787 0.0698867 0.0714974 0.0 0.0 0.0 0.0 0.0717088 0.0695334 0.0694553 0.0701492 0.0717391 0.0 0.0 0.0 0.0 0.0 0.0 0.0 0.0 0.0 0.0 0.0 0.0 0.0 0.0 0.0 0.0 0.0 0.0 0.0 0.119216 0.127124 0.126109 0.127244 0.13016 0.138509 0.158482 0.178016 0.1868 0.190314 0.193556 0.19615 0.198971 0.20221 0.204673 0.206957 0.214691 0.217502 0.220921 0.221829 0.223818 0.225184 0.226526 0.228131 0.229046 0.229303 0.231028 0.231363 0.233775 0.233775 0.234003 0.235742 0.236561 0.237774 0.237679 0.239551 0.240726 0.242522 0.243813 0.244595 0.245613 0.246833 0.24764 0.248065 0.248269 0.249718
0.142063 0.141703 0.140971 0.140494 0.139928 0.139679 0.139091 0.138601 0.136256 0.134292 0.134161 0.133972 0.133818 0.134036 0.133827 0.13313 0.132469 0.132273 0.131927 0.131433 0.130912 0.131189 0.130585 0.130442 0.129725 0.129165 0.128912 0.128632 0.128477 0.127661 0.127151 0.127641 0.127077 0.125946 0.12536 0.1252 0.115577 0.0 0.0 0.0 0.0 0.0 0.0 0.0 0.0 0.0 0.0 0.0 0.0 0.0 0.0 0.0 0.0 0.0 0.0 0.0 0.0 0.0 0.0 0.0 0.0 0.0 0.0 0.0 0.0 0.0 0.0 0.0 0.0690237 0.0692462 0.0694399 0.0691608 0.0697999 0.0 0.0 0.0 0.0 0.0 0.0 0.0 0.0 0.0 0.0 0.0 0.0 0.0 0.0666964 0.0681729 0.0679952 0.0682614 0.0684397 0.068855 0.0 0.0 0.0 0.0 0.0 0.0 0.0 0.0 0.0 0.0 0.0 0.0 0.0 0.0654297 0.0667735 0.0669048 0.067333 0.0670515 0.0673927 0.0 0.0 0.0 0.0 0.0 0.0 0.0 0.0 0.0 0.0 0.0 0.0 0.0 0.0 0.0 0.0 0.0 0.0 0.0 0.0954034 0.120964 0.120586 0.119821 0.119417 0.119374 0.12113 0.125201 0.13879 0.161019 0.178657 0.188357 0.191185 0.194082 0.196416 0.200629 0.206183 0.20882 0.211345 0.214002 0.214183 0.214917 0.216628 0.216738 0.217796 0.21807 0.220089 0.221141 0.222292 0.22235 0.222934 0.224354 0.225138 0.227253 0.227684 0.228986 0.229586 0.2301 0.232698 0.232982 0.234359 0.235154 0.235396 0.235862 0.235803 0.238162
0.13538 0.133984 0.134006 0.133491 0.133399 0.132385 0.131288 0.130436 0.128905 0.128598 0.128592 0.127937 0.127761 0.127381 0.127506 0.127076 0.126326 0.126197 0.12616 0.126067 0.124458 0.124403 0.124701 0.124215 0.123792 0.123023 0.122898 0.122109 0.12202 0.121905 0.121157 0.121078 0.120338 0.120178 0.119215 0.119091 0.118624 0.0 0.0 0.0 0.0 0.0 0.0 0.0 0.0 0.0 0.0 0.0 0.0 0.0 0.0 0.0 0.0 0.0 0.0 0.0 0.0 0.0 0.0 0.0 0.0 0.0 0.0 0.0 0.0 0.0 0.0 0.0 0.0647926 0.0667372 0.066242 0.0663151 0.0674665 0.0 0.0 0.0 0.0 0.0696025 0.0667332 0.0675202 0.0 0.0 0.0 0.0 0.0 0.0 0.0635291 0.0645761 0.0650855 0.0653123 0.0651433 0.0655413 0.0 0.0 0.0 0.0 0.0 0.0 0.0 0.0 0.0 0.0 0.0 0.0 0.0 0.0 0.063885 0.0639539 0.0640521 0.0644916 0.0645347 0.0 0.0 0.0 0.0 0.0 0.0 0.0 0.0 0.0 0.0 0.0 0.0 0.0 0.0 0.0 0.0 0.0 0.0 0.0 0.0742962 0.114641 0.114392 0.114661 0.113757 0.114346 0.11399 0.114556 0.114838 0.116561 0.122148 0.137659 0.16084 0.180743 0.189127 0.193136 0.197503 0.199421 0.20042 0.202672 0.203686 0.205898 0.205879 0.207234 0.208509 0.208713 0.209857 0.21136 0.211818 0.21278 0.212928 0.215082 0.2138 0.215853 0.217414 0.216856 0.217961 0.219547 0.219184 0.221383 0.22264 0.22319 0.223716 0.225985 0.22464 0.226717
0.128625 0.128039 0.127343 0.127654 0.126795 0.125084 0.123695 0.122456 0.122075 0.122153 0.122233 0.121467 0.121328 0.121107 0.12106 0.120283 0.120214 0.118745 0.119189 0.118654 0.118376 0.118101 0.117997 0.117172 0.117187 0.117037 0.116335 0.116248 0.116081 0.116055 0.11534 0.11521 0.114337 0.114075 0.113596 0.112844 0.112813 0.0 0.0 0.0 0.0 0.0 0.0 0.0 0.0 0.0 0.0 0.0 0.0 0.0 0.0 0.0 0.0 0.0 0.0 0.0 0.0 0.0 0.0 0.0 0.0 0.0 0.0 0.0 0.0 0.0 0.0 0.0 0.0612521 0.0640898 0.0655974 0.0 0.0 0.0 0.0630051 0.0631322 0.0631243 0.06309 0.0638425 0.064487 0.0 0.0 0.0 0.0 0.0 0.0 0.0 0.0623211 0.0625917 0.0628358 0.0629721 0.0643555 0.0 0.0 0.0 0.0646657 0.0630712 0.0620463 0.0631635 0.0 0.0 0.0 0.0 0.0 0.0 0.0 0.0612256 0.0612915 0.0613038 0.0613712 0.0621999 0.0647413 0.0 0.0 0.0 0.0 0.0 0.0 0.0 0.0 0.0 0.0 0.0 0.0 0.0 0.0 0.0 0.0 0.0 0.0 0.0 0.107941 0.109538 0.108698 0.108408 0.108559 0.108576 0.108457 0.108643 0.108776 0.109545 0.109657 0.111592 0.118088 0.130787 0.156233 0.179429 0.190536 0.191989 0.194144 0.194752 0.194837 0.195344 0.197196 0.197298 0.197154 0.199168 0.199652 0.200646 0.201031 0.202236 0.204097 0.204699 0.20497 0.205416 0.206972 0.207998 0.208153 0.209109 0.209931 0.210532 0.211368 0.210896 0.213405 0.213202 0.214928
0.122342 0.121838 0.12101 0.120296 0.119588 0.117249 0.117042 0.115969 0.116747 0.116334 0.115951 0.11541 0.115521 0.114907 0.115212 0.114096 0.113924 0.113729 0.113189 0.112974 0.112789 0.111967 0.111922 0.111135 0.11123 0.111062 0.110525 0.110019 0.109914 0.109573 0.109341 0.10906 0.108597 0.107583 0.108049 0.107701 0.107197 0.0893523 0.0 0.0 0.0 0.0 0.0 0.0 0.0 0.0 0.0 0.0 0.0 0.0 0.0 0.0 0.0 0.0 0.0 0.0 0.0 0.0 0.0 0.0 0.0 0.0 0.0 0.0 0.0 0.0 0.0 0.0 0.0 0.0 0.0 0.0 0.0 0.0 0.0 0.0601978 0.0607599 0.0603129 0.0603067 0.060974 0.0 0.0 0.0 0.0 0.0 0.0 0.0 0.0602517 0.0621917 0.0 0.0 0.0 0.0 0.0570241 0.0589676 0.059023 0.0586132 0.0591355 0.0595291 0.0 0.0 0.0 0.0 0.0 0.0 0.0 0.0578588 0.058673 0.0585292 0.0588786 0.0599031 0.0617848 0.0 0.0 0.0 0.0 0.0 0.0 0.0 0.0 0.0 0.0 0.0 0.0 0.0 0.0 0.0 0.0 0.0 0.0 0.0 0.0934559 0.103632 0.103458 0.102814 0.102905 0.102946 0.103409 0.103008 0.103555 0.10371 0.103658 0.104002 0.104139 0.104806 0.106269 0.112361 0.130871 0.160485 0.179638 0.184455 0.185331 0.186213 0.186489 0.186958 0.187645 0.188578 0.190027 0.190466 0.190858 0.191819 0.192949 0.193198 0.193642 0.19482 0.196086 0.196279 0.197507 0.198987 0.199525 0.199553 0.201602 0.201669 0.202725 0.201381 0.203874
0.116159 0.115314 0.114527 0.113042 0.111381 0.110793 0.110546 0.109991 0.110139 0.110005 0.109719 0.109668 0.109106 0.108934 0.108764 0.108214 0.107974 0.107942 0.10697 0.106766 0.106566 0.105886 0.105312 0.105502 0.105036 0.105029 0.104544 0.10424 0.104115 0.104018 0.103018 0.10338 0.103115 0.102778 0.102243 0.101511 0.101158 0.0983548 0.0 0.0 0.0 0.0 0.0 0.0 0.0 0.0 0.0 0.0 0.0 0.0 0.0 0.0 0.0 0.0 0.0 0.0 0.0 0.0 0.0 0.0 0.0 0.0 0.0 0.0 0.0 0.0 0.0 0.0613032 0.0 0.0 0.0 0.0 0.0 0.0 0.0 0.0576426 0.0573889 0.0575304 0.0574506 0.0580863 0.0 0.0 0.0 0.0 0.0 0.0 0.0 0.0 0.0 0.0 0.0 0.0 0.0 0.0 0.0561998 0.0563018 0.0563797 0.0563595 0.0565865 0.0 0.0 0.0 0.0 0.0 0.0 0.0 0.0567965 0.0588315 0.0 0.0 0.0 0.0 0.0 0.0 0.0 0.0 0.0 0.0 0.0 0.0 0.0 0.0 0.0 0.0 0.0 0.0 0.0 0.0 0.0 0.0 0.0 0.071443 0.0986917 0.0985253 0.0979366 0.097449 0.0973124 0.0974776 0.0979702 0.0976898 0.0982627 0.0978359 0.0984643 0.0988197 0.0991277 0.098835 0.0992992 0.0994895 0.103137 0.115931 0.142295 0.164491 0.17418 0.177658 0.178763 0.17929 0.17812 0.179803 0.179889 0.180897 0.181275 0.181811 0.183634 0.184491 0.184508 0.185095 0.186513 0.187062 0.187979 0.188541 0.188772 0.19041 0.190601 0.190824 0.191312 0.191805
0.109174 0.108026 0.10681 0.105204 0.105038 0.104924 0.104912 0.104779 0.104649 0.104178 0.103981 0.103298 0.103546 0.103017 0.102735 0.101897 0.101865 0.101084 0.10072 0.100382 0.100242 0.099911 0.100283 0.0994518 0.0991786 0.0989324 0.0982569 0.0986167 0.0980675 0.0980005 0.0977207 0.0975394 0.0970502 0.0968742 0.0967723 0.096363 0.0954091 0.0949581 0.0 0.0 0.0 0.0 0.0 0.0 0.0 0.0 0.0 0.0 0.0 0.0 0.0 0.0 0.0 0.0 0.0 0.0 0.0 0.0 0.0 0.0 0.0 0.0 0.0 0.0 0.0571937 0.0572031 0.0551941 0.0552992 0.0570945 0.0 0.0 0.0 0.0 0.0 0.0 0.0529034 0.0545844 0.054672 0.0548774 0.0547553 0.0556176 0.0 0.0 0.0 0.0 0.0552049 0.0545477 0.0 0.0 0.0 0.0 0.0 0.0 0.0 0.0536185 0.053528 0.0533912 0.0534657 0.0534236 0.0 0.0 0.0 0.0 0.0 0.0 0.0 0.0 0.0 0.0 0.0 0.0 0.0 0.0 0.0 0.0 0.0 0.0 0.0 0.0 0.0 0.0 0.0 0.0 0.0 0.0 0.0 0.0 0.0 0.0 0.0 0.0 0.0 0.0925269 0.0930311 0.0925895 0.0922679 0.0916867 0.0924129 0.0921438 0.0924471 0.0925387 0.0929421 0.0926807 0.0930652 0.0928555 0.0935557 0.0936374 0.0937933 0.0938319 0.0939448 0.0951166 0.101339 0.11797 0.143692 0.16101 0.167294 0.16944 0.169127 0.170708 0.170841 0.171222 0.172313 0.172779 0.173396 0.175239 0.175723 0.176066 0.17737 0.177848 0.178037 0.178304 0.179833 0.178803 0.181508 0.179817 0.180506
0.102627 0.100741 0.0996855 0.0992915 0.0992286 0.0987942 0.0982235 0.0984954 0.0983966 0.0982076 0.0979055 0.0971665 0.0972184 0.0967875 0.0966601 0.0958442 0.0957231 0.0955358 0.0952137 0.0948488 0.0943956 0.0944948 0.0938193 0.0932161 0.0933005 0.093592 0.0930889 0.0927481 0.092751 0.0921888 0.0921286 0.092048 0.0916076 0.0911475 0.0910743 0.0905066 0.0900095 0.0900111 0.0669703 0.0 0.0 0.0 0.0 0.0 0.0 0.0 0.0 0.0 0.0 0.0 0.0 0.0 0.0 0.0 0.0 0.0 0.0 0.0 0.0 0.0 0.0 0.0 0.0 0.0511455 0.0524012 0.052366 0.0523761 0.052498 0.0536213 0.0 0.0 0.0 0.0 0.0 0.0 0.0 0.0523985 0.0532812 0.0533869 0.0 0.0 0.0 0.0519498 0.0513033 0.0510125 0.0515214 0.0516534 0.0 0.0 0.0 0.0 0.0 0.0 0.0 0.0501288 0.05082 0.0507347 0.0506277 0.0509431 0.0515921 0.0 0.0 0.0 0.0 0.0524699 0.0508557 0.0 0.0 0.0 0.0 0.0 0.0 0.0 0.0 0.0 0.0 0.0 0.0 0.0 0.0 0.0 0.0 0.0 0.0 0.0 0.0 0.0 0.0 0.0 0.0 0.0 0.0 0.0847246 0.0873108 0.0871387 0.086541 0.0867991 0.0863616 0.0874795 0.0868427 0.0876053 0.0871746 0.087807 0.0873119 0.0880173 0.0877747 0.0880778 0.088134 0.0883513 0.0888438 0.0885433 0.0889958 0.089383 0.091074 0.100378 0.121254 0.143896 0.156898 0.160296 0.160558 0.162091 0.162272 0.162665 0.163248 0.164669 0.164686 0.164939 0.1658 0.167435 0.167658 0.168935 0.169193 0.169127 0.170237 0.169664 0.170128
0.0944637 0.0938415 0.0938665 0.0936499 0.0934803 0.0931809 0.0925979 0.0926572 0.0923229 0.0919478 0.0920363 0.0915141 0.0911922 0.0907207 0.0905797 0.0900712 0.0894576 0.0895643 0.0888273 0.0887441 0.0889662 0.0884337 0.0883363 0.0879826 0.0879549 0.0875207 0.0872399 0.0871552 0.086429 0.0863708 0.0862506 0.0858758 0.0861451 0.0851982 0.0855997 0.0851706 0.0849146 0.0844265 0.0746828 0.0 0.0 0.0 0.0 0.0 0.0 0.0 0.0 0.0 0.0 0.0 0.0 0.0 0.0 0.0 0.0 0.0 0.0 0.0 0.0 0.0 0.0 0.0 0.0 0.0 0.0497232 0.0493956 0.0495103 0.0496887 0.0502668 0.0 0.0 0.0 0.0 0.0 0.0 0.0 0.0 0.0 0.0 0.0 0.0 0.0 0.0481224 0.0485604 0.0484325 0.0482002 0.0484088 0.0 0.0 0.0 0.0 0.0 0.0 0.0 0.0 0.0486072 0.0488833 0.0 0.0 0.0 0.0 0.0477107 0.0477798 0.0472615 0.0474785 0.0480111 0.0 0.0 0.0 0.0 0.0 0.0 0.0 0.0 0.0 0.0 0.0 0.0 0.0 0.0 0.0 0.0 0.0 0.0 0.0 0.0 0.0 0.0 0.0 0.0 0.0 0.0 0.0700022 0.0821973 0.0821405 0.0813631 0.0811814 0.0812776 0.0815247 0.0821358 0.0819824 0.0822572 0.0822354 0.0822795 0.0823683 0.0826517 0.0821666 0.082883 0.0826801 0.0829942 0.0836118 0.0833721 0.0838016 0.084191 0.0846265 0.0848273 0.087713 0.101349 0.122195 0.141792 0.149725 0.153591 0.153614 0.153706 0.154284 0.154778 0.155279 0.155916 0.155613 0.157272 0.157486 0.158741 0.158478 0.159214 0.159047 0.160171
0.087896 0.087563 0.0876506 0.0874896 0.0873727 0.0872582 0.0865649 0.0870984 0.0869081 0.08577 0.0856482 0.0855702 0.0850006 0.0848662 0.084919 0.0842564 0.0842118 0.0836378 0.0832716 0.083459 0.0825684 0.0826383 0.0823645 0.082459 0.0818048 0.0822482 0.0814579 0.0814396 0.0814032 0.0808238 0.0806709 0.0807015 0.0807743 0.0803257 0.0798798 0.0796572 0.0793164 0.0791985 0.0769581 0.0 0.0 0.0 0.0 0.0 0.0 0.0 0.0 0.0 0.0 0.0 0.0 0.0 0.0 0.0 0.0 0.0 0.0 0.0 0.0 0.0 0.0 0.0 0.0 0.0 0.0467648 0.0466742 0.0467823 0.0464752 0.0467625 0.0 0.0 0.0 0.0 0.0 0.0 0.0 0.0 0.0 0.0 0.0 0.0 0.0 0.0452781 0.0457302 0.0456492 0.0453515 0.0458837 0.0464953 0.0 0.0 0.0 0.0 0.0 0.0 0.0 0.0 0.0 0.0 0.0 0.0 0.0 0.044396 0.0447971 0.0446846 0.0451262 0.0451136 0.0458531 0.0 0.0 0.0 0.0 0.0 0.0 0.0 0.0 0.0 0.0 0.0 0.0 0.0 0.0 0.0 0.0 0.0 0.0 0.0 0.0 0.0 0.0 0.0 0.0 0.0 0.0538204 0.0773016 0.0765283 0.0766155 0.0763642 0.0763744 0.0765266 0.0765603 0.0768365 0.0768136 0.0766918 0.0769739 0.0767952 0.0772628 0.0773094 0.0773984 0.0778328 0.0775419 0.0780013 0.0781798 0.0782187 0.0786453 0.0789528 0.0790596 0.0795963 0.0796877 0.081149 0.086806 0.102179 0.122408 0.138445 0.143474 0.145065 0.145118 0.145402 0.145856 0.146708 0.147151 0.147226 0.148406 0.148115 0.149702 0.148396 0.149076
0.0825442 0.0820159 0.0816282 0.0814391 0.0813306 0.0812437 0.0806139 0.0809209 0.0805108 0.0803751 0.0797386 0.0795891 0.079577 0.0791236 0.0789429 0.0784378 0.0784161 0.0781662 0.078168 0.0776169 0.0774321 0.0771543 0.0769553 0.0766444 0.0766596 0.0764675 0.0759359 0.0758436 0.0754311 0.0757596 0.0752381 0.0752296 0.0750151 0.0750481 0.074385 0.0742711 0.0737637 0.0735032 0.0729815 0.0 0.0 0.0 0.0 0.0 0.0 0.0 0.0 0.0 0.0 0.0 0.0 0.0 0.0 0.0 0.0 0.0 0.0 0.0 0.0 0.0 0.0 0.0 0.0 0.0 0.0417155 0.0439533 0.0438876 0.0444166 0.0446117 0.0 0.0 0.0 0.0442464 0.0432567 0.0434733 0.0445433 0.0 0.0 0.0 0.0 0.0 0.0 0.0415875 0.0429197 0.0425473 0.0428424 0.0427488 0.0430261 0.0 0.0 0.0 0.0 0.0 0.0446984 0.0 0.0 0.0 0.0 0.0 0.0 0.0 0.0411116 0.0419885 0.0418829 0.0420189 0.0420255 0.0425893 0.0 0.0 0.0 0.0 0.0 0.0 0.0 0.0 0.0 0.0 0.0 0.0 0.0 0.0 0.0 0.0 0.0 0.0 0.0 0.0 0.0 0.0 0.0 0.0 0.0 0.0 0.0716531 0.071602 0.0717773 0.0708843 0.0715131 0.0712608 0.0718186 0.0716257 0.0719051 0.0719414 0.0716776 0.0720381 0.0717961 0.0719147 0.0722814 0.0723095 0.0727186 0.0727506 0.0727464 0.0733338 0.0731625 0.0734311 0.0737975 0.0734789 0.0739456 0.0740705 0.0742936 0.074711 0.077726 0.0851385 0.100627 0.120481 0.131736 0.136059 0.136232 0.136778 0.136998 0.137962 0.137996 0.138014 0.138817 0.138471 0.139754
0.0762663 0.0762874 0.0761455 0.0763344 0.0758679 0.0753318 0.0750718 0.0746691 0.0749038 0.0744881 0.0744187 0.0742251 0.0738355 0.0734669 0.0731191 0.0730433 0.0728799 0.0726292 0.0724883 0.0720637 0.0719989 0.0713477 0.0713587 0.0708912 0.0710483 0.0706744 0.0706932 0.0703769 0.070364 0.0699991 0.0699368 0.0695057 0.0695178 0.0694964 0.0693356 0.0689479 0.0688965 0.0682843 0.0682365 0.0565034 0.0 0.0 0.0 0.0 0.0 0.0 0.0 0.0 0.0 0.0 0.0 0.0 0.0 0.0 0.0 0.0 0.0 0.0 0.0 0.0 0.0 0.0 0.0 0.0 0.0 0.0422528 0.0 0.0 0.0 0.0 0.0386563 0.0405043 0.0404459 0.0404226 0.0402438 0.0414859 0.0 0.0 0.0 0.0 0.0 0.0 0.0 0.0402119 0.0402276 0.0407456 0.0412292 0.0 0.0 0.0412113 0.0407618 0.0399145 0.0398811 0.0402808 0.0410618 0.0 0.0 0.0 0.0 0.0 0.0 0.0 0.0391687 0.0392953 0.039249 0.0394804 0.039279 0.0 0.0 0.0 0.0 0.0 0.0 0.0 0.0 0.0 0.0 0.0 0.0 0.0 0.0 0.0 0.0 0.0 0.0 0.0 0.0 0.0 0.0 0.0 0.0 0.0 0.0 0.063041 0.0668609 0.0662359 0.0664357 0.0659352 0.0665591 0.0664474 0.066548 0.0665622 0.0665427 0.0668771 0.0666139 0.066652 0.0670273 0.0667683 0.06736 0.0673521 0.0675763 0.0678736 0.0676935 0.0682262 0.0679782 0.0683197 0.0685209 0.0685278 0.068751 0.0686721 0.0690789 0.0695423 0.0698648 0.0708739 0.0735994 0.0845811 0.101269 0.118369 0.126042 0.128205 0.127487 0.127826 0.12817 0.128973 0.128392 0.12915
0.0706384 0.0708287 0.0703739 0.0702447 0.069931 0.0696367 0.0694971 0.0693933 0.069123 0.0687038 0.0683714 0.068394 0.0680831 0.0680592 0.0679201 0.0673326 0.0672482 0.0671658 0.06652 0.0667077 0.0662664 0.066242 0.0661035 0.0657685 0.0655019 0.0654521 0.065305 0.0650446 0.0649343 0.06453 0.0648341 0.0643844 0.064478 0.0639505 0.0638345 0.0635566 0.0635093 0.0632348 0.0626847 0.0588749 0.0 0.0 0.0 0.0 0.0 0.0 0.0 0.0 0.0 0.0 0.0 0.0 0.0 0.0 0.0 0.0 0.0 0.0 0.0 0.0 0.0 0.0 0.0 0.0 0.0 0.0 0.0 0.0 0.0 0.0 0.0 0.0375664 0.0375766 0.0376194 0.0376465 0.03769 0.0 0.0 0.0 0.0 0.0 0.0 0.0 0.0 0.0 0.0 0.0 0.0 0.0 0.0361487 0.0367283 0.0368256 0.0367784 0.0370212 0.0373609 0.0 0.0 0.0 0.0 0.0 0.0 0.0 0.0364701 0.0365233 0.0369795 0.0379518 0.0 0.0 0.0 0.0375281 0.0371169 0.03648 0.0366822 0.0369817 0.0 0.0 0.0 0.0 0.0 0.0 0.0 0.0 0.0 0.0 0.0 0.0 0.0 0.0 0.0 0.0 0.0 0.0 0.0 0.0501001 0.0616041 0.0621466 0.0608984 0.0612968 0.061028 0.0617563 0.0613267 0.0614375 0.0615989 0.0614835 0.0618448 0.0616666 0.061621 0.0619712 0.062011 0.0623322 0.0628039 0.0626842 0.0629456 0.0626141 0.0630445 0.0630469 0.0631503 0.0636042 0.0633627 0.0637879 0.0636326 0.063979 0.0640606 0.0644619 0.0650836 0.0646856 0.0666057 0.0723 0.0850018 0.101588 0.114037 0.118795 0.118927 0.119707 0.117994 0.119666
0.0652556 0.0648336 0.0646501 0.0647509 0.0640541 0.0642836 0.0639518 0.0636849 0.0635759 0.062816 0.0629601 0.0626867 0.0623229 0.0623481 0.0618807 0.0617245 0.0615241 0.061741 0.0613752 0.0612267 0.0610953 0.0607515 0.0606853 0.0604374 0.0604205 0.0600393 0.0600563 0.0598008 0.0595321 0.0593565 0.0595012 0.0592378 0.0590368 0.0588375 0.0587609 0.0587311 0.0582344 0.0581624 0.0575337 0.0575099 0.0 0.0 0.0 0.0 0.0 0.0 0.0 0.0 0.0 0.0 0.0 0.0 0.0 0.0 0.0 0.0 0.0 0.0 0.0 0.0 0.0 0.0 0.0 0.0 0.0 0.0 0.0 0.0 0.0 0.0 0.0 0.0346716 0.0346811 0.0348249 0.0346416 0.0347563 0.0 0.0 0.0 0.0 0.0 0.0 0.0 0.0 0.0 0.0 0.0 0.0 0.0 0.032886 0.034061 0.034032 0.0339735 0.0340789 0.0346307 0.0 0.0 0.0 0.0 0.0 0.0 0.0 0.0 0.0 0.0 0.0 0.0 0.0 0.0329909 0.033787 0.0337046 0.0337867 0.033884 0.0338924 0.0 0.0 0.0 0.0 0.0 0.0 0.0 0.0 0.0 0.0 0.0 0.0 0.0 0.0 0.0 0.0 0.0 0.0 0.0 0.0 0.0569127 0.0569322 0.0566819 0.0563119 0.0565758 0.056268 0.0568368 0.0566822 0.0566044 0.0568304 0.0568611 0.056681 0.0569419 0.0567946 0.0573932 0.0575835 0.0572122 0.0576951 0.0573107 0.0577671 0.0578588 0.057937 0.0582926 0.0582976 0.0584731 0.0584506 0.0587375 0.0591191 0.0591636 0.0592406 0.05918 0.0596632 0.0596836 0.060436 0.0609897 0.0629647 0.0710969 0.0852736 0.100106 0.108809 0.108998 0.109662
0.0592571 0.0592608 0.0592081 0.059085 0.0587911 0.0586142 0.058081 0.0579515 0.0575951 0.0574837 0.0574311 0.0572093 0.0568048 0.0564596 0.0563718 0.0562998 0.0562295 0.0562172 0.0557834 0.0560985 0.0555139 0.0557331 0.0549425 0.0551786 0.0549814 0.054716 0.0546202 0.0546098 0.0544891 0.0544815 0.0541548 0.0540945 0.053813 0.0539778 0.0535189 0.0534781 0.0531335 0.0531093 0.0525325 0.052511 0.0 0.0 0.0 0.0 0.0 0.0 0.0 0.0 0.0 0.0 0.0 0.0 0.0 0.0 0.0 0.0 0.0 0.0 0.0 0.0 0.0 0.0 0.0 0.0 0.0 0.0 0.0 0.0 0.0 0.0 0.0 0.0310609 0.0317802 0.0318849 0.0319079 0.0324639 0.0 0.0 0.0 0.0333929 0.0320525 0.0315863 0.0321304 0.0 0.0 0.0 0.0 0.0 0.0 0.0 0.0312249 0.031171 0.0316496 0.0311868 0.031666 0.0 0.0 0.0 0.0 0.0 0.0 0.0 0.0 0.0 0.0 0.0 0.0 0.0 0.0 0.0312191 0.0309111 0.0310547 0.0309114 0.031138 0.0 0.0 0.0 0.0 0.0 0.0 0.0 0.0 0.0 0.0 0.0 0.0 0.0 0.0 0.0 0.0 0.0 0.0 0.0 0.0 0.0517704 0.0522714 0.0516683 0.0513837 0.0513766 0.0517722 0.0514903 0.0516392 0.0517339 0.0516215 0.0516909 0.0519008 0.0519312 0.0521162 0.0521493 0.0521558 0.052527 0.0523686 0.0530515 0.0527277 0.0528676 0.0531357 0.05304 0.0531707 0.0532185 0.0535784 0.0535306 0.0537246 0.0537788 0.0541183 0.0543748 0.0544057 0.0547658 0.0544721 0.0548502 0.0549018 0.0556711 0.0568172 0.061345 0.0719043 0.0845168 0.0968684
