1.58659 1.62372 1.76019 1.78894 1.79198 1.78309 1.77055 1.74946 1.75146 1.7398 1.72961 1.72174 1.71675 1.70452 1.70039 1.68901 1.68245 1.67496 1.66045 1.66049 1.65296 1.64672 1.63621 1.63257 1.62801 1.62001 1.60547 1.61019 1.60278 1.59978 1.597 1.5871 1.58135 1.57638 1.56 1.56709 1.55255 1.55044 1.54314 1.5392 1.5355 1.52601 1.52191 1.51545 1.51353 1.51242 1.4992 1.49022 1.49155 1.49169 1.48343 1.48003 1.47484 1.4647 1.46 1.46279 1.44961 1.44681 1.44543 1.43095 1.43471 1.43699 1.42122 1.4211 1.42095 1.41262 1.40949 1.39904 1.39963 1.40077 1.39256 1.39101 1.38243 1.37557 1.3751 1.37314 1.36735 1.36124 1.35715 1.35244 1.35267 1.34381 1.34399 1.34004 1.33432 1.33119 1.32512 1.32223 1.31815 1.31697 1.31167 1.30312 1.29894 1.29707 1.294 1.28799 1.28867 1.27968 1.2774 1.26807 1.26456 1.26425 1.26011 1.25011 1.25118 1.24493 1.24798 1.24285 1.24236 1.2331 1.22994 1.2253 1.22471 1.22351 1.22054 1.21958 1.23194 1.24282 1.25307 1.26154 1.28155 1.28386 1.2974 1.31205 1.32203 1.33917 1.35077 1.36433 1.37525 1.39329 1.40093 1.41511 1.42521 1.44643 1.46069 1.47574 1.48528 1.51958 1.53381 1.54938 1.5643 1.58367 1.61031 1.62607 1.64994 1.67002 1.68292 1.72305 1.73938 1.78171 1.79357 1.82267 1.84853 1.88736 1.91204 1.9449 1.97146 2.00366 2.04035 2.07929 2.10146 2.14792 2.18338 2.21064 2.2385 2.29776 2.29949 2.30434 2.30309 2.30387 2.28887 2.28941 2.28444 2.25152 2.24666 2.24008
1.58096 1.59678 1.70695 1.77899 1.79701 1.78673 1.79195 1.78057 1.75846 1.76252 1.74088 1.73517 1.72577 1.71378 1.70605 1.70013 1.69493 1.683 1.67343 1.67208 1.66341 1.65325 1.65107 1.63988 1.63585 1.63483 1.62616 1.61543 1.60939 1.60977 1.60189 1.58969 1.58278 1.58006 1.58181 1.56219 1.56411 1.55202 1.55611 1.54188 1.53529 1.53351 1.52451 1.51775 1.51954 1.51497 1.50546 1.50712 1.49895 1.49475 1.48907 1.4819 1.47612 1.47232 1.46819 1.45735 1.45922 1.44945 1.44777 1.43733 1.44603 1.43319 1.4331 1.42599 1.41972 1.4207 1.41552 1.40564 1.40681 1.4027 1.39242 1.38444 1.38754 1.38826 1.37697 1.37355 1.37038 1.36982 1.35986 1.35866 1.35421 1.34504 1.34493 1.3439 1.33436 1.33504 1.33657 1.32343 1.32052 1.31816 1.31988 1.30576 1.30567 1.30175 1.29897 1.30086 1.29042 1.28317 1.27971 1.27272 1.26979 1.27006 1.26241 1.26088 1.25172 1.25277 1.25174 1.25361 1.24728 1.23831 1.23398 1.22671 1.2302 1.22289 1.22225 1.22158 1.23368 1.24574 1.25456 1.26334 1.27701 1.2828 1.29435 1.30787 1.32771 1.3443 1.34553 1.36634 1.37497 1.38644 1.4059 1.41723 1.43627 1.44919 1.46435 1.48401 1.49558 1.52508 1.53706 1.55808 1.5662 1.58647 1.61232 1.63607 1.66055 1.68632 1.68569 1.72562 1.75242 1.76895 1.79857 1.82998 1.85787 1.88811 1.89807 1.94888 1.98413 2.02057 2.054 2.08225 2.10476 2.16016 2.19103 2.21755 2.26193 2.27949 2.30695 2.32327 2.31931 2.30765 2.29672 2.28948 2.28375 2.2763 2.25003 2.24375
1.58188 1.58674 1.63491 1.75092 1.78582 1.78786 1.79224 1.78351 1.7673 1.76372 1.75347 1.74062 1.72652 1.7175 1.71744 1.7126 1.69688 1.68323 1.68194 1.69002 1.66212 1.66559 1.65697 1.65581 1.64029 1.63307 1.62885 1.62851 1.614 1.61209 1.61097 1.59733 1.58728 1.58368 1.58457 1.58 1.56995 1.56011 1.56048 1.55709 1.54763 1.54383 1.53195 1.52977 1.52207 1.51633 1.51342 1.50787 1.50458 1.49257 1.48976 1.48835 1.47879 1.47904 1.46562 1.4681 1.46881 1.46338 1.44658 1.4495 1.43929 1.44098 1.43594 1.42998 1.42428 1.4235 1.41423 1.41426 1.40783 1.40751 1.40277 1.39595 1.38851 1.38748 1.37793 1.37947 1.37308 1.37427 1.36812 1.35636 1.35952 1.34535 1.35315 1.34626 1.33935 1.34384 1.32308 1.33544 1.32519 1.31697 1.31664 1.31188 1.31091 1.29731 1.30333 1.30082 1.29388 1.28986 1.29167 1.28085 1.27207 1.27439 1.26702 1.25817 1.26656 1.2562 1.25284 1.25179 1.24634 1.24027 1.23974 1.23509 1.23509 1.23039 1.22567 1.22181 1.24557 1.25561 1.25863 1.2712 1.28402 1.29069 1.30197 1.32276 1.32988 1.34216 1.3544 1.3683 1.3836 1.40258 1.41803 1.42536 1.44528 1.45077 1.4783 1.48738 1.50929 1.52424 1.54111 1.56019 1.58629 1.59036 1.61512 1.63722 1.65722 1.68334 1.70452 1.7222 1.75584 1.782 1.8142 1.83163 1.86547 1.8927 1.93765 1.95363 2.00401 2.02354 2.04763 2.08844 2.10964 2.1544 2.19916 2.22136 2.26311 2.28924 2.31568 2.33644 2.32678 2.30645 2.30313 2.29295 2.29238 2.28468 2.2608 2.25107
1.58059 1.59183 1.60304 1.68443 1.78044 1.79757 1.80437 1.7891 1.778 1.76785 1.75454 1.75342 1.74643 1.73409 1.71665 1.71425 1.70595 1.69365 1.69374 1.6762 1.67694 1.67649 1.66674 1.66501 1.64439 1.64136 1.64135 1.63282 1.62589 1.61747 1.60897 1.60805 1.60054 1.5975 1.58785 1.59038 1.57289 1.56673 1.56224 1.55997 1.55335 1.54552 1.54022 1.53141 1.52772 1.52456 1.51356 1.51578 1.50468 1.49554 1.49387 1.4968 1.48722 1.48079 1.4775 1.46982 1.46384 1.46334 1.45436 1.45612 1.44997 1.44262 1.4434 1.43247 1.4291 1.42685 1.42078 1.42081 1.41027 1.4038 1.39963 1.39661 1.39121 1.39134 1.39204 1.3798 1.37692 1.36051 1.37136 1.35958 1.35922 1.36207 1.35608 1.348 1.34372 1.34029 1.3383 1.33716 1.32631 1.32336 1.32098 1.31945 1.30908 1.31249 1.30501 1.2978 1.28998 1.28742 1.2907 1.28281 1.28193 1.27722 1.27278 1.2733 1.26793 1.26048 1.25302 1.24934 1.24915 1.23899 1.24664 1.24053 1.23498 1.23437 1.22556 1.22666 1.24463 1.25789 1.27111 1.27293 1.28693 1.29828 1.3116 1.3243 1.33231 1.34983 1.35542 1.36878 1.39133 1.39648 1.40995 1.43115 1.44276 1.45315 1.48016 1.48985 1.51151 1.52736 1.54513 1.56624 1.58983 1.60076 1.623 1.64656 1.66063 1.69107 1.70918 1.72463 1.75835 1.77413 1.80727 1.83264 1.86235 1.89246 1.9392 1.95635 1.99233 2.02811 2.06506 2.09207 2.13439 2.17038 2.20198 2.22729 2.2686 2.29755 2.33557 2.34298 2.33089 2.3247 2.31841 2.30687 2.29957 2.28813 2.27204 2.25508
1.57734 1.58426 1.60807 1.62515 1.74142 1.80153 1.79963 1.78645 1.78238 1.76862 1.7728 1.75437 1.74816 1.74294 1.72739 1.72664 1.71498 1.71349 1.6991 1.68961 1.68531 1.67225 1.67002 1.66798 1.66306 1.65834 1.64451 1.6286 1.63748 1.62139 1.62478 1.6105 1.61178 1.60303 1.5905 1.59246 1.57521 1.57762 1.56824 1.55678 1.56248 1.55377 1.545 1.5379 1.53593 1.52525 1.51625 1.51702 1.5082 1.50918 1.49997 1.49709 1.49069 1.48744 1.4824 1.48023 1.46695 1.46557 1.46328 1.456 1.45042 1.45065 1.44032 1.44136 1.43183 1.429 1.42349 1.43026 1.41473 1.41791 1.4111 1.4069 1.40061 1.39371 1.39264 1.3842 1.38425 1.37986 1.37104 1.37306 1.36329 1.36379 1.35396 1.3497 1.34953 1.34845 1.3441 1.33973 1.33416 1.32827 1.32411 1.32082 1.31661 1.31591 1.30783 1.30297 1.29955 1.29492 1.29175 1.28855 1.28297 1.28178 1.27557 1.27756 1.27307 1.26914 1.26342 1.25945 1.25457 1.25435 1.24328 1.23775 1.23892 1.23364 1.23038 1.22885 1.24831 1.25663 1.26842 1.28569 1.28865 1.30729 1.31976 1.33074 1.33702 1.35515 1.37061 1.38312 1.38717 1.40623 1.42752 1.43373 1.45286 1.47221 1.4909 1.48622 1.51972 1.53732 1.55167 1.57311 1.60132 1.62112 1.62 1.65502 1.67766 1.68938 1.70669 1.74033 1.76363 1.79048 1.8104 1.85302 1.87462 1.8958 1.9446 1.97328 1.99507 2.0287 2.06798 2.09673 2.14304 2.17856 2.20913 2.24914 2.2941 2.30276 2.34802 2.34835 2.34583 2.33366 2.31353 2.31613 2.30425 2.29931 2.27998 2.27591
1.58096 1.58115 1.59148 1.61824 1.67375 1.78724 1.80784 1.8017 1.78778 1.78493 1.76797 1.76928 1.76251 1.75009 1.74584 1.73178 1.7287 1.70743 1.71111 1.69125 1.69224 1.67634 1.67211 1.67343 1.66539 1.66402 1.64903 1.64553 1.64025 1.63491 1.62722 1.62144 1.62015 1.60539 1.59711 1.59877 1.5958 1.57902 1.57276 1.56932 1.5641 1.55738 1.55493 1.55272 1.5441 1.53803 1.52959 1.5295 1.51864 1.51845 1.51068 1.49967 1.49964 1.49522 1.4858 1.48362 1.48403 1.46077 1.45788 1.46722 1.46164 1.4566 1.44334 1.44671 1.43863 1.43872 1.42764 1.42473 1.42501 1.41294 1.41287 1.40778 1.40736 1.39809 1.3976 1.39239 1.38567 1.38598 1.37656 1.37917 1.36645 1.36518 1.36358 1.35932 1.35119 1.34628 1.34605 1.34609 1.33727 1.33579 1.32898 1.32774 1.3203 1.31812 1.3174 1.30428 1.30145 1.30124 1.296 1.29544 1.28692 1.28455 1.27658 1.28562 1.26585 1.26632 1.26912 1.26514 1.25644 1.24509 1.2513 1.2487 1.24343 1.232 1.22581 1.23101 1.24992 1.27052 1.27123 1.28503 1.29354 1.31133 1.32325 1.32726 1.3414 1.3555 1.36635 1.38584 1.39658 1.40987 1.42426 1.4354 1.45544 1.47425 1.4924 1.49896 1.523 1.54092 1.55531 1.57651 1.60735 1.60545 1.64122 1.65802 1.67985 1.69502 1.71607 1.74551 1.76801 1.79718 1.83015 1.86549 1.87868 1.92636 1.94797 1.97868 1.99885 2.04319 2.07388 2.09965 2.13968 2.1839 2.214 2.25383 2.28814 2.3134 2.3376 2.35583 2.34841 2.33326 2.33111 2.32613 2.30857 2.30987 2.2865 2.2795
1.57996 1.58738 1.59501 1.60636 1.63124 1.73365 1.80837 1.81174 1.79285 1.79601 1.77901 1.77948 1.76136 1.75801 1.75013 1.73853 1.73542 1.72944 1.7214 1.70934 1.70249 1.69694 1.69103 1.67968 1.66822 1.66825 1.65378 1.64742 1.64269 1.64499 1.6296 1.62493 1.62534 1.61626 1.60768 1.60247 1.59862 1.58984 1.58443 1.58731 1.57114 1.56499 1.55964 1.54759 1.55051 1.54182 1.54293 1.53471 1.52354 1.52132 1.51207 1.50889 1.50187 1.49977 1.49179 1.48756 1.47161 1.46671 1.47288 1.46498 1.46114 1.45813 1.451 1.45554 1.43866 1.43845 1.42764 1.42737 1.42618 1.42731 1.42812 1.4095 1.40496 1.40626 1.3996 1.3929 1.38794 1.38854 1.38323 1.38319 1.37753 1.3736 1.35904 1.35889 1.35518 1.35439 1.35151 1.34712 1.34065 1.33681 1.33088 1.33141 1.3266 1.32295 1.32075 1.31057 1.30449 1.30487 1.29639 1.29731 1.29555 1.28965 1.28578 1.28395 1.2768 1.25875 1.26979 1.27022 1.26004 1.25807 1.2552 1.24174 1.24527 1.2391 1.23291 1.24192 1.25968 1.27037 1.28862 1.29075 1.29782 1.31418 1.32494 1.33508 1.34285 1.35813 1.37423 1.38708 1.40568 1.41695 1.42615 1.44803 1.45421 1.47652 1.48778 1.51138 1.52999 1.54219 1.56035 1.579 1.60588 1.61402 1.64384 1.66068 1.6817 1.69891 1.72057 1.74183 1.77347 1.81687 1.83998 1.86493 1.87816 1.92961 1.96956 1.98066 2.01799 2.04952 2.08336 2.10388 2.15848 2.19944 2.22239 2.25954 2.29865 2.2986 2.34439 2.36515 2.36816 2.34369 2.34293 2.33116 2.32175 2.31089 2.30265 2.29457
1.57108 1.58384 1.59036 1.6025 1.61079 1.67243 1.79079 1.80969 1.81514 1.80182 1.79689 1.77721 1.77838 1.76589 1.75354 1.75831 1.73681 1.73358 1.72383 1.71705 1.70764 1.70067 1.69275 1.68729 1.67269 1.67468 1.66755 1.66459 1.66099 1.64765 1.64333 1.63752 1.6302 1.61738 1.61278 1.61042 1.60512 1.59402 1.5909 1.58571 1.5796 1.57141 1.56662 1.56381 1.5566 1.54761 1.5429 1.54047 1.5409 1.52792 1.5239 1.51896 1.51106 1.51332 1.50154 1.48913 1.48485 1.48198 1.4826 1.47059 1.46381 1.46226 1.45687 1.45467 1.44657 1.44371 1.44083 1.43173 1.43231 1.42991 1.42777 1.41678 1.41164 1.40764 1.39655 1.40222 1.39106 1.38488 1.38929 1.38306 1.37296 1.37463 1.37067 1.3661 1.36209 1.35657 1.35575 1.34192 1.34076 1.34045 1.33835 1.33386 1.33141 1.32392 1.3232 1.31418 1.31429 1.31084 1.30588 1.29 1.29414 1.28528 1.28171 1.28283 1.28009 1.27881 1.2719 1.26145 1.26979 1.26077 1.25319 1.25411 1.24854 1.24501 1.24439 1.23934 1.26328 1.27194 1.28407 1.28826 1.31171 1.31962 1.33186 1.33735 1.35796 1.37064 1.37686 1.38944 1.39819 1.42314 1.43642 1.45108 1.46568 1.47702 1.5019 1.50531 1.53435 1.55435 1.57139 1.58201 1.60549 1.6174 1.64699 1.66214 1.6815 1.70274 1.73642 1.75543 1.77462 1.80391 1.83361 1.86911 1.89001 1.93223 1.9717 1.98931 2.02054 2.0342 2.0939 2.12984 2.1689 2.20465 2.23044 2.2735 2.29774 2.3284 2.36129 2.36559 2.36454 2.3535 2.3473 2.34046 2.3297 2.31967 2.31199 2.31419
1.58068 1.58698 1.59537 1.60099 1.6098 1.64094 1.73642 1.81304 1.81682 1.79519 1.79903 1.78509 1.78431 1.77011 1.75911 1.74603 1.75013 1.73962 1.74048 1.71517 1.71725 1.70518 1.69809 1.69344 1.68419 1.68533 1.67335 1.66952 1.66391 1.65738 1.64819 1.6475 1.63302 1.62819 1.621 1.61604 1.609 1.6042 1.5956 1.58751 1.58484 1.57605 1.57444 1.56582 1.55686 1.55567 1.54834 1.54765 1.53818 1.53798 1.52842 1.52142 1.51614 1.51577 1.50543 1.50147 1.49455 1.49344 1.48615 1.47734 1.47261 1.46754 1.4639 1.45464 1.44976 1.4466 1.45017 1.43783 1.43811 1.43217 1.42738 1.42227 1.42272 1.41223 1.40938 1.39794 1.39297 1.39062 1.39296 1.39056 1.38193 1.38035 1.37609 1.3724 1.36218 1.35813 1.35761 1.3541 1.34762 1.3414 1.33752 1.33805 1.33176 1.3284 1.32502 1.32397 1.32024 1.30792 1.31094 1.30094 1.298 1.29828 1.29766 1.28875 1.28218 1.2803 1.28105 1.27942 1.27217 1.26078 1.26585 1.25589 1.25532 1.24884 1.24705 1.24611 1.25629 1.27435 1.28767 1.29422 1.31301 1.31216 1.33262 1.34688 1.35613 1.37204 1.38265 1.39147 1.40867 1.42378 1.43243 1.45293 1.47277 1.47951 1.50326 1.51768 1.53462 1.55928 1.56655 1.58124 1.618 1.63451 1.65754 1.67559 1.69755 1.70882 1.73827 1.74992 1.79165 1.80647 1.8476 1.87011 1.89248 1.94213 1.9766 1.99735 2.02808 2.06227 2.09851 2.11577 2.17227 2.20867 2.23259 2.27658 2.30755 2.33606 2.36931 2.38908 2.37537 2.35941 2.3557 2.34559 2.33567 2.33245 2.31638 2.30564
1.57567 1.58734 1.58757 1.60348 1.61228 1.61994 1.67193 1.77596 1.81815 1.8119 1.8011 1.79043 1.78824 1.77316 1.76852 1.76295 1.75251 1.74113 1.74281 1.73093 1.72006 1.70937 1.70874 1.70946 1.69453 1.68147 1.67997 1.67669 1.66793 1.66022 1.65558 1.65059 1.64353 1.62979 1.63924 1.62536 1.62032 1.60716 1.60719 1.59649 1.5915 1.58529 1.57614 1.56779 1.57535 1.56197 1.55317 1.55014 1.54444 1.54627 1.53378 1.53086 1.52819 1.51291 1.51513 1.50561 1.50482 1.49609 1.48849 1.48554 1.4805 1.46896 1.46619 1.46692 1.46085 1.45592 1.44949 1.44862 1.44772 1.43617 1.42872 1.42802 1.42463 1.41531 1.41511 1.40632 1.39514 1.40253 1.39542 1.39361 1.38851 1.38516 1.37676 1.37217 1.37436 1.36558 1.3615 1.35355 1.35357 1.34261 1.33932 1.33483 1.33237 1.33463 1.32178 1.32576 1.31936 1.31679 1.30503 1.3098 1.30124 1.29237 1.29913 1.29346 1.28866 1.27734 1.28134 1.27676 1.27452 1.26754 1.26642 1.25705 1.25501 1.25177 1.24791 1.24786 1.26922 1.27644 1.28685 1.30542 1.31457 1.32661 1.33597 1.34762 1.3604 1.374 1.39455 1.39871 1.42205 1.42873 1.44002 1.45503 1.47897 1.49529 1.51212 1.52048 1.54439 1.5714 1.57781 1.60953 1.61896 1.64645 1.6652 1.68155 1.69925 1.71027 1.74064 1.76174 1.81151 1.83518 1.85331 1.88183 1.91984 1.93699 1.97606 2.0059 2.03754 2.06983 2.10782 2.14362 2.17837 2.21457 2.25137 2.28125 2.31201 2.3492 2.37533 2.37087 2.37458 2.3699 2.35935 2.35228 2.34374 2.34028 2.32393 2.32513
1.57923 1.5814 1.58674 1.59801 1.6106 1.60509 1.63651 1.67954 1.77559 1.79958 1.79286 1.80765 1.79128 1.79314 1.77036 1.77118 1.7568 1.74425 1.74395 1.74554 1.72733 1.72141 1.71059 1.71072 1.70284 1.69004 1.68682 1.68581 1.6736 1.66187 1.66237 1.65392 1.64913 1.63938 1.64136 1.63551 1.62038 1.61266 1.60922 1.60167 1.60072 1.58871 1.58708 1.57901 1.58018 1.57288 1.55389 1.56483 1.55446 1.54608 1.54261 1.53267 1.52911 1.52698 1.51632 1.5097 1.50921 1.50662 1.49637 1.49048 1.47984 1.48828 1.4761 1.47182 1.46869 1.45816 1.45584 1.45143 1.44639 1.44162 1.43858 1.43109 1.41676 1.42634 1.41698 1.41527 1.41117 1.40497 1.39194 1.39278 1.39034 1.38402 1.37916 1.37753 1.36935 1.36797 1.37455 1.36185 1.35506 1.35475 1.3482 1.34755 1.34124 1.33403 1.333 1.32485 1.32674 1.31913 1.30529 1.31361 1.30801 1.3009 1.30057 1.30081 1.29157 1.28821 1.2869 1.28232 1.27772 1.27457 1.26756 1.26642 1.26114 1.25702 1.25081 1.25752 1.27097 1.28349 1.29068 1.3037 1.31581 1.32816 1.33987 1.35623 1.3699 1.38439 1.3965 1.40592 1.42113 1.43745 1.44962 1.46872 1.49211 1.49829 1.51659 1.52323 1.55211 1.57337 1.5824 1.61186 1.62017 1.64856 1.6662 1.68834 1.70177 1.72714 1.75555 1.77667 1.80396 1.83453 1.85983 1.89921 1.91796 1.94083 1.98366 2.00847 2.03792 2.07028 2.11567 2.14986 2.19561 2.22515 2.25254 2.28667 2.33225 2.3534 2.37905 2.39729 2.39023 2.3806 2.37226 2.3693 2.36349 2.33957 2.32869 2.32966
1.58218 1.58297 1.58666 1.59955 1.60393 1.60768 1.62208 1.62654 1.6602 1.72158 1.74986 1.75317 1.75667 1.76039 1.74783 1.72143 1.72401 1.71052 1.71886 1.7342 1.73201 1.73031 1.72258 1.71477 1.71681 1.69972 1.69478 1.69061 1.68438 1.67693 1.66195 1.66322 1.65957 1.64924 1.63566 1.63728 1.63164 1.62507 1.62046 1.61174 1.60586 1.60282 1.5977 1.5809 1.58469 1.57213 1.56855 1.569 1.56182 1.55226 1.55405 1.5438 1.53527 1.53371 1.51951 1.5258 1.51385 1.50833 1.51011 1.49538 1.48738 1.48965 1.47863 1.47522 1.4715 1.4577 1.46541 1.45775 1.453 1.45176 1.44015 1.4359 1.4325 1.42967 1.42148 1.41799 1.4127 1.41123 1.39966 1.4008 1.39539 1.39055 1.39102 1.38405 1.3815 1.37803 1.36861 1.36391 1.36333 1.35472 1.35558 1.34899 1.34802 1.34079 1.33918 1.33368 1.3335 1.31818 1.31825 1.32007 1.30291 1.30734 1.30257 1.29986 1.30362 1.28843 1.28742 1.27663 1.27557 1.27538 1.27397 1.2693 1.26077 1.26047 1.25986 1.25804 1.2718 1.28493 1.2939 1.30723 1.32758 1.33407 1.35108 1.35046 1.37118 1.38687 1.39841 1.41019 1.42659 1.43914 1.45571 1.46988 1.48109 1.49979 1.52423 1.53988 1.554 1.57617 1.59506 1.61386 1.62421 1.65034 1.66888 1.69164 1.71371 1.74285 1.75639 1.77985 1.80805 1.82212 1.86089 1.90091 1.92823 1.95654 1.98044 2.01267 2.06082 2.08871 2.11727 2.15126 2.19935 2.22896 2.26424 2.29007 2.31904 2.36558 2.39378 2.40071 2.38816 2.3871 2.38153 2.37228 2.36568 2.35215 2.33527 2.33383
1.56852 1.58665 1.58405 1.59364 1.60483 1.60087 1.60617 1.61498 1.61877 1.62305 1.62809 1.64615 1.63688 1.62889 1.63142 1.61287 1.59726 1.58969 1.60316 1.65557 1.68235 1.7117 1.71497 1.71961 1.71908 1.70138 1.70241 1.68937 1.68769 1.67993 1.67065 1.66474 1.66049 1.6533 1.64546 1.63265 1.6342 1.62472 1.61662 1.61483 1.61445 1.60501 1.59842 1.59381 1.5877 1.58357 1.57911 1.57284 1.57062 1.55929 1.55259 1.54935 1.53699 1.5454 1.53911 1.5272 1.51788 1.51411 1.51029 1.50085 1.49873 1.49274 1.4879 1.48361 1.48017 1.47758 1.46669 1.4596 1.46017 1.45006 1.44317 1.44216 1.43639 1.43 1.4292 1.42393 1.40737 1.41746 1.41092 1.40494 1.40131 1.39676 1.38684 1.39232 1.37167 1.3774 1.36886 1.3683 1.36951 1.36326 1.3567 1.35367 1.34943 1.3422 1.34088 1.33598 1.33995 1.32787 1.32735 1.31642 1.31318 1.30754 1.31255 1.30301 1.30382 1.29425 1.28879 1.2777 1.28906 1.27704 1.27593 1.26565 1.26567 1.26273 1.26182 1.26059 1.27908 1.29281 1.30121 1.30897 1.32934 1.33849 1.35171 1.3684 1.36862 1.38726 1.40029 1.41648 1.42881 1.4405 1.45213 1.48267 1.49388 1.50271 1.52312 1.5417 1.55672 1.57834 1.60335 1.61726 1.64035 1.65236 1.6692 1.70727 1.72074 1.73154 1.76808 1.7804 1.81008 1.83877 1.8733 1.90426 1.93363 1.96 2.00182 2.03041 2.06392 2.09441 2.13092 2.16665 2.20245 2.23382 2.27337 2.31659 2.34308 2.36712 2.39763 2.40128 2.40119 2.39381 2.38082 2.38562 2.36943 2.36521 2.35242 2.33329
1.57269 1.57993 1.59366 1.59587 1.59772 1.60388 1.59593 1.60056 1.62091 1.60241 1.59293 1.58974 1.57809 1.5803 1.56759 1.55897 1.55475 1.55722 1.55426 1.56281 1.577 1.5974 1.63514 1.66496 1.67572 1.69044 1.69801 1.69466 1.6941 1.68173 1.6822 1.67599 1.66338 1.66395 1.65552 1.64125 1.64338 1.63562 1.62983 1.62717 1.61574 1.61094 1.60986 1.60117 1.58921 1.59062 1.59228 1.58075 1.57501 1.566 1.56017 1.5493 1.54777 1.54738 1.53932 1.52944 1.52541 1.52516 1.51427 1.5054 1.50328 1.50289 1.4942 1.48931 1.48734 1.47736 1.4774 1.46883 1.46495 1.45128 1.45652 1.45107 1.4447 1.4383 1.43542 1.42956 1.41535 1.41862 1.41385 1.41351 1.40453 1.3976 1.39598 1.39019 1.38852 1.38505 1.37531 1.37327 1.36972 1.36674 1.35155 1.35654 1.35082 1.34239 1.34344 1.3421 1.33449 1.33726 1.32307 1.31985 1.31898 1.31453 1.30827 1.30614 1.30369 1.29885 1.29488 1.29265 1.28715 1.28637 1.27757 1.27733 1.2673 1.27115 1.26375 1.26311 1.28045 1.29774 1.30967 1.31863 1.32636 1.33994 1.35435 1.37107 1.38362 1.38879 1.40447 1.41951 1.43391 1.45117 1.46896 1.48522 1.48333 1.51375 1.53593 1.54348 1.57218 1.58076 1.60494 1.62902 1.64287 1.66388 1.69171 1.69838 1.71909 1.7584 1.77429 1.79237 1.82696 1.84853 1.8794 1.91754 1.93498 1.95771 2.00388 2.03536 2.06667 2.1091 2.12901 2.17412 2.21336 2.23664 2.2732 2.31539 2.34754 2.37444 2.40724 2.40786 2.40642 2.40044 2.4029 2.38624 2.37446 2.36973 2.35476 2.35118
1.57 1.58594 1.58135 1.5835 1.58804 1.59141 1.59857 1.5852 1.57668 1.58554 1.57515 1.56716 1.56911 1.55476 1.54252 1.54338 1.54643 1.53588 1.53936 1.54364 1.54616 1.54068 1.5502 1.54944 1.56744 1.59 1.62373 1.63888 1.65143 1.66166 1.66294 1.66562 1.66652 1.66765 1.65747 1.65734 1.64789 1.6404 1.63285 1.62641 1.62048 1.61537 1.61458 1.59771 1.60849 1.59296 1.58379 1.58687 1.58492 1.57444 1.56244 1.56388 1.54943 1.54815 1.54242 1.54284 1.53791 1.52205 1.52235 1.50727 1.50602 1.50829 1.4919 1.49706 1.48947 1.48865 1.47921 1.47062 1.47119 1.46639 1.4494 1.45254 1.44913 1.44598 1.4342 1.43129 1.43192 1.43074 1.41943 1.4176 1.41396 1.40137 1.40452 1.39544 1.3908 1.38643 1.38561 1.37851 1.37109 1.36989 1.37045 1.36504 1.35217 1.35801 1.34776 1.34047 1.33702 1.33444 1.33094 1.3292 1.32417 1.31556 1.309 1.31102 1.30768 1.29513 1.29412 1.2913 1.29262 1.28057 1.2851 1.28752 1.27334 1.27453 1.27481 1.26886 1.29625 1.30322 1.31635 1.32856 1.34072 1.35549 1.35962 1.37224 1.38216 1.39645 1.41596 1.41607 1.43459 1.45276 1.46648 1.4854 1.49665 1.52857 1.52716 1.54463 1.57338 1.59448 1.61084 1.62915 1.64246 1.66553 1.67982 1.72117 1.72488 1.76367 1.77268 1.80632 1.82862 1.84335 1.88373 1.91679 1.93856 1.97615 2.00701 2.04991 2.06992 2.10535 2.14426 2.17702 2.20873 2.24136 2.28557 2.33203 2.34941 2.40067 2.40815 2.43161 2.41906 2.40312 2.39955 2.39972 2.38024 2.37196 2.36578 2.36085
1.58005 1.57797 1.581 1.57927 1.5846 1.58132 1.56798 1.57306 1.57586 1.56106 1.55085 1.54976 1.53038 1.53386 1.53251 1.5246 1.53493 1.52772 1.53173 1.53598 1.52883 1.52926 1.53107 1.5217 1.52481 1.52673 1.52917 1.53129 1.53938 1.54831 1.56671 1.57963 1.59744 1.61871 1.63015 1.63345 1.63845 1.64196 1.64369 1.6317 1.62722 1.62327 1.61547 1.61521 1.60439 1.59438 1.59603 1.58592 1.58631 1.58168 1.5726 1.57169 1.56075 1.55359 1.55109 1.54472 1.54333 1.52833 1.5301 1.52446 1.50933 1.51691 1.5085 1.50537 1.49896 1.48747 1.48158 1.48217 1.48185 1.46755 1.47577 1.45428 1.44848 1.45038 1.44007 1.43805 1.43244 1.4262 1.42529 1.42137 1.4204 1.41108 1.40857 1.40038 1.40109 1.39434 1.3941 1.3864 1.37838 1.37986 1.3697 1.36667 1.35974 1.35963 1.35295 1.34714 1.3416 1.33426 1.33968 1.32575 1.32518 1.32577 1.31266 1.31767 1.30898 1.30532 1.3049 1.29556 1.29717 1.29164 1.29231 1.28881 1.27966 1.28707 1.27906 1.27695 1.29225 1.32021 1.32036 1.33287 1.34269 1.34716 1.36721 1.38191 1.39125 1.41114 1.41158 1.43018 1.44022 1.45636 1.4783 1.48641 1.50938 1.5165 1.54166 1.5577 1.57629 1.59828 1.62281 1.63331 1.64286 1.67003 1.69737 1.70668 1.7419 1.7689 1.78715 1.81507 1.83338 1.86105 1.89489 1.91655 1.95808 1.98972 2.00866 2.04879 2.09355 2.11711 2.16372 2.18691 2.21924 2.24292 2.29143 2.3203 2.37305 2.40312 2.41511 2.43139 2.42636 2.42013 2.40798 2.41204 2.38649 2.39774 2.37207 2.37208
1.55976 1.56937 1.57042 1.56837 1.56042 1.56534 1.54444 1.55056 1.5455 1.53756 1.54123 1.52134 1.51672 1.51903 1.52325 1.52207 1.52617 1.52796 1.52516 1.524 1.51622 1.50837 1.51041 1.51326 1.51491 1.50564 1.50804 1.50609 1.50207 1.49943 1.50134 1.50293 1.49753 1.50799 1.50974 1.52275 1.54881 1.57808 1.60068 1.60668 1.61528 1.61392 1.61486 1.60757 1.61106 1.60367 1.59858 1.58963 1.58972 1.58302 1.57039 1.57595 1.57235 1.564 1.55119 1.55159 1.55167 1.54197 1.52985 1.52568 1.51792 1.51486 1.51176 1.51278 1.50191 1.50316 1.49074 1.48361 1.47557 1.47788 1.46799 1.47113 1.45939 1.45892 1.45365 1.45104 1.43887 1.43501 1.43409 1.42809 1.41908 1.41213 1.41229 1.40946 1.39736 1.40192 1.39424 1.39786 1.37731 1.3779 1.37697 1.37363 1.36699 1.36093 1.36109 1.35408 1.35003 1.34119 1.34662 1.33565 1.33329 1.32228 1.33118 1.31834 1.31886 1.31342 1.30735 1.30364 1.30288 1.30239 1.29357 1.29007 1.27795 1.27441 1.21635 1.11629 0.946493 1.05185 1.18189 1.05125 0.891807 0.875619 1.36388 1.38684 1.39974 1.41553 1.41626 1.43048 1.44729 1.45729 1.47926 1.49441 1.51156 1.52191 1.54506 1.57192 1.57653 1.60409 1.61527 1.64643 1.6621 1.68203 1.70042 1.72393 1.74415 1.76716 1.78862 1.81601 1.84961 1.86811 1.89769 1.92455 1.96357 1.99326 2.02963 2.05614 2.09529 2.10953 2.16785 2.19138 2.21925 2.25822 2.29413 2.34105 2.37759 2.39598 2.4463 2.43916 2.43304 2.42821 2.41468 2.41021 2.40232 2.40066 2.37719 2.3745
1.56368 1.56369 1.54849 1.55351 1.5408 1.53486 1.5399 1.52766 1.51918 1.51952 1.51811 1.51857 1.51504 1.51649 1.51336 1.52455 1.51903 1.51003 1.50548 1.50795 1.50411 1.4965 1.4928 1.48674 1.49264 1.49047 1.49342 1.49258 1.48507 1.48556 1.47792 1.48871 1.47373 1.47576 1.48326 1.48492 1.48045 1.48203 1.48357 1.49353 1.50318 1.51251 1.52153 1.55452 1.56937 1.5763 1.58085 1.5792 1.57076 1.58344 1.57579 1.57134 1.57333 1.56378 1.55891 1.554 1.5458 1.54495 1.54051 1.52716 1.52739 1.52076 1.52152 1.51038 1.51225 1.50549 1.50077 1.49126 1.48618 1.48225 1.47948 1.46776 1.46523 1.46535 1.46097 1.45299 1.43545 1.43963 1.4399 1.42883 1.42219 1.42417 1.41331 1.41793 1.40373 1.41008 1.39583 1.39617 1.38366 1.37978 1.37885 1.37908 1.37423 1.36696 1.36206 1.35922 1.34831 1.34364 1.34788 1.34226 1.33514 1.33424 1.32796 1.32166 1.31981 1.31971 1.31335 1.30666 1.29818 1.28105 1.21849 1.1138 0.867945 0.0 0.0 0.0 0.0 0.0 0.0 0.0 0.0 0.0 1.31683 1.39412 1.39936 1.41723 1.42946 1.4381 1.45551 1.47051 1.48194 1.498 1.51721 1.53665 1.54579 1.57064 1.58431 1.60725 1.6263 1.64761 1.66243 1.6853 1.70546 1.72553 1.74839 1.76883 1.79957 1.81978 1.83961 1.88088 1.91423 1.9371 1.96242 1.99617 2.03318 2.06972 2.09952 2.128 2.17192 2.19578 2.23107 2.26529 2.30155 2.34404 2.37729 2.42488 2.44504 2.44296 2.43212 2.43483 2.41577 2.41521 2.39988 2.40432 2.38222 2.37956
1.54455 1.53625 1.53827 1.5438 1.53572 1.52115 1.52087 1.51716 1.51978 1.51311 1.5027 1.50761 1.50824 1.49671 1.51383 1.49817 1.50277 1.50619 1.49933 1.50206 1.49335 1.49083 1.48738 1.47443 1.48632 1.47838 1.47756 1.47122 1.47345 1.4641 1.46624 1.47268 1.4701 1.46313 1.45987 1.46179 1.4628 1.46698 1.46966 1.46502 1.46003 1.46143 1.45577 1.45709 1.46834 1.47078 1.47847 1.46439 1.47084 1.49581 1.54729 1.56196 1.57485 1.56824 1.5672 1.55549 1.55615 1.54879 1.53724 1.53809 1.53861 1.52961 1.51701 1.51713 1.51188 1.50926 1.50811 1.49919 1.49558 1.48838 1.48561 1.47507 1.47521 1.46669 1.46261 1.46147 1.45435 1.44929 1.44449 1.43729 1.4384 1.42398 1.42325 1.41742 1.41485 1.41226 1.40576 1.39923 1.39835 1.39267 1.38428 1.38302 1.38055 1.37209 1.37106 1.36314 1.36356 1.35978 1.34911 1.35929 1.345 1.33516 1.33365 1.32407 1.32162 1.30961 1.26544 1.17814 0.965342 0.0 0.0 0.0 0.0 0.0 0.0 0.0 0.0 0.0 0.0 0.0 0.0 0.0 1.00675 1.39723 1.41222 1.4248 1.4335 1.45217 1.46195 1.48079 1.48165 1.50155 1.52284 1.54465 1.5576 1.57253 1.59703 1.61036 1.63557 1.64991 1.66504 1.69638 1.70901 1.7265 1.75143 1.77161 1.79083 1.83159 1.86412 1.87175 1.91609 1.93814 1.97239 2.01649 2.04096 2.0804 2.10939 2.13223 2.17594 2.20211 2.23604 2.27824 2.31455 2.34781 2.39068 2.43161 2.45154 2.44332 2.43363 2.43499 2.42649 2.42345 2.41614 2.40901 2.38306 2.38373
1.53271 1.52929 1.52163 1.51494 1.50732 1.5115 1.50339 1.49907 1.48739 1.49909 1.50263 1.49432 1.49744 1.49543 1.49137 1.49176 1.49719 1.49036 1.49454 1.48614 1.48166 1.47167 1.46589 1.46834 1.47104 1.46019 1.46364 1.46273 1.46466 1.45556 1.46086 1.45541 1.45599 1.45566 1.45644 1.45515 1.44799 1.44923 1.44751 1.44254 1.44483 1.4421 1.44842 1.4424 1.44748 1.4449 1.43376 1.42815 1.42427 1.43743 1.43761 1.46047 1.50873 1.54461 1.55596 1.56345 1.55878 1.55022 1.54903 1.54899 1.54062 1.5322 1.53028 1.52535 1.51979 1.51985 1.50977 1.50441 1.5008 1.49449 1.48963 1.48116 1.4816 1.47725 1.46869 1.46845 1.46042 1.45058 1.44638 1.44006 1.43132 1.43211 1.42541 1.42346 1.417 1.40724 1.41417 1.40077 1.39929 1.40137 1.38939 1.39082 1.38476 1.37659 1.36899 1.36853 1.3579 1.36069 1.35628 1.35125 1.33665 1.32771 1.31068 1.20837 1.01248 0.86139 0.0 0.0 0.0 0.0 0.0 0.0 0.0 0.0 0.0 0.0 0.0 0.0 0.0 0.0 0.0 0.0 0.0 1.4015 1.42448 1.43442 1.44047 1.45326 1.466 1.48369 1.49749 1.51388 1.52404 1.54441 1.56089 1.57321 1.61237 1.63155 1.6381 1.65217 1.67927 1.69986 1.71223 1.74223 1.76109 1.78738 1.80314 1.82921 1.85602 1.88155 1.91674 1.95722 1.9806 2.0196 2.04611 2.07476 2.1098 2.13497 2.18017 2.21491 2.24662 2.2801 2.30999 2.35038 2.406 2.44557 2.45404 2.4548 2.4479 2.4423 2.43048 2.42552 2.41907 2.41445 2.38932 2.38919
1.51776 1.50821 1.51399 1.50476 1.49985 1.50011 1.48721 1.49119 1.48561 1.49842 1.4924 1.4905 1.48543 1.48507 1.4838 1.47651 1.47736 1.47502 1.46806 1.46986 1.46075 1.46472 1.46034 1.45675 1.46258 1.45658 1.45685 1.44928 1.45407 1.45766 1.44964 1.44647 1.44297 1.44784 1.44104 1.43885 1.44186 1.43958 1.43258 1.43343 1.42897 1.43471 1.43486 1.43351 1.43183 1.41864 1.41687 1.41124 1.41794 1.41548 1.41976 1.40926 1.42294 1.42478 1.43873 1.46954 1.5048 1.52702 1.5356 1.53763 1.53725 1.5306 1.52629 1.53206 1.52144 1.52745 1.51229 1.51169 1.50123 1.49997 1.49212 1.4917 1.47633 1.48331 1.47862 1.46166 1.45662 1.46169 1.45211 1.44758 1.4478 1.44142 1.43621 1.42738 1.41942 1.41622 1.41778 1.40945 1.40857 1.40437 1.39627 1.39621 1.39074 1.38525 1.38542 1.37869 1.37342 1.35619 1.35357 1.3109 1.18939 0.883374 0.0 0.0 0.0 0.0 0.0 0.0 0.0 0.0 0.0 0.0 0.0 0.0 0.0 0.0 0.0 0.0 0.0 0.0 0.0 0.0 0.0 1.31584 1.43821 1.43722 1.44742 1.45668 1.46678 1.48538 1.50449 1.5159 1.52608 1.54882 1.56328 1.57561 1.61394 1.62847 1.63562 1.65438 1.68181 1.70419 1.73112 1.74399 1.77362 1.78023 1.81485 1.84529 1.86721 1.90258 1.93808 1.9599 1.97929 2.02696 2.0495 2.08992 2.11558 2.15362 2.18662 2.21943 2.26992 2.29437 2.32683 2.35767 2.41648 2.43755 2.46545 2.45529 2.44786 2.44229 2.43634 2.42945 2.42386 2.41649 2.38888 2.39403
1.50629 1.50853 1.49605 1.48841 1.49203 1.48558 1.47651 1.47542 1.48321 1.47806 1.48097 1.47171 1.47843 1.47464 1.4722 1.46288 1.46539 1.4485 1.4543 1.45235 1.45205 1.45428 1.44499 1.44509 1.44658 1.44802 1.44971 1.45078 1.44226 1.44091 1.44269 1.43864 1.44005 1.43589 1.43897 1.43821 1.4348 1.43191 1.42635 1.42748 1.42446 1.43167 1.42946 1.4187 1.41552 1.40348 1.41082 1.40782 1.40537 1.40938 1.40333 1.41024 1.40795 1.40919 1.40299 1.41187 1.41243 1.41385 1.42296 1.44393 1.4643 1.48704 1.51007 1.50065 1.50608 1.51477 1.52134 1.51299 1.50341 1.50424 1.50444 1.49357 1.49252 1.4783 1.48496 1.47246 1.4716 1.45486 1.46291 1.45209 1.45052 1.44293 1.44131 1.43786 1.429 1.42939 1.41958 1.41902 1.41814 1.41154 1.41181 1.40337 1.39431 1.39121 1.37881 1.35981 1.2693 0.959878 0.0 0.0 0.0 0.0 0.0 0.0 0.0 0.0 0.0 0.0 0.0 0.0 0.0 0.0 0.0 0.0 0.0 0.0 0.0 0.0 0.0 0.0 0.0 0.0 0.0 0.955588 1.43802 1.44768 1.46084 1.46952 1.47048 1.48644 1.50647 1.51701 1.53896 1.54733 1.57736 1.59411 1.61898 1.63002 1.64186 1.66123 1.68286 1.70556 1.7235 1.75793 1.76812 1.80377 1.8219 1.85237 1.86738 1.91464 1.9421 1.96367 2.00581 2.03629 2.05656 2.09274 2.12016 2.15455 2.18419 2.2219 2.25627 2.2981 2.33628 2.38922 2.42126 2.44266 2.44925 2.44448 2.44102 2.43716 2.43739 2.42997 2.42024 2.41901 2.40576 2.39879
1.49143 1.48285 1.47469 1.47474 1.47247 1.46929 1.4755 1.4769 1.47852 1.46688 1.46243 1.46805 1.46486 1.45679 1.46279 1.452 1.45192 1.44552 1.44845 1.45076 1.44157 1.44291 1.43386 1.43566 1.43655 1.43855 1.44021 1.43749 1.43993 1.429 1.43802 1.43336 1.43185 1.42243 1.42519 1.4177 1.41951 1.41893 1.42008 1.4247 1.42226 1.41743 1.40933 1.40147 1.39944 1.40062 1.40147 1.40111 1.40249 1.40177 1.40131 1.4026 1.39912 1.39946 1.39443 1.40093 1.40178 1.39665 1.39714 1.3976 1.39773 1.39784 1.39285 1.3935 1.39412 1.40962 1.47729 1.50083 1.50616 1.50937 1.50539 1.49451 1.49047 1.48759 1.4802 1.47667 1.47251 1.45666 1.46411 1.46197 1.4553 1.4528 1.45087 1.43994 1.44365 1.43775 1.43003 1.42707 1.42858 1.4106 1.40458 1.37816 1.32807 1.22076 0.997277 0.0 0.0 0.0 0.0 0.0 0.0 0.0 0.0 0.0 0.0 0.0 0.0 0.0 0.0 0.0 0.0 0.0 0.0 0.0 0.0 0.0 0.0 0.0 0.0 0.0 0.0 0.0 0.0 0.0 1.42595 1.44747 1.46065 1.46402 1.46854 1.50193 1.50664 1.52191 1.54124 1.5605 1.57998 1.59674 1.61931 1.63797 1.64837 1.66542 1.68737 1.71126 1.73739 1.75962 1.78379 1.80582 1.82426 1.85419 1.87734 1.91424 1.9455 1.98382 2.00786 2.03148 2.06616 2.09665 2.12211 2.15713 2.19794 2.22487 2.26044 2.30063 2.36099 2.40463 2.41892 2.4415 2.43744 2.42795 2.43604 2.43838 2.44505 2.42456 2.42237 2.42255 2.40379 2.40403
1.48171 1.46009 1.4668 1.46292 1.46645 1.46016 1.45683 1.46238 1.45778 1.45787 1.46239 1.45135 1.45178 1.45159 1.44736 1.43851 1.44323 1.44505 1.43683 1.42796 1.42415 1.42316 1.42526 1.43423 1.43136 1.42468 1.43556 1.42415 1.42337 1.43299 1.42081 1.41961 1.41574 1.41677 1.41223 1.41201 1.4059 1.40736 1.40995 1.41456 1.39889 1.39902 1.39177 1.39153 1.38772 1.3936 1.39178 1.39347 1.39927 1.39559 1.39719 1.40409 1.39379 1.38879 1.39175 1.38875 1.38959 1.38504 1.38254 1.3824 1.37776 1.37874 1.3797 1.3714 1.37051 1.38094 1.37702 1.39098 1.42943 1.46728 1.49137 1.49662 1.49766 1.49328 1.4808 1.48924 1.47789 1.4737 1.47367 1.46523 1.46426 1.46056 1.46402 1.45517 1.45139 1.44609 1.44136 1.42941 1.39645 1.30202 1.09277 0.883213 0.0 0.0 0.0 0.0 0.0 0.0 0.0 0.0 0.0 0.0 0.0 0.0 0.0 0.0 0.0 0.0 0.0 0.0 0.0 0.0 0.0 0.0 0.0 0.0 0.0 0.0 0.0 0.0 0.0 0.0 0.0 0.0 1.3522 1.46292 1.46486 1.47741 1.48724 1.50176 1.51267 1.53533 1.54142 1.56305 1.58579 1.59758 1.62252 1.64297 1.6525 1.68129 1.69301 1.71342 1.73987 1.76127 1.78925 1.81654 1.82571 1.87106 1.89277 1.91929 1.95116 1.98578 2.00842 2.04417 2.07026 2.09735 2.13833 2.1771 2.20338 2.24461 2.26597 2.33436 2.36155 2.39875 2.42723 2.42023 2.42299 2.4217 2.42648 2.43727 2.42359 2.43327 2.42804 2.41936 2.41004 2.40947
1.46226 1.46101 1.46245 1.4563 1.44838 1.449 1.45122 1.45451 1.4434 1.44767 1.43919 1.43965 1.44316 1.42451 1.43469 1.4329 1.43219 1.41886 1.43372 1.42339 1.43103 1.42457 1.42207 1.42844 1.42352 1.42346 1.41929 1.42087 1.40964 1.41082 1.4108 1.41452 1.39665 1.40407 1.39628 1.40364 1.40775 1.40773 1.40533 1.3935 1.39072 1.3826 1.3762 1.38212 1.38213 1.39243 1.39296 1.38786 1.38862 1.38995 1.38385 1.386 1.37657 1.38578 1.37716 1.37326 1.37943 1.37427 1.37474 1.38054 1.36695 1.36465 1.36918 1.36086 1.36086 1.36114 1.36527 1.3628 1.3642 1.36437 1.38008 1.40414 1.44137 1.47081 1.47987 1.4916 1.49103 1.47935 1.47902 1.47417 1.47409 1.47489 1.45737 1.45721 1.44713 1.36113 1.2595 0.995552 0.0 0.0 0.0 0.0 0.0 0.0 0.0 0.0 0.0 0.0 0.0 0.0 0.0 0.0 0.0 0.0 0.0 0.0 0.0 0.0 0.0 0.0 0.0 0.0 0.0 0.0 0.0 0.0 0.0 0.0 0.0 0.0 0.0 0.0 0.0 0.0 0.995661 1.45851 1.48 1.48486 1.49589 1.50303 1.52134 1.53841 1.55571 1.56558 1.59894 1.61073 1.64509 1.6588 1.66686 1.68014 1.7112 1.73543 1.74145 1.77454 1.79439 1.81269 1.84165 1.87455 1.90499 1.93732 1.96286 1.98798 2.00777 2.06258 2.07086 2.12499 2.16169 2.1833 2.21334 2.2255 2.29795 2.33224 2.3646 2.3996 2.40153 2.39487 2.40533 2.40776 2.42131 2.42095 2.42187 2.42154 2.4236 2.42303 2.4054 2.41235
1.46095 1.44998 1.44748 1.44628 1.4358 1.44224 1.43828 1.43955 1.4357 1.43852 1.42859 1.43071 1.42314 1.41946 1.42025 1.42269 1.42565 1.4197 1.42141 1.4202 1.42353 1.41991 1.42056 1.41884 1.40697 1.39936 1.40122 1.40247 1.39817 1.39961 1.39521 1.39395 1.38653 1.39568 1.39021 1.392 1.39492 1.38756 1.37984 1.37443 1.37691 1.36936 1.37913 1.3824 1.38269 1.38709 1.38171 1.37362 1.38296 1.37598 1.3749 1.37408 1.36937 1.37234 1.37203 1.36603 1.37071 1.36018 1.35975 1.35988 1.35998 1.35558 1.35533 1.35565 1.35565 1.35413 1.35407 1.35579 1.35658 1.35046 1.3527 1.35521 1.35771 1.36557 1.3776 1.4139 1.4373 1.46938 1.47295 1.47769 1.46441 1.4337 1.37084 1.14857 0.938243 0.0 0.0 0.0 0.0 0.0 0.0 0.0 0.0 0.0 0.0 0.0 0.0 0.0 0.0 0.0 0.0 0.0 0.0 0.0 0.0 0.0 0.0 0.0 0.0 0.0 0.0 0.0 0.0 0.0 0.0 0.0 0.0 0.0 0.0 0.0 0.0 0.0 0.0 0.0 0.731718 1.45791 1.4818 1.49851 1.49623 1.50367 1.51669 1.54382 1.55701 1.57367 1.59881 1.61151 1.63649 1.65904 1.66742 1.6898 1.71181 1.7387 1.75818 1.7799 1.7954 1.82276 1.85815 1.88845 1.9076 1.94201 1.96815 1.99128 2.02063 2.05762 2.08176 2.12589 2.1457 2.18113 2.22096 2.25972 2.31795 2.33545 2.35679 2.39015 2.39099 2.39597 2.3997 2.40865 2.40396 2.39917 2.4153 2.40524 2.39844 2.41521 2.40622 2.39576
1.44796 1.43471 1.43883 1.43954 1.43571 1.43654 1.4303 1.43378 1.42765 1.42677 1.41707 1.41831 1.4158 1.41947 1.41541 1.41041 1.41848 1.4065 1.40875 1.40033 1.40218 1.40284 1.40459 1.39823 1.40017 1.38993 1.39612 1.38865 1.38228 1.37963 1.38013 1.38293 1.38656 1.38929 1.38438 1.38264 1.37676 1.372 1.37454 1.36794 1.36982 1.36607 1.36729 1.37468 1.37466 1.37255 1.36655 1.37532 1.36807 1.36285 1.36442 1.36477 1.36629 1.36213 1.36507 1.35965 1.36016 1.35379 1.35364 1.34094 1.3467 1.34826 1.34651 1.34204 1.35339 1.35007 1.34432 1.34992 1.35131 1.35297 1.35311 1.35413 1.35452 1.34859 1.35194 1.36096 1.35765 1.35463 1.29274 1.24192 1.03492 0.0 0.0 0.0 0.0 0.0 0.0 0.0 0.0 0.0 0.0 0.0 0.0 0.0 0.0 0.0 0.0 0.0 0.0 0.0 0.0 0.0 0.0 0.0 0.0 0.0 0.0 0.0 0.0 0.0 0.0 0.0 0.0 0.0 0.0 0.0 0.0 0.0 0.0 0.0 0.0 0.0 0.0 0.0 0.0 1.39821 1.48534 1.50118 1.4992 1.51849 1.52323 1.55334 1.55886 1.58439 1.60041 1.61342 1.63785 1.66336 1.66793 1.69416 1.71736 1.73988 1.76202 1.78172 1.81067 1.82901 1.86007 1.88518 1.9154 1.94577 1.96848 2.01074 2.03837 2.06327 2.09955 2.13133 2.15951 2.18924 2.22366 2.28107 2.3165 2.33547 2.3745 2.37038 2.38717 2.382 2.39398 2.38803 2.39945 2.402 2.39602 2.40784 2.39436 2.39642 2.38806 2.39957
1.43296 1.42297 1.43817 1.41879 1.42355 1.41594 1.42731 1.42009 1.41362 1.41581 1.39673 1.40613 1.40414 1.40664 1.40738 1.39922 1.3924 1.39466 1.39516 1.39044 1.38536 1.38886 1.38222 1.394 1.38002 1.38189 1.3814 1.38231 1.37912 1.38343 1.37781 1.36981 1.38248 1.37759 1.37119 1.37119 1.36235 1.36432 1.36567 1.36757 1.35796 1.36657 1.36838 1.36189 1.36423 1.35943 1.36171 1.36395 1.3635 1.35323 1.35508 1.35275 1.35098 1.34561 1.35212 1.34758 1.35374 1.34854 1.34004 1.34105 1.33427 1.34717 1.34213 1.34782 1.34392 1.34478 1.34022 1.34163 1.34301 1.34227 1.34241 1.34912 1.34411 1.35077 1.34901 1.33402 1.26675 1.02404 0.0 0.0 0.0 0.0 0.0 0.0 0.0 0.0 0.0 0.0 0.0 0.0 0.0 0.0 0.0 0.0 0.0 0.0 0.715987 0.690947 0.68783 0.692511 0.0 0.0 0.0 0.0 0.0 0.0 0.0 0.0 0.0 0.0 0.0 0.0 0.0 0.0 0.0 0.0 0.0 0.0 0.0 0.0 0.0 0.0 0.0 0.0 0.0 1.05854 1.4942 1.5062 1.51073 1.525 1.53537 1.54509 1.57102 1.5948 1.61172 1.61501 1.65183 1.67059 1.6734 1.69584 1.71906 1.74953 1.76495 1.79462 1.82797 1.83756 1.8736 1.88767 1.92141 1.95211 1.98732 2.00556 2.04395 2.07638 2.11269 2.13126 2.16321 2.19758 2.25499 2.28493 2.30784 2.33856 2.36454 2.35762 2.36567 2.36056 2.3678 2.37661 2.374 2.3772 2.39823 2.37592 2.37623 2.39844 2.38035 2.40054
1.42232 1.42061 1.41547 1.41832 1.41552 1.41011 1.41977 1.41364 1.40403 1.4059 1.39922 1.39303 1.3947 1.39717 1.38932 1.39025 1.39255 1.39279 1.37922 1.37991 1.382 1.38087 1.37738 1.38712 1.3792 1.37439 1.37794 1.37448 1.38551 1.37847 1.374 1.37532 1.37455 1.36876 1.36527 1.36144 1.35522 1.3563 1.35704 1.35363 1.35932 1.3582 1.35616 1.35733 1.35877 1.34834 1.35504 1.34957 1.35029 1.35127 1.3454 1.34514 1.34663 1.34661 1.34775 1.34023 1.33624 1.33044 1.33116 1.33575 1.33045 1.3314 1.33921 1.33263 1.34458 1.34005 1.34058 1.34198 1.34217 1.34323 1.34366 1.34557 1.33395 1.28206 1.13612 0.925501 0.0 0.0 0.0 0.0 0.0 0.0 0.0 0.0 0.0 0.0 0.0 0.0 0.0 0.0 0.0 0.0 0.0 0.0 0.65982 0.675685 0.678605 0.677905 0.685611 0.68188 0.0 0.0 0.0 0.0 0.0 0.0 0.0 0.0 0.0 0.0 0.0 0.0 0.0 0.0 0.0 0.0 0.0 0.0 0.0 0.0 0.0 0.0 0.0 0.0 0.0 0.749862 1.48522 1.50792 1.52433 1.5309 1.53654 1.55574 1.57637 1.58716 1.61798 1.63396 1.66638 1.67602 1.6909 1.70864 1.73042 1.75122 1.77458 1.81393 1.83093 1.84725 1.86378 1.90352 1.9271 1.95841 1.98901 2.01308 2.04282 2.0831 2.10444 2.13833 2.16312 2.2145 2.25301 2.28587 2.31111 2.33788 2.33482 2.33651 2.33639 2.34411 2.34944 2.35407 2.36733 2.36888 2.37649 2.359 2.37448 2.36828 2.36392 2.36196
1.41021 1.39983 1.39964 1.40189 1.40463 1.39665 1.40009 1.39277 1.39382 1.3917 1.39064 1.39575 1.38576 1.38507 1.39002 1.3775 1.38922 1.38916 1.38043 1.37307 1.37456 1.36562 1.36787 1.36776 1.36819 1.37118 1.36194 1.37416 1.37587 1.36531 1.37336 1.3659 1.36365 1.36399 1.36136 1.3496 1.34687 1.34588 1.34867 1.3476 1.33529 1.34831 1.34714 1.34711 1.34854 1.34845 1.34952 1.34789 1.34593 1.34573 1.34014 1.33511 1.3357 1.33626 1.33978 1.32448 1.32943 1.32451 1.32762 1.33221 1.33318 1.33293 1.33476 1.33566 1.34492 1.34248 1.34121 1.34291 1.34249 1.32975 1.27794 1.12848 0.946463 0.0 0.0 0.0 0.0 0.0 0.0 0.0 0.0 0.0 0.0 0.0 0.0 0.0 0.0 0.0 0.0 0.0 0.0 0.0 0.0 0.0 0.0 0.674945 0.676363 0.677769 0.678863 0.680846 0.0 0.0 0.0 0.0 0.0 0.0 0.0 0.0 0.0 0.0 0.0 0.0 0.0 0.0 0.0 0.0 0.0 0.0 0.0 0.0 0.0 0.0 0.0 0.0 0.0 0.0 1.44913 1.50843 1.52693 1.53291 1.5436 1.55749 1.57399 1.59072 1.62097 1.63992 1.65496 1.67641 1.6919 1.71319 1.73176 1.75611 1.78301 1.81097 1.82975 1.86305 1.8898 1.90477 1.93886 1.96409 1.99065 2.03332 2.05728 2.08602 2.11028 2.1367 2.16788 2.23599 2.25758 2.27958 2.31231 2.32827 2.32638 2.33637 2.33229 2.32927 2.34655 2.345 2.35295 2.3492 2.36336 2.36275 2.35642 2.34803 2.34319 2.36384
1.39943 1.39512 1.39964 1.39013 1.38582 1.38873 1.39102 1.3845 1.3858 1.37997 1.37235 1.37402 1.37677 1.3655 1.37812 1.36985 1.36923 1.3674 1.37184 1.37107 1.36678 1.35954 1.3531 1.36223 1.36177 1.3633 1.36508 1.36449 1.35453 1.36055 1.35194 1.35293 1.34304 1.34189 1.33747 1.33799 1.32966 1.33335 1.33966 1.33209 1.33332 1.33394 1.33245 1.33537 1.3353 1.33757 1.34278 1.34054 1.33798 1.33628 1.33424 1.3292 1.328 1.32468 1.32818 1.32779 1.32826 1.3305 1.32286 1.33103 1.3314 1.33384 1.33267 1.34465 1.33354 1.33259 1.31541 1.25438 1.0765 0.891274 0.0 0.0 0.0 0.0 0.0 0.0 0.0 0.0 0.0 0.0 0.0 0.0 0.0 0.0 0.0 0.731944 0.711493 0.697655 0.0 0.0 0.0 0.0 0.0 0.0 0.0 0.675997 0.676212 0.678824 0.676306 0.679796 0.697415 0.0 0.0 0.0 0.0 0.0 0.0 0.0 0.0 0.0 0.0 0.0 0.0 0.0 0.0 0.0 0.0 0.0 0.0 0.0 0.0 0.0 0.0 0.0 0.0 0.0 1.18359 1.5092 1.53396 1.54321 1.55093 1.55861 1.57927 1.60667 1.62393 1.64998 1.66946 1.69093 1.70141 1.72272 1.75276 1.76449 1.79199 1.81528 1.84228 1.87414 1.8901 1.91618 1.9436 1.97846 2.00562 2.03351 2.06359 2.09352 2.11896 2.13848 2.2141 2.23875 2.24426 2.29015 2.29196 2.31199 2.30758 2.30822 2.31503 2.33081 2.32544 2.33924 2.33621 2.34155 2.33802 2.3417 2.34665 2.35258 2.33044 2.32109
1.38747 1.39593 1.37837 1.38306 1.38601 1.37907 1.38048 1.37195 1.36897 1.36535 1.36762 1.36699 1.36686 1.36725 1.36873 1.36357 1.35547 1.35017 1.35831 1.35722 1.35895 1.34908 1.34493 1.35752 1.35705 1.36379 1.35043 1.35389 1.33837 1.3397 1.33514 1.32907 1.32823 1.32764 1.32495 1.32605 1.32652 1.32872 1.32707 1.32833 1.32955 1.31627 1.32038 1.32121 1.32705 1.32694 1.32917 1.32395 1.33177 1.32619 1.3289 1.33011 1.32622 1.31842 1.3258 1.3242 1.32766 1.32422 1.32972 1.32234 1.32839 1.32784 1.32036 1.29906 1.20904 0.941563 0.0 0.0 0.0 0.0 0.0 0.0 0.0 0.0 0.0 0.0 0.0 0.0 0.0 0.0 0.0 0.0 0.0 0.693738 0.693491 0.685395 0.686632 0.696296 0.0 0.0 0.0 0.0 0.0 0.0 0.0 0.65956 0.676047 0.682878 0.691804 0.706436 0.710814 0.0 0.0 0.722959 0.688777 0.677155 0.678754 0.0 0.0 0.0 0.0 0.0 0.0 0.0 0.0 0.0 0.0 0.0 0.0 0.0 0.0 0.0 0.0 0.0 0.0 0.0 0.78905 1.52035 1.53382 1.54547 1.56032 1.57957 1.59223 1.60691 1.62596 1.64199 1.67745 1.69125 1.70499 1.72338 1.75375 1.77637 1.79449 1.81546 1.84219 1.87877 1.89182 1.92699 1.9483 1.9695 2.00747 2.03743 2.07334 2.08823 2.11487 2.17749 2.2084 2.22963 2.2513 2.28086 2.28643 2.28789 2.28725 2.28624 2.29967 2.3047 2.3065 2.32349 2.31825 2.32562 2.32412 2.33236 2.32754 2.33438 2.31285 2.32251
1.38212 1.37326 1.37743 1.37454 1.3769 1.36569 1.36791 1.35904 1.37018 1.36116 1.35545 1.35364 1.36061 1.35812 1.35128 1.35324 1.3563 1.35011 1.34559 1.34446 1.3479 1.34552 1.34916 1.35683 1.34822 1.3407 1.33632 1.32897 1.32419 1.32053 1.32706 1.31628 1.3116 1.3148 1.31444 1.31493 1.32128 1.31876 1.32918 1.31715 1.31156 1.31451 1.31477 1.3153 1.31402 1.31359 1.31373 1.31949 1.32047 1.32112 1.32204 1.32264 1.31784 1.32167 1.3195 1.32985 1.32972 1.31999 1.3222 1.3154 1.2906 1.16293 0.960746 0.0 0.0 0.0 0.0 0.0 0.0 0.0 0.0 0.0 0.0 0.0 0.0 0.0 0.0 0.0 0.0 0.0 0.0 0.0 0.0 0.69176 0.688196 0.692159 0.68495 0.697034 0.0 0.0 0.0 0.0 0.0 0.0 0.0 0.683191 0.712648 0.0 0.0 0.0 0.0 0.0 0.67451 0.675547 0.674465 0.674274 0.68069 0.692201 0.0 0.0 0.0 0.0 0.0 0.0 0.0 0.0 0.0 0.0 0.0 0.0 0.0 0.0 0.0 0.0 0.0 0.0 0.0 1.48921 1.54467 1.55839 1.56523 1.58123 1.60369 1.61867 1.63981 1.66354 1.6792 1.70631 1.70884 1.72253 1.7597 1.77763 1.81164 1.83937 1.84617 1.8737 1.90989 1.93016 1.95383 1.99313 2.0084 2.05613 2.07812 2.10289 2.14142 2.19047 2.22458 2.24438 2.24821 2.26545 2.27365 2.26914 2.26683 2.28558 2.28421 2.28902 2.29229 2.30111 2.30216 2.31638 2.30195 2.30463 2.31927 2.32028 2.31277 2.31717
1.36668 1.3681 1.36973 1.36063 1.36351 1.36662 1.35358 1.35315 1.34897 1.35067 1.35545 1.35277 1.34804 1.33608 1.34893 1.34744 1.34588 1.33967 1.33771 1.34377 1.34893 1.33931 1.3467 1.33522 1.3283 1.31812 1.32011 1.31623 1.31522 1.30803 1.30956 1.31106 1.31223 1.3169 1.31565 1.3179 1.31541 1.31612 1.31267 1.3142 1.31067 1.31007 1.30558 1.31321 1.30213 1.30377 1.30419 1.30488 1.30853 1.30946 1.30829 1.30828 1.31152 1.31803 1.31735 1.31514 1.3165 1.27473 1.16011 0.93838 0.0 0.0 0.0 0.0 0.0 0.0 0.0 0.0 0.0 0.0 0.0 0.0 0.0 0.0 0.0 0.0 0.0 0.0 0.0 0.0 0.0 0.0 0.0 0.67981 0.68801 0.685638 0.688988 0.691422 0.702897 0.0 0.0 0.0 0.0 0.0 0.0 0.0 0.0 0.0 0.0 0.0 0.0 0.0 0.670403 0.675058 0.673675 0.675592 0.6784 0.674273 0.0 0.0 0.0 0.0 0.0 0.0 0.0 0.0 0.0 0.0 0.0 0.0 0.0 0.0 0.0 0.0 0.0 0.0 0.0 1.29624 1.54715 1.56655 1.57725 1.59653 1.59971 1.61856 1.64001 1.66317 1.67944 1.70421 1.71797 1.74317 1.76532 1.79122 1.81878 1.83948 1.86125 1.88411 1.91271 1.92891 1.97306 1.99312 2.02618 2.05677 2.08373 2.11868 2.15984 2.18605 2.20836 2.22591 2.24678 2.24535 2.2516 2.25201 2.26464 2.25827 2.26439 2.28293 2.27031 2.28573 2.28598 2.29659 2.29802 2.29989 2.29462 2.29654 2.28574 2.30755
1.35313 1.3668 1.35889 1.35171 1.35484 1.35651 1.34738 1.34268 1.34839 1.34127 1.33606 1.33761 1.33626 1.33742 1.33337 1.33815 1.33944 1.34127 1.33756 1.34535 1.3323 1.33363 1.30854 1.30424 1.3057 1.29781 1.30705 1.30052 1.30094 1.31625 1.30343 1.31225 1.31342 1.31514 1.31536 1.31437 1.31039 1.31227 1.30467 1.30412 1.30442 1.29937 1.29545 1.29684 1.29821 1.29687 1.30531 1.29321 1.30518 1.30373 1.3106 1.31178 1.29382 0.850602 1.24341 1.06853 0.887747 0.0 0.0 0.0 0.0 0.0 0.0 0.0 0.0 0.0 0.0 0.0 0.0 0.0 0.0 0.0 0.0 0.728472 0.704535 0.697461 0.716613 0.0 0.0 0.0 0.0 0.0 0.0 0.659982 0.690227 0.685438 0.690904 0.69817 0.707841 0.0 0.0 0.0 0.0 0.713433 0.69616 0.0 0.0 0.0 0.0 0.0 0.0 0.0 0.658139 0.679377 0.675582 0.673585 0.675191 0.675278 0.0 0.0 0.0 0.0 0.0 0.0 0.0 0.0 0.0 0.0 0.0 0.0 0.0 0.0 0.0 0.0 0.0 0.0 0.0 0.879456 1.54544 1.572 1.58598 1.59843 1.61053 1.62316 1.64285 1.66513 1.69207 1.70384 1.72944 1.74461 1.76355 1.80066 1.82118 1.84131 1.86575 1.88715 1.91373 1.9478 1.98349 1.99481 2.02674 2.04717 2.08639 2.14083 2.15358 2.18852 2.21867 2.22352 2.24501 2.23784 2.23952 2.24915 2.24634 2.23801 2.26019 2.26765 2.25734 2.27026 2.28106 2.27557 2.27339 2.29902 2.27323 2.2828 2.26308 2.27157
1.34845 1.34532 1.33846 1.33656 1.33852 1.34155 1.34283 1.3364 1.33641 1.32869 1.33113 1.33352 1.329 1.33214 1.33008 1.33054 1.33411 1.32871 1.32989 1.32379 1.31184 1.29923 1.29177 1.30487 1.29788 1.29871 1.30008 1.29965 1.30972 1.30133 1.31105 1.30579 1.30694 1.30924 1.30827 1.2943 1.30268 1.29481 1.30343 1.29755 1.29903 1.29663 1.29626 1.28964 1.28861 1.28697 1.29243 1.29162 1.29524 1.30183 1.30094 1.27315 1.17776 0.0 0.0 0.0 0.0 0.0 0.0 0.0 0.0 0.0 0.0 0.0 0.0 0.0 0.0 0.0 0.0 0.0 0.0 0.668811 0.691914 0.697527 0.693176 0.701482 0.706159 0.0 0.0 0.0 0.0 0.0 0.0 0.0 0.699987 0.710906 0.714261 0.0 0.0 0.0 0.683145 0.685534 0.682776 0.680308 0.687798 0.704335 0.0 0.0 0.0 0.0 0.0 0.0 0.0 0.676451 0.678685 0.675782 0.684923 0.701577 0.0 0.0 0.0 0.0 0.0 0.0 0.0 0.0 0.0 0.0 0.0 0.0 0.0 0.0 0.0 0.0 0.0 0.0 0.0 0.0 1.5431 1.57147 1.58904 1.59971 1.61806 1.62565 1.64298 1.66677 1.69314 1.7138 1.72936 1.75725 1.77796 1.80271 1.82206 1.84222 1.86668 1.89926 1.93084 1.95467 1.97401 2.01194 2.02871 2.05149 2.11257 2.15046 2.16758 2.18863 2.20752 2.20171 2.22037 2.21844 2.22794 2.22871 2.22279 2.24773 2.2299 2.24201 2.2554 2.2567 2.25733 2.26182 2.26392 2.27015 2.27145 2.27038 2.25743 2.27155
1.33003 1.33496 1.33423 1.33427 1.32917 1.33217 1.32409 1.32639 1.32808 1.32971 1.33214 1.31853 1.32084 1.32625 1.32072 1.32403 1.32643 1.3213 1.30917 1.30101 1.29277 1.29578 1.29526 1.29121 1.28944 1.29753 1.30094 1.3008 1.30063 1.30393 1.29547 1.3031 1.29455 1.29595 1.29496 1.29275 1.29375 1.29443 1.28856 1.29805 1.28767 1.28852 1.28725 1.29011 1.29117 1.28654 1.27682 1.24143 1.24114 1.14983 0.940414 0.0 0.0 0.0 0.0 0.0 0.0 0.0 0.0 0.0 0.0 0.0 0.0 0.0 0.0 0.0 0.0 0.0 0.0 0.0 0.0 0.0 0.699842 0.694596 0.69839 0.694325 0.698399 0.0 0.0 0.0 0.0 0.0 0.0 0.0 0.0 0.0 0.0 0.0 0.0 0.0 0.661151 0.683796 0.679828 0.6828 0.687875 0.690219 0.0 0.0 0.0 0.0 0.0 0.0 0.0 0.687389 0.692941 0.0 0.0 0.0 0.0 0.0 0.0 0.0 0.0 0.0 0.0 0.0 0.0 0.0 0.0 0.0 0.0 0.0 0.0 0.0 0.0 0.0 0.0 0.0 1.42144 1.57656 1.601 1.61048 1.61694 1.63583 1.6505 1.67934 1.70335 1.71218 1.73456 1.75774 1.77995 1.80413 1.82409 1.84367 1.87287 1.90429 1.93531 1.95242 1.9952 2.01414 2.028 2.08144 2.11341 2.13476 2.15656 2.1823 2.18848 2.20411 2.19854 2.19492 2.21254 2.21192 2.22326 2.22158 2.23184 2.22597 2.23914 2.23736 2.25111 2.24685 2.25749 2.25359 2.2572 2.25984 2.23514 2.25578
1.32104 1.31614 1.31199 1.31956 1.32006 1.31201 1.32255 1.31265 1.31174 1.31389 1.316 1.31778 1.30634 1.31945 1.3139 1.3169 1.30834 1.30057 1.28926 1.28829 1.29045 1.28648 1.29001 1.28973 1.29552 1.29254 1.29827 1.28847 1.2912 1.28921 1.29041 1.28775 1.2877 1.28938 1.28985 1.28645 1.28596 1.27894 1.28667 1.28046 1.28814 1.28363 1.27939 1.28016 1.2815 1.2596 1.19622 0.0 0.0 0.0 0.0 0.0 0.0 0.0 0.0 0.0 0.0 0.0 0.0 0.0 0.0 0.0 0.0 0.0 0.739234 0.0 0.0 0.0 0.0 0.0 0.0 0.0 0.686939 0.693762 0.693934 0.694396 0.702701 0.0 0.0 0.0 0.0 0.0 0.0 0.724583 0.0 0.0 0.0 0.0 0.0 0.0 0.0 0.686581 0.680493 0.687398 0.683102 0.689983 0.0 0.0 0.0 0.0 0.0 0.0 0.0 0.0 0.0 0.0 0.0 0.0 0.0 0.0 0.0 0.0 0.0 0.0 0.0 0.0 0.0 0.0 0.0 0.0 0.0 0.0 0.0 0.0 0.0 0.0 0.0 0.0 1.06151 1.57836 1.60132 1.60992 1.63037 1.64272 1.65621 1.68032 1.70524 1.71527 1.73944 1.75849 1.78544 1.80669 1.84377 1.86011 1.88372 1.90371 1.93592 1.95833 1.99616 2.01278 2.03952 2.09444 2.11565 2.13644 2.15391 2.17358 2.17834 2.18591 2.185 2.19412 2.1916 2.20482 2.20471 2.20796 2.20309 2.21529 2.22394 2.22363 2.23033 2.22328 2.23542 2.23384 2.24118 2.23403 2.21499 2.24273
1.31732 1.31267 1.31271 1.30705 1.30384 1.30676 1.30397 1.30537 1.30842 1.30856 1.30495 1.30498 1.30982 1.30458 1.30646 1.29995 1.28645 1.28267 1.28057 1.28218 1.28172 1.28528 1.2824 1.2888 1.28963 1.29305 1.283 1.28751 1.28525 1.28002 1.27856 1.28 1.27287 1.27541 1.2738 1.27362 1.27578 1.27672 1.27852 1.28119 1.28323 1.2897 1.27625 1.26661 0.998302 0.0 0.0 0.0 0.0 0.0 0.0 0.0 0.0 0.0 0.0 0.0 0.0 0.0 0.0 0.0 0.0 0.746166 0.708594 0.7071 0.713724 0.728474 0.0 0.0 0.0 0.0 0.0 0.0 0.677935 0.697144 0.700942 0.708355 0.714853 0.0 0.0 0.735196 0.710802 0.695768 0.701593 0.698634 0.0 0.0 0.0 0.0 0.0 0.0 0.0 0.683304 0.680542 0.681399 0.684665 0.691549 0.0 0.0 0.0 0.0 0.0 0.708084 0.699464 0.0 0.0 0.0 0.0 0.0 0.0 0.0 0.0 0.0 0.0 0.0 0.0 0.0 0.0 0.0 0.0 0.0 0.0 0.0 0.0 0.0 0.0 0.0 0.0 0.0 0.734286 1.58072 1.59862 1.6117 1.63157 1.6487 1.66814 1.69226 1.70265 1.73017 1.74102 1.77755 1.78825 1.81306 1.84161 1.86121 1.90309 1.92307 1.94619 1.9604 1.99708 2.01635 2.08112 2.09925 2.11697 2.13982 2.15702 2.16045 2.1725 2.1743 2.18123 2.17882 2.17374 2.18903 2.18638 2.19541 2.20432 2.21483 2.20866 2.20782 2.214 2.22177 2.21807 2.21456 2.2262 2.21768 2.21527 2.22454
1.3046 1.2999 1.29737 1.30068 1.30337 1.29497 1.30178 1.29634 1.29282 1.30661 1.29584 1.29527 1.29837 1.29511 1.29668 1.2792 1.27199 1.2702 1.27386 1.27835 1.27991 1.27765 1.27825 1.28318 1.28545 1.27893 1.28201 1.27421 1.27604 1.27284 1.27812 1.26867 1.26918 1.27083 1.27068 1.26489 1.2759 1.27063 1.27894 1.28219 1.27563 1.24348 1.08014 0.865929 0.0 0.0 0.0 0.0 0.0 0.0 0.0 0.0 0.0 0.0 0.0 0.0 0.0 0.0 0.0 0.0 0.0 0.702012 0.703839 0.702341 0.708362 0.715883 0.0 0.0 0.0 0.0 0.0 0.0 0.0 0.721972 0.0 0.0 0.0 0.0 0.0 0.694413 0.690882 0.695509 0.691954 0.694744 0.0 0.0 0.0 0.0 0.0 0.0 0.0 0.680919 0.697834 0.703231 0.0 0.0 0.0 0.0 0.692812 0.682104 0.679554 0.684854 0.686211 0.0 0.0 0.0 0.0 0.0 0.0 0.0 0.0 0.0 0.0 0.0 0.0 0.0 0.0 0.0 0.0 0.0 0.0 0.0 0.0 0.0 0.0 0.0 0.0 0.0 0.0 1.52932 1.60425 1.62568 1.64645 1.6484 1.67291 1.69258 1.71902 1.73498 1.75976 1.77883 1.79753 1.81644 1.84028 1.87111 1.9027 1.93124 1.94966 1.96946 1.99737 2.0439 2.08616 2.09992 2.12087 2.14549 2.14204 2.16062 2.16195 2.15624 2.16669 2.17182 2.16042 2.17201 2.1786 2.17503 2.17741 2.17711 2.19644 2.19251 2.20557 2.19604 2.20772 2.20679 2.20577 2.20041 2.17667 2.20402
1.29686 1.29831 1.28957 1.29201 1.29128 1.28935 1.29047 1.29239 1.29369 1.29265 1.29355 1.29125 1.28946 1.28273 1.26902 1.26357 1.26932 1.2652 1.27695 1.27188 1.27371 1.27201 1.27318 1.2746 1.27599 1.2785 1.27367 1.2726 1.27148 1.26681 1.26532 1.26055 1.25868 1.26239 1.25661 1.25877 1.25884 1.25976 1.24494 1.12653 0.891185 0.0 0.0 0.0 0.0 0.0 0.0 0.0 0.0 0.0 0.0 0.0 0.0 0.0 0.0 0.0 0.0 0.0 0.0 0.0 0.0 0.707778 0.709005 0.706302 0.707805 0.712916 0.0 0.0 0.0 0.0 0.0 0.0 0.0 0.0 0.0 0.0 0.0 0.0 0.0 0.686271 0.692728 0.692816 0.694709 0.693866 0.0 0.0 0.0 0.0 0.0 0.0 0.0 0.0 0.0 0.0 0.0 0.0 0.0 0.0 0.678919 0.678499 0.680184 0.680043 0.679889 0.0 0.0 0.0 0.0 0.0 0.0 0.0 0.0 0.0 0.0 0.0 0.0 0.0 0.0 0.0 0.0 0.0 0.0 0.0 0.0 0.0 0.0 0.0 0.0 0.0 0.0 1.14814 1.5988 1.63069 1.65743 1.65848 1.67408 1.70417 1.71933 1.74599 1.75862 1.78008 1.79791 1.83516 1.86137 1.88511 1.91141 1.93407 1.93546 1.97086 2.00583 2.07905 2.08794 2.10083 2.11393 2.12138 2.1401 2.13049 2.13333 2.14333 2.14078 2.14164 2.15915 2.15982 2.1627 2.17555 2.17335 2.17165 2.173 2.18624 2.18852 2.187 2.18935 2.18706 2.18666 2.18446 2.16583 2.18818
1.29188 1.28376 1.28707 1.28921 1.29299 1.28369 1.27769 1.28072 1.28312 1.28491 1.28436 1.27916 1.27075 1.25909 1.25597 1.26318 1.26026 1.2619 1.27336 1.26043 1.26341 1.26489 1.26662 1.26045 1.25714 1.25787 1.25915 1.2645 1.25516 1.25456 1.25629 1.25622 1.25287 1.25626 1.249 1.24553 1.17514 0.0 0.0 0.0 0.0 0.0 0.0 0.0 0.0 0.0 0.0 0.0 0.0 0.0 0.0 0.0 0.0 0.0 0.0 0.0 0.0 0.0 0.0 0.0 0.0 0.679801 0.703013 0.708144 0.705727 0.72351 0.73224 0.0 0.0 0.0 0.740791 0.709267 0.0 0.0 0.0 0.0 0.0 0.0 0.0 0.678715 0.695774 0.694651 0.695333 0.695095 0.711511 0.0 0.0 0.0 0.0 0.0 0.0 0.0 0.0 0.0 0.0 0.0 0.0 0.0 0.670453 0.676391 0.676868 0.675516 0.679903 0.694864 0.0 0.0 0.0 0.0 0.0 0.0 0.0 0.0 0.0 0.0 0.0 0.0 0.0 0.0 0.0 0.0 0.0 0.0 0.0 0.0 0.0 0.0 0.0 0.0 0.0 0.762974 1.41687 1.56467 1.635 1.65961 1.67581 1.69314 1.72079 1.7448 1.75686 1.78218 1.8092 1.84292 1.85732 1.87932 1.90417 1.92921 1.9565 1.99808 2.04009 2.04442 2.07445 2.09059 2.09875 2.11002 2.12179 2.13025 2.12555 2.13094 2.14117 2.13943 2.13011 2.14814 2.15595 2.15589 2.1546 2.16841 2.1715 2.17193 2.16513 2.16736 2.17971 2.18 2.17284 2.17463 2.15378 2.18855
1.28517 1.28123 1.27665 1.2796 1.2726 1.26976 1.27197 1.27497 1.27964 1.28455 1.26911 1.25528 1.25571 1.25149 1.25383 1.25007 1.2604 1.25568 1.25727 1.26201 1.25946 1.25714 1.2609 1.2553 1.25664 1.25766 1.25191 1.25227 1.25435 1.24787 1.25076 1.24567 1.24702 1.24332 1.23899 1.23758 0.0 0.0 0.0 0.0 0.0 0.0 0.0 0.0 0.0 0.0 0.0 0.0 0.0 0.0 0.0 0.0 0.0 0.0 0.0 0.0 0.0 0.0 0.0 0.0 0.0 0.672578 0.709665 0.726262 0.720531 0.0 0.0 0.70686 0.709523 0.702201 0.701816 0.703234 0.710993 0.0 0.0 0.0 0.0 0.0 0.0 0.0 0.695175 0.696779 0.706857 0.711773 0.0 0.0 0.0 0.721319 0.691613 0.691912 0.692805 0.0 0.0 0.0 0.0 0.0 0.0 0.0 0.663784 0.680631 0.68565 0.679755 0.686262 0.685491 0.0 0.0 0.0 0.0 0.0 0.722921 0.0 0.0 0.0 0.0 0.0 0.0 0.0 0.0 0.0 0.0 0.0 0.0 0.0 0.0 0.0 0.0 0.0 0.0 0.0 0.0 1.21711 1.24783 1.31665 1.45627 1.62034 1.69277 1.73352 1.7504 1.76573 1.80174 1.81543 1.83762 1.85323 1.88913 1.91458 1.94228 1.97046 2.02969 2.0482 2.04784 2.07466 2.08614 2.08818 2.09861 2.10604 2.10464 2.12091 2.11848 2.11686 2.1279 2.13768 2.13754 2.14942 2.13903 2.15243 2.15193 2.14791 2.14611 2.1599 2.15362 2.1501 2.16522 2.15753 2.1574 2.14476 2.15512
1.27561 1.27445 1.26815 1.26684 1.27367 1.27026 1.2716 1.27602 1.26556 1.26101 1.24609 1.24769 1.24264 1.25162 1.24646 1.25191 1.25531 1.24855 1.25244 1.25223 1.24268 1.25111 1.25165 1.24836 1.24121 1.24484 1.24522 1.24498 1.24117 1.24173 1.23695 1.23891 1.2376 1.24363 1.23013 1.23078 0.942526 0.0 0.0 0.0 0.0 0.0 0.0 0.0 0.0 0.0 0.0 0.0 0.0 0.0 0.0 0.0 0.0 0.0 0.0 0.0 0.0 0.0 0.0 0.0 0.0 0.0 0.0 0.0 0.0 0.0 0.0 0.679364 0.697738 0.702807 0.697582 0.702932 0.707365 0.0 0.0 0.0 0.0 0.0 0.0 0.0 0.711237 0.0 0.0 0.0 0.0 0.0 0.68976 0.690688 0.692515 0.689174 0.694011 0.71582 0.0 0.0 0.0 0.0 0.0 0.0 0.0 0.687892 0.689579 0.698524 0.0 0.0 0.0 0.0 0.701859 0.681985 0.674506 0.675181 0.696387 0.0 0.0 0.0 0.0 0.0 0.0 0.0 0.0 0.0 0.0 0.0 0.0 0.0 0.0 0.0 0.0 0.0 0.0 0.0 1.14176 1.20898 1.20059 1.20738 1.23291 1.31492 1.508 1.6912 1.77844 1.80705 1.8163 1.84413 1.87216 1.89122 1.91669 1.92849 1.99853 2.02776 2.04982 2.04564 2.0678 2.07638 2.09393 2.0886 2.10014 2.09934 2.09236 2.10625 2.11684 2.114 2.11832 2.11967 2.11401 2.13304 2.1298 2.13194 2.12825 2.14479 2.13948 2.13838 2.15196 2.1461 2.14498 2.13952 2.13341 2.14241
1.25926 1.26566 1.26581 1.26223 1.2614 1.26476 1.26551 1.26336 1.24887 1.2337 1.23962 1.23805 1.24073 1.2451 1.24627 1.24103 1.24065 1.24427 1.24642 1.23835 1.24564 1.24184 1.24295 1.24431 1.24241 1.23345 1.23879 1.23736 1.23824 1.2282 1.23489 1.24097 1.23788 1.22885 1.22893 1.21861 1.13118 0.0 0.0 0.0 0.0 0.0 0.0 0.0 0.0 0.0 0.0 0.0 0.0 0.0 0.0 0.0 0.0 0.0 0.0 0.0 0.0 0.0 0.0 0.0 0.0 0.0 0.0 0.0 0.0 0.0 0.0 0.0 0.693794 0.698258 0.700292 0.697774 0.704024 0.0 0.0 0.0 0.0 0.0 0.0 0.0 0.0 0.0 0.0 0.0 0.0 0.0 0.677602 0.687633 0.691888 0.686422 0.690351 0.695481 0.0 0.0 0.0 0.0 0.0 0.0 0.0 0.0 0.0 0.0 0.0 0.0 0.0 0.667844 0.678241 0.672284 0.672064 0.67909 0.685192 0.0 0.0 0.0 0.0 0.0 0.0 0.0 0.0 0.0 0.0 0.0 0.0 0.0 0.0 0.0 0.0 0.0 0.0 0.0 0.945834 1.19577 1.19485 1.18793 1.18279 1.17823 1.19447 1.22969 1.36491 1.56721 1.75072 1.8515 1.87332 1.90688 1.90844 1.97247 2.00449 2.02784 2.02787 2.05074 2.07409 2.07534 2.07244 2.07649 2.08718 2.0867 2.08819 2.08873 2.10574 2.098 2.11162 2.10057 2.11283 2.10827 2.13067 2.10641 2.12399 2.12453 2.12299 2.13105 2.12447 2.13458 2.12952 2.12608 2.12114 2.12513
1.25495 1.24499 1.25582 1.25814 1.25332 1.25269 1.24487 1.23868 1.22785 1.22636 1.23627 1.23239 1.22873 1.22904 1.23335 1.23675 1.23809 1.23881 1.24152 1.23896 1.23374 1.23516 1.23683 1.23789 1.2313 1.22905 1.23087 1.22619 1.22734 1.22847 1.22956 1.22531 1.22426 1.2226 1.21763 1.22123 1.20907 0.0 0.0 0.0 0.0 0.0 0.0 0.0 0.0 0.0 0.0 0.0 0.0 0.0 0.0 0.0 0.0 0.0 0.0 0.0 0.0 0.0 0.0 0.0 0.0 0.0 0.0 0.0 0.0 0.0 0.0 0.0 0.689835 0.697023 0.698451 0.698656 0.717025 0.0 0.0 0.0 0.0 0.736335 0.716749 0.71747 0.0 0.0 0.0 0.0 0.0 0.0 0.670583 0.687296 0.688821 0.686691 0.694264 0.695754 0.0 0.0 0.0 0.0 0.0 0.0 0.0 0.0 0.0 0.0 0.0 0.0 0.0 0.669623 0.67518 0.668919 0.672635 0.672707 0.679116 0.0 0.0 0.0 0.0 0.0 0.0 0.0 0.0 0.0 0.0 0.0 0.0 0.0 0.0 0.0 0.0 0.0 0.0 0.0 0.769166 1.18791 1.18669 1.18277 1.17137 1.18052 1.17087 1.17698 1.17622 1.19205 1.25647 1.40281 1.65244 1.82109 1.93056 1.989 2.00775 2.02582 2.02586 2.05198 2.04982 2.05287 2.05878 2.06111 2.06132 2.06992 2.06911 2.0854 2.08443 2.08281 2.09358 2.09238 2.08996 2.08689 2.08777 2.09776 2.10332 2.10821 2.11128 2.10598 2.11397 2.11929 2.12562 2.12644 2.10034 2.11312
1.24384 1.25471 1.24634 1.24666 1.24833 1.23716 1.22561 1.21994 1.21506 1.22727 1.23145 1.22554 1.22158 1.22821 1.22645 1.22781 1.23 1.22346 1.22556 1.22472 1.22558 1.22756 1.22572 1.22179 1.22337 1.22462 1.21909 1.22027 1.22053 1.22253 1.21948 1.22082 1.21563 1.20981 1.2072 1.20425 1.20632 0.0 0.0 0.0 0.0 0.0 0.0 0.0 0.0 0.0 0.0 0.0 0.0 0.0 0.0 0.0 0.0 0.0 0.0 0.0 0.0 0.0 0.0 0.0 0.0 0.0 0.0 0.0 0.0 0.0 0.0 0.0 0.674056 0.713031 0.728699 0.0 0.0 0.0 0.696131 0.704779 0.700074 0.697175 0.701848 0.707726 0.0 0.0 0.0 0.0 0.0 0.0 0.0 0.691501 0.691204 0.694844 0.704545 0.711501 0.0 0.0 0.0 0.720074 0.702078 0.686807 0.701872 0.0 0.0 0.0 0.0 0.0 0.0 0.0 0.670591 0.679165 0.671983 0.673266 0.679376 0.713892 0.0 0.0 0.0 0.0 0.0 0.0 0.0 0.0 0.0 0.0 0.0 0.0 0.0 0.0 0.0 0.0 0.0 0.0 0.0 1.17015 1.17672 1.17549 1.17393 1.17206 1.17076 1.16467 1.16719 1.17116 1.17006 1.16951 1.19026 1.25443 1.40267 1.63883 1.88535 2.00402 2.03028 2.05406 2.04779 2.04822 2.05268 2.04918 2.05438 2.06854 2.06367 2.06601 2.0645 2.07916 2.07605 2.0772 2.08953 2.0882 2.08276 2.0945 2.09091 2.09583 2.09351 2.10394 2.098 2.1099 2.09669 2.10552 2.08793 2.09399
1.24451 1.23845 1.24304 1.23513 1.23536 1.21392 1.21654 1.21798 1.22423 1.22215 1.21914 1.2201 1.22705 1.2236 1.22529 1.22115 1.22217 1.21705 1.21856 1.22032 1.21913 1.21498 1.21633 1.21442 1.21628 1.2143 1.21843 1.21255 1.22104 1.21243 1.21202 1.20892 1.20638 1.20231 1.20858 1.19792 1.19909 1.00387 0.0 0.0 0.0 0.0 0.0 0.0 0.0 0.0 0.0 0.0 0.0 0.0 0.0 0.0 0.0 0.0 0.0 0.0 0.0 0.0 0.0 0.0 0.0 0.0 0.0 0.0 0.0 0.0 0.0 0.0 0.0 0.0 0.0 0.0 0.0 0.0 0.0 0.697146 0.703663 0.705012 0.698458 0.705855 0.0 0.0 0.0 0.0 0.0 0.0 0.0 0.701166 0.722741 0.0 0.0 0.0 0.0 0.663373 0.682447 0.689055 0.681077 0.686447 0.691196 0.0 0.0 0.0 0.0 0.0 0.0 0.0 0.669622 0.679411 0.679494 0.686527 0.698384 0.71022 0.0 0.0 0.0 0.0 0.0 0.0 0.0 0.0 0.0 0.0 0.0 0.0 0.0 0.0 0.0 0.0 0.0 0.0 0.0 1.05843 1.17657 1.17564 1.16096 1.1597 1.1593 1.16543 1.15487 1.16331 1.16459 1.16316 1.16082 1.16142 1.1676 1.18615 1.24268 1.44463 1.76149 1.9876 2.03075 2.05085 2.04097 2.04275 2.0541 2.05194 2.05526 2.05064 2.05845 2.04645 2.06512 2.07035 2.0674 2.0739 2.06907 2.07854 2.07671 2.07021 2.0871 2.08729 2.08253 2.07997 2.07307 2.09273 2.07036 2.08184
1.23558 1.23485 1.2349 1.22243 1.20843 1.20341 1.21086 1.20372 1.21566 1.20983 1.21081 1.21347 1.21983 1.2155 1.2163 1.2188 1.21459 1.21642 1.20949 1.21124 1.21382 1.2114 1.21099 1.20966 1.20887 1.20892 1.20395 1.2054 1.20563 1.2079 1.20394 1.20733 1.20478 1.20071 1.19719 1.19838 1.19331 1.1564 0.0 0.0 0.0 0.0 0.0 0.0 0.0 0.0 0.0 0.0 0.0 0.0 0.0 0.0 0.0 0.0 0.0 0.0 0.0 0.0 0.0 0.0 0.0 0.0 0.0 0.0 0.0 0.0 0.0 0.738491 0.0 0.0 0.0 0.0 0.0 0.0 0.0 0.697081 0.697227 0.70161 0.69809 0.707614 0.0 0.0 0.0 0.0 0.0 0.0 0.0 0.0 0.0 0.0 0.0 0.0 0.0 0.0 0.679642 0.680785 0.681309 0.686378 0.686575 0.0 0.0 0.0 0.0 0.0 0.0 0.0 0.687735 0.712672 0.0 0.0 0.0 0.0 0.0 0.0 0.0 0.0 0.0 0.0 0.0 0.0 0.0 0.0 0.0 0.0 0.0 0.0 0.0 0.0 0.0 0.0 0.0 0.847571 1.17013 1.16711 1.16826 1.15804 1.15348 1.14919 1.15263 1.15394 1.1582 1.15293 1.15683 1.1524 1.16066 1.15588 1.15374 1.16071 1.19472 1.34922 1.64963 1.88824 2.00751 2.03949 2.03829 2.04025 2.04009 2.05122 2.0512 2.05082 2.05036 2.04868 2.05676 2.05405 2.05905 2.05562 2.07278 2.07003 2.06491 2.08142 2.07554 2.07472 2.07465 2.081 2.04849 2.07837
1.22998 1.21766 1.20692 1.19268 1.20388 1.1997 1.20314 1.20598 1.20676 1.21036 1.20876 1.21227 1.21402 1.20621 1.21017 1.2031 1.20495 1.20734 1.20737 1.20008 1.20177 1.20342 1.2065 1.20106 1.20201 1.20294 1.19883 1.20262 1.1946 1.19656 1.19554 1.19625 1.19428 1.19256 1.19081 1.19377 1.17889 1.17674 0.0 0.0 0.0 0.0 0.0 0.0 0.0 0.0 0.0 0.0 0.0 0.0 0.0 0.0 0.0 0.0 0.0 0.0 0.0 0.0 0.0 0.0 0.0 0.0 0.0 0.0 0.730635 0.738491 0.714246 0.708446 0.726868 0.0 0.0 0.0 0.0 0.0 0.0 0.676971 0.697757 0.698498 0.697709 0.706933 0.718578 0.0 0.0 0.0 0.0 0.720428 0.701917 0.0 0.0 0.0 0.0 0.0 0.0 0.0 0.68047 0.682221 0.682138 0.681133 0.68619 0.0 0.0 0.0 0.0 0.0 0.0 0.0 0.0 0.0 0.0 0.0 0.0 0.0 0.0 0.0 0.0 0.0 0.0 0.0 0.0 0.0 0.0 0.0 0.0 0.0 0.0 0.0 0.0 0.0 0.0 0.0 0.0 0.0 1.16156 1.16154 1.15762 1.14711 1.14614 1.14931 1.14381 1.14782 1.14674 1.14623 1.14391 1.15075 1.14157 1.14833 1.14679 1.14492 1.1504 1.14023 1.15797 1.23318 1.43804 1.7299 1.92943 2.02003 2.03799 2.03544 2.03603 2.04614 2.04541 2.04201 2.04114 2.04771 2.04149 2.05823 2.05157 2.05259 2.06525 2.06207 2.05852 2.06371 2.058 2.06043 2.04012 2.04971
1.21561 1.20014 1.18936 1.19321 1.19418 1.19766 1.20138 1.19763 1.2047 1.20628 1.20581 1.20184 1.20155 1.20669 1.20111 1.20039 1.2002 1.19677 1.1933 1.19501 1.19581 1.19336 1.19379 1.19126 1.19161 1.18929 1.19427 1.19276 1.19445 1.18903 1.19626 1.19313 1.18907 1.18913 1.18589 1.17994 1.1793 1.1813 0.876408 0.0 0.0 0.0 0.0 0.0 0.0 0.0 0.0 0.0 0.0 0.0 0.0 0.0 0.0 0.0 0.0 0.0 0.0 0.0 0.0 0.0 0.0 0.0 0.0 0.68307 0.706352 0.707539 0.704475 0.709576 0.724367 0.0 0.0 0.0 0.0 0.0 0.0 0.0 0.711639 0.721799 0.721925 0.0 0.0 0.0 0.707719 0.698056 0.694157 0.698758 0.702133 0.0 0.0 0.0 0.0 0.0 0.0 0.0 0.668216 0.687294 0.685995 0.687116 0.693998 0.701169 0.0 0.0 0.0 0.0 0.713138 0.692923 0.0 0.0 0.0 0.0 0.0 0.0 0.0 0.0 0.0 0.0 0.0 0.0 0.0 0.0 0.0 0.0 0.0 0.0 0.0 0.0 0.0 0.0 0.0 0.0 0.0 0.0 1.12215 1.15894 1.14904 1.14212 1.14056 1.13927 1.1439 1.1375 1.14089 1.14009 1.14549 1.14256 1.14197 1.14046 1.13981 1.13825 1.13784 1.14035 1.13576 1.14348 1.14352 1.16227 1.2769 1.53551 1.82606 1.97678 2.03216 2.03502 2.02997 2.03644 2.03299 2.03005 2.04174 2.03547 2.03288 2.04197 2.04207 2.03722 2.04771 2.05664 2.05037 2.04744 2.02263 2.0529
1.19218 1.18371 1.18902 1.19173 1.19184 1.19246 1.18704 1.19583 1.19372 1.19672 1.19565 1.19684 1.19682 1.19012 1.1926 1.19302 1.18614 1.19199 1.18355 1.19107 1.19245 1.18648 1.18573 1.18699 1.18704 1.18441 1.18527 1.18669 1.18041 1.18146 1.18189 1.1749 1.18414 1.17529 1.17945 1.17795 1.17492 1.17068 1.03658 0.0 0.0 0.0 0.0 0.0 0.0 0.0 0.0 0.0 0.0 0.0 0.0 0.0 0.0 0.0 0.0 0.0 0.0 0.0 0.0 0.0 0.0 0.0 0.0 0.0 0.706864 0.705326 0.704683 0.708573 0.709726 0.0 0.0 0.0 0.0 0.0 0.0 0.0 0.0 0.0 0.0 0.0 0.0 0.0 0.693938 0.694914 0.695575 0.691966 0.695037 0.0 0.0 0.0 0.0 0.0 0.0 0.0 0.679661 0.704216 0.706563 0.0 0.0 0.0 0.0 0.68986 0.686064 0.68499 0.679655 0.68554 0.0 0.0 0.0 0.0 0.0 0.0 0.0 0.0 0.0 0.0 0.0 0.0 0.0 0.0 0.0 0.0 0.0 0.0 0.0 0.0 0.0 0.0 0.0 0.0 0.0 0.0 0.980045 1.14734 1.14791 1.13622 1.13555 1.13397 1.13712 1.13846 1.13442 1.13957 1.13578 1.13463 1.1308 1.13049 1.12808 1.1286 1.13322 1.13161 1.13232 1.12977 1.13687 1.13543 1.13688 1.14647 1.17964 1.35696 1.64929 1.88958 2.00112 2.02764 2.02305 2.02071 2.02753 2.02618 2.03252 2.03245 2.032 2.03061 2.03284 2.02899 2.03132 2.0395 2.01329 2.03032
1.17772 1.17628 1.18185 1.17745 1.18747 1.18267 1.18521 1.18857 1.19217 1.18454 1.18718 1.1872 1.18456 1.18477 1.1855 1.18649 1.18366 1.18252 1.17551 1.18506 1.17475 1.18103 1.17588 1.18357 1.17775 1.17922 1.17654 1.17794 1.17754 1.17888 1.1734 1.17556 1.17711 1.17655 1.1727 1.17267 1.1628 1.16538 1.13548 0.0 0.0 0.0 0.0 0.0 0.0 0.0 0.0 0.0 0.0 0.0 0.0 0.0 0.0 0.0 0.0 0.0 0.0 0.0 0.0 0.0 0.0 0.0 0.0 0.0 0.70585 0.70734 0.709728 0.709073 0.710529 0.0 0.0 0.0 0.0 0.0 0.0 0.0 0.0 0.0 0.0 0.0 0.0 0.0 0.684092 0.69115 0.68816 0.697327 0.698574 0.704981 0.0 0.0 0.0 0.0 0.0 0.0 0.0 0.0 0.0 0.0 0.0 0.0 0.0 0.674859 0.675014 0.678801 0.681058 0.680266 0.693725 0.0 0.0 0.0 0.0 0.0 0.0 0.0 0.0 0.0 0.0 0.0 0.0 0.0 0.0 0.0 0.0 0.0 0.0 0.0 0.0 0.0 0.0 0.0 0.0 0.0 0.794724 1.14768 1.14586 1.13476 1.1338 1.12834 1.12972 1.12601 1.12793 1.12952 1.12574 1.12668 1.12612 1.12493 1.12401 1.12247 1.12326 1.12697 1.12651 1.12603 1.12375 1.12906 1.12818 1.12668 1.12661 1.13117 1.14528 1.22938 1.45313 1.71529 1.91494 1.99138 2.01153 2.02634 2.02062 2.02258 2.02817 2.02279 2.01078 2.01467 2.02557 2.02384 1.99483 2.01728
1.17563 1.16796 1.17577 1.17788 1.17653 1.18025 1.17507 1.17841 1.17912 1.18151 1.17868 1.18069 1.17545 1.17765 1.18011 1.17528 1.17824 1.17418 1.17589 1.17232 1.17337 1.1741 1.1742 1.17456 1.16989 1.17164 1.17189 1.17064 1.16669 1.17304 1.16518 1.17177 1.16264 1.17215 1.16472 1.1635 1.16343 1.15649 1.15695 0.0 0.0 0.0 0.0 0.0 0.0 0.0 0.0 0.0 0.0 0.0 0.0 0.0 0.0 0.0 0.0 0.0 0.0 0.0 0.0 0.0 0.0 0.0 0.0 0.0 0.672719 0.707525 0.712338 0.724722 0.724363 0.0 0.0 0.0 0.723712 0.70051 0.707058 0.721195 0.0 0.0 0.0 0.0 0.0 0.0 0.674532 0.689807 0.694727 0.695072 0.696927 0.700902 0.0 0.0 0.0 0.0 0.0 0.732109 0.0 0.0 0.0 0.0 0.0 0.0 0.0 0.66774 0.677315 0.678977 0.679716 0.685604 0.686014 0.0 0.0 0.0 0.0 0.0 0.0 0.0 0.0 0.0 0.0 0.0 0.0 0.0 0.0 0.0 0.0 0.0 0.0 0.0 0.0 0.0 0.0 0.0 0.0 0.0 0.0 1.13034 1.13422 1.12881 1.12069 1.12598 1.11842 1.1302 1.1235 1.12301 1.12162 1.11871 1.11785 1.11638 1.11547 1.11808 1.11593 1.11788 1.1195 1.11785 1.12233 1.11592 1.11858 1.113 1.1147 1.11899 1.11769 1.1213 1.12429 1.15506 1.27284 1.51508 1.79575 1.96451 2.00406 2.02098 2.01197 2.01121 2.00435 2.01454 2.00924 2.00471 1.98678 2.00617
1.16505 1.16668 1.16655 1.17545 1.17039 1.1721 1.17547 1.17451 1.17693 1.17673 1.17043 1.17387 1.17236 1.17109 1.16919 1.17072 1.16989 1.17018 1.17072 1.16655 1.17256 1.1645 1.16957 1.16024 1.17023 1.15993 1.16428 1.16154 1.16259 1.16391 1.16432 1.16144 1.15911 1.16031 1.16088 1.1546 1.15571 1.14131 1.1507 0.948018 0.0 0.0 0.0 0.0 0.0 0.0 0.0 0.0 0.0 0.0 0.0 0.0 0.0 0.0 0.0 0.0 0.0 0.0 0.0 0.0 0.0 0.0 0.0 0.0 0.0 0.729216 0.0 0.0 0.0 0.0 0.670657 0.704559 0.700499 0.697033 0.700544 0.71985 0.0 0.0 0.0 0.0 0.0 0.0 0.0 0.696972 0.698242 0.709544 0.719314 0.0 0.0 0.716595 0.71597 0.694028 0.689729 0.699722 0.710311 0.0 0.0 0.0 0.0 0.0 0.0 0.0 0.679606 0.679141 0.679273 0.68 0.688306 0.0 0.0 0.0 0.0 0.0 0.0 0.0 0.0 0.0 0.0 0.0 0.0 0.0 0.0 0.0 0.0 0.0 0.0 0.0 0.0 0.0 0.0 0.0 0.0 0.0 0.0 1.06749 1.13661 1.12253 1.12128 1.11017 1.12528 1.11353 1.11636 1.12005 1.1145 1.11931 1.11312 1.11195 1.1143 1.10982 1.113 1.11083 1.1101 1.1164 1.10797 1.1183 1.10836 1.11274 1.10977 1.10824 1.11162 1.10681 1.11563 1.11307 1.11308 1.1226 1.17621 1.34316 1.60849 1.86797 1.97507 2.00672 2.00131 1.99697 1.99313 1.98751 1.98436 1.98905
1.16261 1.1665 1.1692 1.16532 1.1665 1.16591 1.16927 1.16342 1.16496 1.16129 1.16331 1.16961 1.16693 1.16738 1.16576 1.16177 1.16267 1.16411 1.16464 1.1625 1.16324 1.15985 1.15846 1.15703 1.1588 1.15583 1.15458 1.15831 1.1629 1.14945 1.16403 1.15048 1.15822 1.15141 1.15316 1.14567 1.14707 1.13713 1.14115 1.06908 0.0 0.0 0.0 0.0 0.0 0.0 0.0 0.0 0.0 0.0 0.0 0.0 0.0 0.0 0.0 0.0 0.0 0.0 0.0 0.0 0.0 0.0 0.0 0.0 0.0 0.0 0.0 0.0 0.0 0.0 0.0 0.698036 0.698835 0.700533 0.704349 0.70177 0.0 0.0 0.0 0.0 0.0 0.0 0.0 0.0 0.0 0.0 0.0 0.0 0.0 0.685093 0.688426 0.689008 0.690188 0.69653 0.70073 0.0 0.0 0.0 0.0 0.0 0.0 0.0 0.679455 0.688716 0.696137 0.70901 0.0 0.0 0.0 0.709339 0.698473 0.680933 0.682789 0.687661 0.0 0.0 0.0 0.0 0.0 0.0 0.0 0.0 0.0 0.0 0.0 0.0 0.0 0.0 0.0 0.0 0.0 0.0 0.0 0.910276 1.12372 1.1234 1.1111 1.11492 1.11184 1.11798 1.11247 1.112 1.11121 1.10387 1.10896 1.1075 1.10069 1.10952 1.10119 1.10817 1.1101 1.10876 1.10768 1.1054 1.10573 1.10339 1.10833 1.10884 1.1029 1.1077 1.10578 1.10439 1.10674 1.10904 1.11158 1.10398 1.12571 1.22548 1.44905 1.71615 1.9222 1.99703 1.99547 1.99184 1.95154 1.97215
1.15704 1.15978 1.16218 1.1563 1.162 1.16055 1.15675 1.16147 1.15899 1.15271 1.15586 1.15696 1.15368 1.15931 1.15275 1.15454 1.15717 1.16441 1.15416 1.15638 1.15156 1.15283 1.15377 1.15087 1.15174 1.14935 1.14721 1.14474 1.14931 1.14086 1.14981 1.15105 1.14338 1.14574 1.14482 1.14594 1.13871 1.13947 1.13068 1.12631 0.0 0.0 0.0 0.0 0.0 0.0 0.0 0.0 0.0 0.0 0.0 0.0 0.0 0.0 0.0 0.0 0.0 0.0 0.0 0.0 0.0 0.0 0.0 0.0 0.0 0.0 0.0 0.0 0.0 0.0 0.0 0.68998 0.701715 0.699768 0.699023 0.699484 0.0 0.0 0.0 0.0 0.0 0.0 0.0 0.0 0.0 0.0 0.0 0.0 0.0 0.666051 0.68796 0.688542 0.691244 0.68541 0.698136 0.0 0.0 0.0 0.0 0.0 0.0 0.0 0.0 0.0 0.0 0.0 0.0 0.0 0.665107 0.681268 0.68042 0.679257 0.676265 0.678111 0.0 0.0 0.0 0.0 0.0 0.0 0.0 0.0 0.0 0.0 0.0 0.0 0.0 0.0 0.0 0.0 0.0 0.0 0.0 0.0 1.12428 1.11259 1.11554 1.10532 1.10673 1.10662 1.11243 1.10067 1.10523 1.10383 1.1024 1.0974 1.09947 1.09856 1.09968 1.10637 1.09741 1.10756 1.09709 1.10186 1.10044 1.09957 1.09809 1.10066 1.10756 1.09955 1.10142 1.09975 1.09748 1.10124 1.09542 1.09707 1.09983 1.09994 1.10919 1.14585 1.2904 1.54363 1.80097 1.93928 1.94986 1.9719
1.14749 1.15133 1.15229 1.15576 1.15435 1.15572 1.14877 1.15061 1.15011 1.15387 1.14954 1.14946 1.14848 1.14022 1.14753 1.14409 1.14524 1.1516 1.14248 1.14469 1.14598 1.14783 1.14027 1.14497 1.1429 1.14784 1.14275 1.1444 1.141 1.14229 1.14237 1.14331 1.1368 1.13827 1.13169 1.13964 1.13389 1.13257 1.12525 1.12655 0.0 0.0 0.0 0.0 0.0 0.0 0.0 0.0 0.0 0.0 0.0 0.0 0.0 0.0 0.0 0.0 0.0 0.0 0.0 0.0 0.0 0.0 0.0 0.0 0.0 0.0 0.0 0.0 0.0 0.0 0.0 0.684035 0.698203 0.703246 0.711929 0.716042 0.0 0.0 0.0 0.745476 0.704486 0.70092 0.712566 0.0 0.0 0.0 0.0 0.0 0.0 0.0 0.690832 0.690805 0.69229 0.691327 0.695833 0.0 0.0 0.0 0.0 0.0 0.0 0.0 0.0 0.0 0.0 0.0 0.0 0.0 0.0 0.679579 0.677518 0.681209 0.677003 0.680364 0.0 0.0 0.0 0.0 0.0 0.0 0.0 0.0 0.0 0.0 0.0 0.0 0.0 0.0 0.0 0.0 0.0 0.0 0.0 0.0 1.10805 1.11701 1.10651 1.09869 1.09503 1.10298 1.09808 1.1006 1.09567 1.09873 1.09197 1.1006 1.09291 1.09703 1.09727 1.0904 1.09589 1.09428 1.10351 1.0939 1.0963 1.0969 1.09455 1.09771 1.09558 1.09632 1.09035 1.09886 1.0934 1.0937 1.09165 1.08985 1.09291 1.09074 1.09513 1.09115 1.10316 1.11706 1.19981 1.41467 1.64593 1.88863
1.15004 1.14483 1.14634 1.14866 1.15036 1.14231 1.14476 1.14487 1.1455 1.14351 1.13973 1.13935 1.14152 1.1399 1.13707 1.13709 1.13852 1.14108 1.13719 1.13764 1.14009 1.13666 1.13963 1.1414 1.13785 1.14102 1.13386 1.1352 1.13503 1.13602 1.12662 1.13524 1.12932 1.13701 1.13191 1.13243 1.12845 1.1301 1.1195 1.1202 1.00704 0.0 0.0 0.0 0.0 0.0 0.0 0.0 0.0 0.0 0.0 0.0 0.0 0.0 0.0 0.0 0.0 0.0 0.0 0.0 0.0 0.0 0.0 0.0 0.0 0.0 0.0 0.0 0.0 0.0 0.0 0.0 0.721125 0.0 0.0 0.0 0.0 0.0 0.69466 0.697813 0.694257 0.698911 0.706599 0.0 0.0 0.0 0.0 0.0 0.0 0.0 0.679987 0.688793 0.693629 0.695102 0.720317 0.0 0.0 0.0 0.726947 0.701868 0.689871 0.695815 0.0 0.0 0.0 0.0 0.0 0.0 0.0 0.673325 0.680369 0.681633 0.681065 0.678667 0.691711 0.0 0.0 0.0 0.0 0.0 0.0 0.0 0.0 0.0 0.0 0.0 0.0 0.0 0.0 0.0 0.0 0.0 0.0 0.0 1.02924 1.11602 1.10642 1.09711 1.09733 1.09008 1.09412 1.08832 1.09618 1.08677 1.09129 1.08482 1.09135 1.09281 1.09129 1.09564 1.08728 1.09362 1.08552 1.09061 1.08832 1.09157 1.09039 1.08889 1.08794 1.08812 1.09262 1.08662 1.09104 1.08498 1.08959 1.0852 1.08452 1.0887 1.08506 1.08339 1.08169 1.07965 1.08641 1.09963 1.1434 1.27957
1.14325 1.14028 1.13923 1.13726 1.13837 1.138 1.13672 1.14197 1.13714 1.14174 1.13709 1.13613 1.13627 1.13666 1.13498 1.13006 1.13177 1.12587 1.13683 1.13319 1.13095 1.12839 1.1331 1.1284 1.12719 1.13064 1.12965 1.1298 1.12638 1.13268 1.12357 1.12537 1.12567 1.13039 1.12617 1.124 1.12538 1.12494 1.11999 1.11054 1.10015 0.0 0.0 0.0 0.0 0.0 0.0 0.0 0.0 0.0 0.0 0.0 0.0 0.0 0.0 0.0 0.0 0.0 0.0 0.0 0.0 0.0 0.0 0.0 0.0 0.0 0.0 0.0 0.0 0.0 0.0 0.0 0.0 0.0 0.0 0.0 0.0 0.0 0.685333 0.694574 0.698326 0.694149 0.699706 0.0 0.0 0.0 0.0 0.0 0.0 0.0 0.705685 0.0 0.0 0.0 0.0 0.0 0.0 0.690941 0.690531 0.683717 0.686024 0.69623 0.0 0.0 0.0 0.0 0.0 0.0 0.0 0.665843 0.679568 0.681136 0.681781 0.69454 0.701216 0.0 0.0 0.0 0.0 0.0 0.0 0.0 0.0 0.0 0.0 0.0 0.0 0.0 0.0 0.0 0.0 0.0 0.0 0.0 0.865362 1.10066 1.10661 1.08834 1.08857 1.09027 1.083 1.08971 1.08121 1.08696 1.07903 1.08531 1.08415 1.07911 1.08972 1.08256 1.08689 1.08058 1.0869 1.07878 1.08472 1.08241 1.08593 1.07976 1.08816 1.0828 1.08557 1.08191 1.08314 1.08289 1.07941 1.08341 1.08418 1.08203 1.08099 1.07704 1.07935 1.0759 1.07925 1.07883 1.08149 1.08891
1.13501 1.13655 1.12925 1.13522 1.13945 1.13451 1.13179 1.13417 1.13593 1.13563 1.13529 1.13374 1.13012 1.13108 1.12446 1.1262 1.13197 1.12375 1.12829 1.12258 1.12647 1.12595 1.12773 1.12537 1.12032 1.12406 1.12807 1.12616 1.12244 1.12252 1.12346 1.11963 1.11962 1.11394 1.11981 1.11645 1.11811 1.11378 1.11957 1.10056 1.11107 0.0 0.0 0.0 0.0 0.0 0.0 0.0 0.0 0.0 0.0 0.0 0.0 0.0 0.0 0.0 0.0 0.0 0.0 0.0 0.0 0.0 0.0 0.0 0.0 0.0 0.0 0.0 0.0 0.741073 0.735222 0.0 0.0 0.0 0.0 0.0 0.0 0.0 0.67995 0.695586 0.700557 0.690897 0.699805 0.713882 0.0 0.0 0.0 0.0 0.0 0.0 0.0 0.0 0.0 0.0 0.0 0.0 0.0 0.678858 0.685148 0.687467 0.690383 0.690547 0.0 0.0 0.0 0.0 0.0 0.0 0.0 0.0 0.703038 0.710059 0.0 0.0 0.0 0.0 0.0 0.0 0.0 0.0 0.0 0.0 0.0 0.0 0.0 0.0 0.0 0.0 0.0 0.0 0.0 0.0 0.0 0.0 0.0 1.09604 1.09064 1.09358 1.08038 1.08626 1.08317 1.07589 1.07544 1.07912 1.0792 1.08134 1.08018 1.08314 1.07808 1.07861 1.07794 1.07664 1.07561 1.07955 1.08021 1.08084 1.07793 1.08053 1.07435 1.07717 1.07501 1.07833 1.07638 1.07932 1.07672 1.0761 1.07603 1.07619 1.07574 1.07266 1.07069 1.0704 1.06892 1.06653 1.06695 1.07242
1.12872 1.12401 1.1198 1.12376 1.12797 1.12957 1.12512 1.12491 1.12923 1.12317 1.12251 1.12499 1.12135 1.12982 1.12812 1.12057 1.12692 1.1213 1.12234 1.1175 1.12021 1.1185 1.12409 1.1132 1.1199 1.11216 1.12234 1.11865 1.11846 1.11795 1.11444 1.11386 1.11681 1.10994 1.11492 1.10738 1.11171 1.10827 1.10898 1.10071 1.09897 0.936856 0.0 0.0 0.0 0.0 0.0 0.0 0.0 0.0 0.0 0.0 0.0 0.0 0.0 0.0 0.0 0.0 0.0 0.0 0.0 0.0 0.0 0.0 0.0 0.0 0.0 0.71274 0.704477 0.705008 0.706136 0.716677 0.0 0.0 0.0 0.0 0.0 0.0 0.68308 0.69476 0.700644 0.700731 0.71086 0.71519 0.0 0.0 0.0 0.0 0.725398 0.709242 0.0 0.0 0.0 0.0 0.0 0.0 0.0 0.67133 0.689497 0.685727 0.685904 0.69033 0.696873 0.0 0.0 0.0 0.0 0.0 0.0 0.0 0.0 0.0 0.0 0.0 0.0 0.0 0.0 0.0 0.0 0.0 0.0 0.0 0.0 0.0 0.0 0.0 0.0 0.0 0.0 0.0 0.0 0.0 0.0 0.0 0.0 1.08751 1.09019 1.08208 1.08023 1.07061 1.07766 1.0686 1.07529 1.07185 1.07342 1.06756 1.07678 1.06761 1.07824 1.07346 1.07249 1.07032 1.06842 1.07237 1.07392 1.07251 1.06902 1.06551 1.07072 1.06918 1.06703 1.06659 1.0693 1.0627 1.06764 1.07051 1.06814 1.06688 1.0696 1.06654 1.06258 1.06545 1.06369 1.06673 1.06459 1.06099
1.12155 1.11683 1.11259 1.11426 1.11589 1.11861 1.11299 1.1159 1.1159 1.11643 1.11403 1.11966 1.11371 1.11753 1.12016 1.12073 1.11893 1.11942 1.11607 1.11531 1.11393 1.11104 1.11192 1.10953 1.10858 1.10759 1.11188 1.11024 1.11151 1.10448 1.11281 1.10748 1.1128 1.10562 1.10732 1.10245 1.10768 1.10215 1.10554 1.09517 1.09611 1.05425 0.0 0.0 0.0 0.0 0.0 0.0 0.0 0.0 0.0 0.0 0.0 0.0 0.0 0.0 0.0 0.0 0.0 0.0 0.0 0.0 0.0 0.0 0.0 0.0 0.0 0.703101 0.70334 0.702655 0.706821 0.708546 0.0 0.0 0.0 0.0 0.0 0.0 0.0 0.706714 0.719607 0.0 0.0 0.0 0.0 0.704392 0.700155 0.702307 0.696828 0.703528 0.0 0.0 0.0 0.0 0.0 0.0 0.0 0.665007 0.685309 0.690369 0.690241 0.69284 0.703644 0.0 0.0 0.0 0.0 0.714247 0.69336 0.0 0.0 0.0 0.0 0.0 0.0 0.0 0.0 0.0 0.0 0.0 0.0 0.0 0.0 0.0 0.0 0.0 0.0 0.0 0.0 0.0 0.0 0.0 0.0 0.0 0.0 0.995476 1.09451 1.07803 1.07708 1.07014 1.06826 1.07498 1.06175 1.07168 1.06614 1.06917 1.06803 1.06509 1.07099 1.06415 1.0688 1.06487 1.0718 1.0634 1.07113 1.06093 1.06887 1.06302 1.06065 1.06 1.0634 1.05744 1.06597 1.06053 1.05768 1.05883 1.06166 1.06099 1.05942 1.06297 1.06102 1.05504 1.05815 1.06092 1.05936 1.06116
1.11067 1.11046 1.10905 1.111 1.1072 1.10962 1.1117 1.10974 1.10513 1.10593 1.10956 1.10739 1.11384 1.111 1.11102 1.10837 1.11063 1.10469 1.10161 1.10843 1.10235 1.10296 1.10705 1.10202 1.10488 1.10035 1.10227 1.10239 1.10277 1.09957 1.10226 1.099 1.10075 1.10098 1.10209 1.099 1.10034 1.10047 1.09968 1.09587 1.08157 1.09535 0.0 0.0 0.0 0.0 0.0 0.0 0.0 0.0 0.0 0.0 0.0 0.0 0.0 0.0 0.0 0.0 0.0 0.0 0.0 0.0 0.0 0.0 0.0 0.0 0.0 0.697093 0.704013 0.706671 0.698375 0.707396 0.0 0.0 0.0 0.0 0.0 0.0 0.0 0.0 0.0 0.0 0.0 0.0 0.0 0.683123 0.694734 0.694447 0.694758 0.698107 0.711807 0.0 0.0 0.0 0.0 0.0 0.0 0.0 0.702733 0.706268 0.0 0.0 0.0 0.0 0.690895 0.690709 0.682303 0.682401 0.692514 0.697445 0.0 0.0 0.0 0.0 0.0 0.0 0.0 0.0 0.0 0.0 0.0 0.0 0.0 0.0 0.0 0.0 0.0 0.0 0.0 0.0 0.0 0.0 0.0 0.0 0.0 0.835165 1.08325 1.07814 1.06495 1.06369 1.06092 1.06557 1.06007 1.06258 1.05853 1.06513 1.05481 1.06313 1.0578 1.06574 1.05889 1.06616 1.05662 1.05794 1.05541 1.05988 1.05846 1.06665 1.05669 1.06013 1.05595 1.05728 1.05449 1.05805 1.05115 1.05405 1.05142 1.05624 1.05295 1.05393 1.05744 1.05575 1.05173 1.0565 1.05411 1.05337
1.10429 1.10265 1.10548 1.09974 1.1019 1.09659 1.10095 1.10183 1.09519 1.09827 1.09988 1.09595 1.09429 1.09982 1.10416 1.10151 1.10259 1.09664 1.09968 1.09947 1.09748 1.09925 1.09924 1.103 1.09822 1.10075 1.0947 1.09629 1.09814 1.09642 1.09792 1.09672 1.09224 1.09335 1.09445 1.09582 1.09597 1.09848 1.0941 1.09537 1.08107 1.09185 0.868728 0.0 0.0 0.0 0.0 0.0 0.0 0.0 0.0 0.0 0.0 0.0 0.0 0.0 0.0 0.0 0.0 0.0 0.0 0.0 0.0 0.0 0.0 0.0 0.0 0.677403 0.705283 0.707942 0.708766 0.714749 0.721027 0.0 0.0 0.0 0.0 0.744363 0.0 0.0 0.0 0.0 0.0 0.0 0.0 0.671897 0.695396 0.69511 0.698469 0.694502 0.704545 0.0 0.0 0.0 0.0 0.0 0.0 0.0 0.0 0.0 0.0 0.0 0.0 0.0 0.66874 0.680118 0.68266 0.680934 0.681628 0.690512 0.0 0.0 0.0 0.0 0.0 0.0 0.0 0.0 0.0 0.0 0.0 0.0 0.0 0.0 0.0 0.0 0.0 0.0 0.0 0.0 0.0 0.0 0.0 0.0 0.0 0.0 1.07318 1.07823 1.05997 1.05931 1.0619 1.05613 1.06314 1.05168 1.05773 1.05604 1.05787 1.05435 1.06056 1.05226 1.06076 1.05713 1.05642 1.0551 1.0555 1.05265 1.05329 1.05681 1.05037 1.05498 1.05344 1.05244 1.05257 1.0486 1.05473 1.04953 1.05181 1.04713 1.04932 1.05146 1.04639 1.049 1.05184 1.04865 1.04684 1.04895
1.09393 1.10133 1.09763 1.09243 1.09629 1.09183 1.09102 1.09389 1.09528 1.09232 1.09506 1.09546 1.09264 1.08687 1.08945 1.09026 1.09249 1.08739 1.0948 1.09284 1.08907 1.09728 1.0911 1.09251 1.09124 1.09376 1.09419 1.09607 1.08965 1.08821 1.08644 1.09057 1.08816 1.08452 1.08471 1.08577 1.08442 1.09348 1.08731 1.09574 1.09041 1.09222 1.00027 0.0 0.0 0.0 0.0 0.775287 0.0 0.0 0.0 0.0 0.0 0.0 0.0 0.0 0.0 0.0 0.0 0.0 0.0 0.0 0.0 0.0 0.0 0.0 0.0 0.0 0.708365 0.725918 0.735261 0.0 0.0 0.0 0.734819 0.713063 0.70103 0.712126 0.719559 0.0 0.0 0.0 0.0 0.0 0.0 0.0 0.694828 0.694847 0.695768 0.698507 0.705198 0.0 0.0 0.0 0.0 0.0 0.731369 0.0 0.0 0.0 0.0 0.0 0.0 0.0 0.0 0.678942 0.682093 0.683407 0.682278 0.685998 0.0 0.0 0.0 0.0 0.0 0.0 0.0 0.0 0.0 0.0 0.0 0.0 0.0 0.0 0.0 0.0 0.0 0.0 0.0 0.0 0.0 0.0 0.0 0.0 0.0 0.0 1.06188 1.06605 1.06451 1.05043 1.0578 1.0565 1.05012 1.05294 1.05335 1.05136 1.05083 1.04939 1.05324 1.04524 1.05464 1.04896 1.0512 1.04724 1.04854 1.04775 1.05454 1.04579 1.05132 1.04749 1.04711 1.04642 1.0512 1.04405 1.04353 1.04471 1.03806 1.04204 1.0405 1.03864 1.04476 1.04366 1.04166 1.04447 1.04721 1.04025
1.09202 1.08779 1.08321 1.08994 1.09208 1.08761 1.08737 1.09281 1.08788 1.08951 1.08879 1.0912 1.08461 1.08577 1.08545 1.08306 1.09255 1.08629 1.08669 1.0853 1.08679 1.08972 1.08646 1.08757 1.08923 1.08498 1.08658 1.08786 1.0835 1.0859 1.0862 1.09063 1.08287 1.08695 1.07881 1.08671 1.08149 1.08488 1.08527 1.09549 1.08747 1.0809 1.01709 0.777495 0.768203 0.714448 0.709871 0.716095 0.0 0.0 0.0 0.0 0.0 0.0 0.0 0.0 0.0 0.0 0.0 0.0 0.0 0.0 0.0 0.0 0.0 0.0 0.0 0.0 0.0 0.0 0.0 0.0 0.0 0.0 0.700457 0.701221 0.701061 0.703629 0.710452 0.0 0.0 0.0 0.0 0.0 0.0 0.0 0.698517 0.704023 0.71409 0.723536 0.0 0.0 0.721013 0.722485 0.691335 0.691872 0.691485 0.706319 0.0 0.0 0.0 0.0 0.0 0.0 0.0 0.685056 0.681515 0.681917 0.684131 0.685724 0.0 0.0 0.0 0.0 0.0 0.0 0.0 0.0 0.0 0.0 0.0 0.0 0.0 0.0 0.0 0.0 0.0 0.0 0.0 0.0 0.0 0.0 0.0 0.0 0.0 0.0 0.992245 1.06222 1.05979 1.05048 1.04623 1.05506 1.0466 1.04705 1.04628 1.05142 1.04407 1.04826 1.04236 1.04707 1.04113 1.04989 1.04419 1.04964 1.04214 1.0478 1.04172 1.04584 1.03912 1.04754 1.04048 1.04444 1.04197 1.04758 1.03954 1.04073 1.03697 1.03721 1.0351 1.0387 1.03709 1.03801 1.03916 1.03428 1.0362 1.04032
1.08499 1.08529 1.08354 1.08116 1.08101 1.07937 1.08369 1.08396 1.08419 1.08005 1.08104 1.08258 1.08291 1.07915 1.0794 1.08281 1.08124 1.084 1.07797 1.08037 1.08595 1.08009 1.07828 1.08261 1.07986 1.08119 1.07748 1.08051 1.07082 1.07587 1.07557 1.08088 1.07667 1.0846 1.07885 1.08913 1.09195 1.09357 1.08471 1.06535 0.95353 0.744829 0.702909 0.706772 0.704625 0.704261 0.701779 0.711606 0.728352 0.0 0.0 0.0 0.0 0.0 0.0 0.0 0.0 0.0 0.0 0.0 0.0 0.0 0.0 0.0 0.0 0.0 0.0 0.0 0.0 0.0 0.0 0.0 0.0 0.0 0.702911 0.700023 0.702298 0.700299 0.711386 0.0 0.0 0.0 0.0 0.0 0.0 0.0 0.0 0.0 0.0 0.0 0.0 0.0 0.664639 0.692024 0.688001 0.691587 0.688457 0.696893 0.0 0.0 0.0 0.0 0.0 0.0 0.0 0.682033 0.685791 0.692272 0.713933 0.0 0.0 0.0 0.0 0.718681 0.691998 0.681996 0.684108 0.0 0.0 0.0 0.0 0.0 0.0 0.0 0.0 0.0 0.0 0.0 0.0 0.0 0.0 0.0 0.0 0.0 0.0 0.0 0.827475 1.06135 1.05445 1.05051 1.04209 1.04825 1.04574 1.04292 1.04364 1.04463 1.04351 1.04178 1.04121 1.0409 1.04175 1.03814 1.03952 1.03587 1.03689 1.03963 1.04175 1.03652 1.03916 1.03767 1.0376 1.0407 1.03359 1.03255 1.03755 1.03123 1.03672 1.02631 1.02997 1.03272 1.03054 1.02833 1.03664 1.03005 1.0297 1.03043
1.0802 1.07567 1.081 1.07549 1.07275 1.07596 1.08142 1.08283 1.07645 1.07863 1.0753 1.07624 1.07396 1.07482 1.07739 1.0741 1.07485 1.07527 1.0701 1.07161 1.07924 1.07981 1.07214 1.07058 1.06958 1.0812 1.07307 1.07433 1.06906 1.07352 1.06848 1.072 1.06867 1.07719 1.0744 1.07813 1.06068 1.01424 0.846792 0.743565 0.729257 0.71012 0.709807 0.706181 0.708534 0.705171 0.712604 0.708608 0.71422 0.0 0.0 0.0 0.0 0.0 0.0 0.0 0.0 0.0 0.0 0.0 0.0 0.0 0.0 0.0 0.0 0.0 0.0 0.0 0.0 0.0 0.0 0.0 0.0 0.0 0.684656 0.702162 0.708701 0.702439 0.71505 0.721255 0.0 0.0 0.0 0.0 0.0 0.0 0.0 0.0 0.0 0.0 0.0 0.0 0.0 0.691118 0.693191 0.689766 0.693035 0.698425 0.0 0.0 0.0 0.0 0.0 0.0 0.0 0.0 0.0 0.0 0.0 0.0 0.0 0.0 0.680742 0.680164 0.678361 0.675335 0.678057 0.0 0.0 0.0 0.0 0.0 0.0 0.0 0.0 0.0 0.0 0.0 0.0 0.0 0.0 0.0 0.0 0.0 0.0 0.0 0.0 1.06077 1.05177 1.04307 1.0424 1.03456 1.041 1.03729 1.03861 1.03367 1.04205 1.03144 1.03827 1.03649 1.0394 1.03345 1.03836 1.03059 1.0413 1.02939 1.03825 1.02835 1.03509 1.0336 1.03209 1.02996 1.03477 1.03286 1.03091 1.03125 1.02347 1.02661 1.02165 1.02269 1.02741 1.01977 1.02581 1.02466 1.0246 1.0279
1.08132 1.07878 1.07417 1.07576 1.07217 1.06995 1.0711 1.07393 1.07271 1.06711 1.06866 1.07075 1.07106 1.07134 1.07129 1.06771 1.06902 1.0671 1.06514 1.06927 1.07308 1.06955 1.0689 1.07028 1.06486 1.06588 1.0651 1.07285 1.06728 1.06996 1.06551 1.06725 1.06183 1.06916 1.02919 0.898903 0.749278 0.746101 0.744094 0.743859 0.726562 0.711913 0.711601 0.703779 0.71123 0.706368 0.7123 0.708003 0.709403 0.0 0.0 0.0 0.0 0.0 0.0 0.0 0.0 0.0 0.0 0.0 0.0 0.0 0.0 0.0 0.0 0.0 0.0 0.0 0.0 0.0 0.0 0.0 0.0 0.0 0.684653 0.707943 0.717224 0.721014 0.733323 0.0 0.0 0.0 0.729443 0.703905 0.703958 0.703389 0.0 0.0 0.0 0.0 0.0 0.0 0.0 0.686847 0.690444 0.694334 0.690289 0.700249 0.0 0.0 0.0 0.0 0.0 0.0 0.0 0.0 0.0 0.0 0.0 0.0 0.0 0.0 0.6686 0.681374 0.679874 0.679878 0.684112 0.695901 0.0 0.0 0.0 0.0 0.0 0.0 0.0 0.0 0.0 0.0 0.0 0.0 0.0 0.0 0.0 0.0 0.0 0.0 0.0 1.04552 1.05296 1.03829 1.0415 1.03426 1.03385 1.0358 1.0288 1.03366 1.02693 1.03143 1.02998 1.03619 1.0276 1.03256 1.02599 1.03059 1.0275 1.03173 1.02507 1.03361 1.02457 1.02981 1.02626 1.02908 1.02257 1.03198 1.02425 1.03211 1.02404 1.02113 1.01791 1.0224 1.0191 1.01919 1.01782 1.01526 1.02261 1.01967
1.08129 1.07732 1.07414 1.07061 1.06473 1.06906 1.06821 1.06444 1.06521 1.0665 1.06056 1.06176 1.06265 1.06175 1.06603 1.06216 1.06405 1.06358 1.0654 1.06106 1.06223 1.06014 1.05978 1.06173 1.06013 1.06144 1.05859 1.05983 1.06076 1.05781 1.05926 1.06248 1.06092 1.06052 0.865288 0.755689 0.757604 0.745189 0.716911 0.712769 0.724452 0.710699 0.711884 0.711257 0.707614 0.711456 0.700867 0.707386 0.709086 0.731848 0.0 0.0 0.0 0.0 0.0 0.0 0.0 0.0 0.0 0.0 0.0 0.0 0.0 0.0 0.0 0.0 0.0 0.0 0.0 0.0 0.0 0.0 0.0 0.0 0.0 0.0 0.0 0.0 0.0 0.0 0.0 0.694304 0.697731 0.693527 0.696322 0.703069 0.0 0.0 0.0 0.0 0.0 0.0 0.0 0.67403 0.693782 0.698281 0.701244 0.707547 0.0 0.0 0.0 0.0 0.706281 0.692421 0.69681 0.0 0.0 0.0 0.0 0.0 0.0 0.0 0.660392 0.680146 0.680162 0.67653 0.6844 0.679837 0.0 0.0 0.0 0.0 0.0 0.0 0.0 0.0 0.0 0.0 0.0 0.0 0.0 0.0 0.0 0.0 0.0 0.0 0.0 0.976764 1.04458 1.03677 1.03075 1.03394 1.02431 1.03012 1.02403 1.0286 1.0195 1.02726 1.0202 1.02907 1.01991 1.02693 1.02361 1.02409 1.02014 1.02701 1.02124 1.02101 1.02454 1.02366 1.02157 1.02237 1.02312 1.02094 1.01988 1.01273 1.02084 1.0116 1.01558 1.01491 1.01535 1.01831 1.01664 1.0158 1.01291 1.01964
1.06058 1.06621 1.06783 1.06372 1.06439 1.06586 1.06272 1.06324 1.05711 1.05695 1.05618 1.06113 1.05536 1.05648 1.06076 1.05455 1.06167 1.05799 1.05864 1.05312 1.05574 1.05101 1.05973 1.06051 1.05626 1.05226 1.05205 1.05624 1.05953 1.05776 1.06218 1.06569 1.06206 1.05008 0.813505 0.929804 0.955423 0.822999 0.749419 0.730367 0.712461 0.718451 0.739111 0.713327 0.711785 0.708125 0.707449 0.701646 0.708155 0.719476 0.0 0.0 0.0 0.0 0.0 0.0 0.0 0.0 0.0 0.0 0.0 0.0 0.0 0.0 0.0 0.0 0.0 0.0 0.0 0.0 0.0 0.0 0.0 0.0 0.0 0.0 0.0 0.0 0.0 0.0 0.0 0.690621 0.695571 0.697158 0.697515 0.697556 0.721668 0.0 0.0 0.0 0.0 0.0 0.0 0.0 0.724538 0.0 0.0 0.0 0.0 0.0 0.686759 0.688751 0.687079 0.687526 0.691916 0.0 0.0 0.0 0.0 0.0 0.0 0.0 0.681609 0.68103 0.680439 0.68105 0.684374 0.697676 0.0 0.0 0.0 0.0 0.0 0.0 0.0 0.0 0.0 0.0 0.0 0.0 0.0 0.0 0.0 0.0 0.0 0.0 0.0 0.841358 1.03946 1.03673 1.02087 1.02615 1.02367 1.01938 1.0222 1.01402 1.02005 1.0213 1.02282 1.0181 1.02045 1.01569 1.01827 1.01758 1.02332 1.01612 1.02032 1.0157 1.02304 1.01195 1.02182 1.01389 1.01727 1.01481 1.01405 1.01297 1.01127 1.01011 1.00605 1.01027 1.00842 1.00653 1.01516 1.0072 1.01144 1.00966
1.03674 1.03977 1.05838 1.06136 1.06345 1.06093 1.05462 1.05284 1.05732 1.05458 1.05034 1.04662 1.04951 1.05149 1.05256 1.05157 1.0549 1.04743 1.04981 1.04691 1.05275 1.05006 1.05086 1.04928 1.04825 1.05013 1.05081 1.04791 1.04882 1.05592 1.06123 1.06059 1.0804 0.790358 0.712346 0.724952 0.778979 0.879314 0.786686 0.725245 0.687602 0.662149 0.716306 0.727673 0.714444 0.711386 0.707708 0.711827 0.710221 0.711308 0.0 0.0 0.0 0.0 0.0 0.0 0.0 0.0 0.0 0.0 0.0 0.0 0.0 0.0 0.0 0.0 0.0 0.0 0.0 0.0 0.0 0.752783 0.738386 0.715449 0.729315 0.0 0.0 0.0 0.0 0.0 0.0 0.675653 0.697362 0.697121 0.704183 0.697214 0.708522 0.0 0.0 0.0 0.0 0.0 0.0 0.0 0.0 0.0 0.0 0.0 0.0 0.0 0.686722 0.686583 0.686129 0.686576 0.690662 0.705075 0.0 0.0 0.0 0.0 0.0 0.0 0.0 0.686756 0.698897 0.718289 0.0 0.0 0.0 0.0 0.0 0.0 0.0 0.0 0.0 0.0 0.0 0.0 0.0 0.0 0.0 0.0 0.0 0.0 0.0 0.0 0.0 0.0 1.03641 1.03667 1.02081 1.01865 1.01885 1.0116 1.02036 1.01307 1.02206 1.01118 1.01684 1.0142 1.01773 1.01121 1.01644 1.01576 1.01445 1.01488 1.01762 1.01593 1.01363 1.01276 1.01214 1.01644 1.01024 1.01387 1.00704 1.00972 1.00255 1.00601 1.00023 1.00446 1.0009 1.00503 1.00339 1.00684 1.01136 1.00447
1.03663 1.03824 1.03612 1.03849 1.05451 1.05339 1.05194 1.05675 1.04831 1.05419 1.04505 1.04653 1.04565 1.04357 1.04464 1.04305 1.04346 1.04326 1.04622 1.04711 1.04768 1.04265 1.04843 1.04478 1.0461 1.0415 1.04217 1.0434 1.04844 1.01797 0.89086 0.813258 0.900473 0.719297 0.691772 0.686201 0.686562 0.710762 0.742751 0.7461 0.720138 0.736608 0.738413 0.720724 0.705692 0.709832 0.701948 0.701854 0.709566 0.711857 0.0 0.0 0.0 0.0 0.0 0.0 0.0 0.0 0.0 0.0 0.0 0.0 0.0 0.0 0.0 0.0 0.0 0.0 0.0 0.0 0.711775 0.712893 0.69879 0.713269 0.723177 0.0 0.0 0.0 0.0 0.0 0.0 0.0 0.704322 0.707739 0.697734 0.711795 0.716093 0.0 0.0 0.0 0.733471 0.727347 0.708715 0.0 0.0 0.0 0.0 0.0 0.0 0.0 0.67754 0.688361 0.686689 0.686223 0.687267 0.690732 0.0 0.0 0.0 0.0 0.0 0.0 0.0 0.0 0.0 0.0 0.0 0.0 0.0 0.0 0.0 0.0 0.0 0.0 0.0 0.0 0.0 0.0 0.0 0.0 0.0 0.0 0.0 0.0 0.0 0.0 0.0 0.0 1.02767 1.02883 1.02043 1.01113 1.01877 1.01449 1.01197 1.01299 1.01576 1.0105 1.01292 1.00733 1.01057 1.0126 1.00871 1.01273 1.00351 1.01157 1.00319 1.00853 1.00245 1.01412 1.00536 1.00879 1.00608 1.00421 1.00607 1.0024 1.00274 0.999296 0.999556 0.998626 1.00109 0.999788 0.996448 0.998198 0.996485 1.00125
1.03112 1.03216 1.02435 1.02499 1.02815 1.03499 1.0501 1.0506 1.04848 1.04687 1.04407 1.04179 1.03917 1.04027 1.04104 1.03858 1.04393 1.03644 1.0394 1.03853 1.04055 1.03756 1.03893 1.03939 1.03806 1.03845 1.03175 1.03473 1.03563 0.902509 0.861753 0.813474 0.687626 0.705563 0.702706 0.683754 0.694837 0.774801 0.791923 0.76903 0.721565 0.724869 0.720677 0.706871 0.708325 0.715169 0.714799 0.733651 0.756725 0.0 0.0 0.0 0.0 0.0 0.0 0.0 0.0 0.0 0.0 0.0 0.0 0.0 0.0 0.0 0.0 0.0 0.0 0.0 0.0 0.0 0.707457 0.707357 0.708462 0.712902 0.710334 0.0 0.0 0.0 0.0 0.0 0.0 0.0 0.707918 0.734189 0.0 0.0 0.0 0.0 0.698684 0.693498 0.694091 0.69315 0.703169 0.0 0.0 0.0 0.0 0.0 0.0 0.0 0.666217 0.686475 0.686325 0.688293 0.690553 0.698882 0.0 0.0 0.0 0.0 0.712645 0.703276 0.70088 0.0 0.0 0.0 0.0 0.0 0.0 0.0 0.0 0.0 0.0 0.0 0.0 0.0 0.0 0.0 0.0 0.0 0.0 0.0 0.0 0.0 0.0 0.0 0.0 0.0 0.991757 1.02098 1.02004 1.00329 1.00886 1.00993 1.00207 1.00903 0.999661 1.00596 1.00306 1.01165 1.00103 1.01279 1.0039 1.01086 1.00018 1.00472 1.00279 1.00463 1.00176 1.00061 1.00554 0.997929 1.00568 0.995701 1.0022 0.998247 0.995995 0.99515 0.992831 0.992198 0.996391 0.994809 0.990337 0.992382 0.995508 0.995738
1.02418 1.02832 1.02505 1.02228 1.01917 1.0217 1.0305 1.04501 1.04144 1.0427 1.0396 1.03645 1.03759 1.03376 1.0351 1.03293 1.03245 1.0299 1.03839 1.03285 1.03574 1.03362 1.03176 1.03075 1.0294 1.03038 1.02514 1.00304 0.763126 0.69005 0.675418 0.70816 0.705347 0.71053 0.757326 0.726527 0.728416 0.789918 0.795115 0.768943 0.739121 0.724788 0.736166 0.714284 0.734037 0.791619 0.0 0.0 0.0 0.0 0.0 0.0 0.0 0.0 0.0 0.0 0.0 0.0 0.0 0.0 0.0 0.0 0.0 0.0 0.0 0.0 0.0 0.0 0.0 0.0 0.686715 0.712757 0.710822 0.709483 0.710869 0.732636 0.0 0.0 0.0 0.0 0.0 0.0 0.0 0.0 0.0 0.0 0.0 0.0 0.678193 0.693122 0.698896 0.693384 0.703401 0.716758 0.0 0.0 0.0 0.0 0.0 0.0 0.0 0.689144 0.704512 0.708909 0.0 0.0 0.0 0.693233 0.693316 0.686401 0.685552 0.686512 0.696256 0.0 0.0 0.0 0.0 0.0 0.0 0.0 0.0 0.0 0.0 0.0 0.0 0.0 0.0 0.0 0.0 0.0 0.0 0.0 0.0 0.0 0.0 0.0 0.0 0.0 0.865396 1.01311 1.01903 1.00585 1.00101 1.00714 0.994836 1.00743 0.999544 1.00525 0.997034 1.0012 0.994721 1.00207 1.00113 0.998402 0.999173 0.998152 1.00442 0.993979 0.996083 0.990572 1.00017 0.99344 0.996845 0.995568 0.99368 0.993203 0.990094 0.990696 0.985224 0.989191 0.987662 0.98581 0.992189 0.990813 0.995644 0.984251
1.024 1.02361 1.01522 1.01841 1.01614 1.01411 1.01002 1.0199 1.02203 1.03736 1.03425 1.03456 1.03627 1.03302 1.03494 1.02696 1.02822 1.0245 1.03094 1.03123 1.02886 1.02966 1.02897 1.03118 1.02867 1.03023 1.02175 1.00909 0.769518 0.773051 0.814167 0.0 0.777043 0.906726 0.812217 0.736844 0.819751 0.796372 0.745482 0.746147 0.742013 0.811145 0.945637 0.98175 0.99691 1.00337 0.0 0.0 0.0 0.0 0.0 0.0 0.0 0.0 0.0 0.0 0.0 0.0 0.0 0.0 0.0 0.0 0.0 0.0 0.0 0.0 0.0 0.0 0.0 0.0 0.0 0.712976 0.708 0.721261 0.721433 0.733461 0.0 0.0 0.0 0.742824 0.71643 0.716824 0.0 0.0 0.0 0.0 0.0 0.0 0.678417 0.69304 0.694852 0.695739 0.699357 0.702658 0.0 0.0 0.0 0.0 0.0 0.0 0.0 0.0 0.0 0.0 0.0 0.0 0.0 0.66398 0.683512 0.684193 0.686987 0.687339 0.687983 0.0 0.0 0.0 0.0 0.0 0.0 0.0 0.0 0.0 0.0 0.0 0.0 0.0 0.0 0.0 0.0 0.0 0.0 0.0 0.0 0.0 0.0 0.0 0.0 0.0 0.0 1.01626 1.00698 1.00572 0.995524 1.00017 0.993218 0.998996 0.999111 0.995354 0.997191 0.992505 0.999593 0.995153 0.994518 0.992092 0.999322 0.992734 0.99608 0.994709 0.995643 0.99392 0.987803 0.997936 0.9877 0.990201 0.985429 0.989294 0.983597 0.983633 0.98133 0.987309 0.983779 0.98793 0.984324 0.987514 0.984966 0.979828
1.0156 1.01321 1.01502 1.01025 1.01224 1.01848 1.00754 1.01055 1.0118 1.01704 1.02542 1.03177 1.02886 1.02502 1.02143 1.02069 1.02165 1.02229 1.02085 1.02084 1.02225 1.02334 1.0203 1.0272 1.02233 1.02271 1.02483 1.02368 1.01807 0.922538 0.758985 0.0 0.762093 0.945186 0.977938 1.02055 0.892286 0.783734 0.846204 0.918917 0.989345 1.00215 1.02273 1.01576 1.00846 1.00142 0.0 0.0 0.0 0.0 0.0 0.0 0.0 0.0 0.0 0.0 0.0 0.0 0.0 0.0 0.0 0.0 0.0 0.0 0.0 0.0 0.0 0.0 0.0 0.0 0.0 0.730205 0.734052 0.0 0.0 0.0 0.0 0.706866 0.706988 0.70314 0.710852 0.712158 0.0 0.0 0.0 0.0 0.0 0.0 0.0 0.701173 0.692016 0.700215 0.699872 0.703782 0.0 0.0 0.0 0.0 0.0 0.735809 0.714672 0.0 0.0 0.0 0.0 0.0 0.0 0.0 0.67947 0.685921 0.681126 0.685728 0.690617 0.0 0.0 0.0 0.0 0.0 0.0 0.0 0.0 0.0 0.0 0.0 0.0 0.0 0.0 0.0 0.0 0.0 0.0 0.0 0.0 0.0 0.0 0.0 0.0 0.0 0.0 1.01462 1.00236 1.0014 0.994184 0.994379 0.990098 0.989655 0.996883 0.986917 0.994967 0.988807 0.994718 0.989106 0.991711 0.986938 0.9886 0.992278 0.986261 0.991913 0.983807 0.98909 0.981525 0.986146 0.986078 0.983078 0.985254 0.979303 0.984283 0.975399 0.984308 0.979385 0.978444 0.982031 0.980144 0.984478 0.979378 0.983601
