65241 65251 65253 65263 65268 65280 65284 65286 65289 65291 65289 65288 65287 65288 65285 65283 65293 65323 65350 65354 65354 65353 65353 65348 65347 65346 65344 65347 65351 65354 65355 65353 65358 65358 65364 65364 65364 65367 65370 65363 65355 65346 65332 65327 65318 65317 65333 0 0 0 0 0 0 0 0 0 0 0 0 0 0 0 0 0 65320 0 0 0 0 0 0 0 65329 65338 65332 65332 65340 0 0 0 0 0 0 65417 0 0 0 0 0 0 65441 65348 65357 65357 65357 65369 0 0 0 0 0 0 0 0 0 0 0 0 0 0 0 0 0 0 0 0 0 0 0 0 0 0 0 0 0 0 0 0 65225 65076 65100 65150 65184 65205 65197 65177 65166 65170 65159 65147 65145 65134 65131 65117 65097 65087 65067 65043 65055 65046 64962 64854 64879 64877 64910 64981 65034 65037 65052 65036 65015 65006 64983 64970 64983 64955 64969 64952 64946 64937 64903 64894 64886 64867 64850 64845
65243 65253 65261 65267 65276 65283 65286 65291 65291 65290 65289 65290 65289 65286 65288 65302 65332 65358 65359 65357 65353 65350 65348 65348 65344 65343 65345 65348 65355 65356 65359 65362 65361 65366 65366 65366 65365 65359 65353 65339 65328 65315 65307 65311 65394 65442 0 0 0 0 0 0 0 0 0 0 0 0 0 0 0 65322 65283 65269 65272 65390 0 0 0 0 0 0 65375 65335 65340 65371 65417 0 0 65407 65350 65344 65348 65368 0 0 0 0 0 0 0 65354 65358 65357 65357 65369 0 0 0 0 0 65397 65383 0 0 0 0 0 0 0 0 0 0 0 0 0 0 0 0 0 0 0 0 0 0 0 0 0 65422 65060 65094 65121 65170 65201 65193 65169 65152 65163 65156 65145 65137 65134 65128 65113 65091 65083 65063 65058 65061 65000 64890 64885 64896 64908 64967 65025 65063 65058 65052 65045 65020 64992 64979 64965 64966 64971 64967 64965 64929 64943 64921 64889 64889 64872 64854 64844
65250 65258 65265 65270 65275 65279 65288 65288 65286 65286 65287 65291 65287 65292 65307 65339 65357 65358 65355 65351 65350 65345 65342 65343 65345 65344 65347 65352 65357 65360 65361 65362 65364 65366 65365 65358 65351 65339 65326 65309 65303 65309 65367 65435 0 0 0 0 0 0 0 0 0 0 0 0 0 0 0 0 0 65278 65280 65274 65268 65311 0 0 0 0 0 0 0 65421 0 0 0 0 0 65337 65336 65342 65339 65352 0 0 0 0 0 0 0 65373 65374 65410 0 0 0 0 65373 65361 65363 65369 65378 0 0 0 0 0 0 0 0 0 0 0 0 0 0 0 0 0 0 0 0 0 0 0 0 0 0 65046 65082 65107 65149 65179 65188 65158 65160 65161 65147 65139 65133 65133 65113 65101 65087 65080 65070 65058 65050 64898 64881 64900 64934 64945 65032 65078 65072 65064 65050 65043 65014 65004 64983 64971 64980 64975 64959 64965 64957 64950 64925 64903 64887 64883 64869 64825
65259 65258 65266 65274 65280 65284 65285 65284 65288 65284 65285 65283 65291 65318 65354 65360 65357 65356 65350 65350 65346 65346 65342 65344 65345 65348 65351 65354 65355 65356 65361 65363 65364 65372 65362 65354 65347 65334 65321 65346 65429 0 0 0 0 0 0 0 0 0 0 0 0 0 0 0 0 0 0 0 0 65283 65264 65259 65268 65285 0 0 0 0 0 0 0 0 0 0 0 0 0 65345 65337 65343 65343 65349 0 0 0 0 0 0 0 0 0 0 0 0 0 0 65366 65365 65366 65372 65373 0 0 0 0 0 0 0 0 0 0 0 0 0 0 0 0 0 0 0 0 0 0 0 0 0 0 65134 65035 65074 65126 65163 65183 65162 65157 65162 65136 65140 65146 65122 65111 65098 65081 65076 65078 65067 64925 64862 64879 64919 64960 65011 65086 65100 65084 65068 65068 65051 65019 65023 65013 64996 64981 64988 64989 64974 64958 64935 64940 64908 64915 64885 64861 64850
65261 65267 65274 65278 65283 65287 65286 65283 65285 65282 65281 65297 65326 65356 65361 65358 65355 65347 65346 65348 65343 65346 65348 65346 65349 65355 65357 65354 65360 65362 65367 65372 65371 65371 65359 65350 65362 0 0 0 0 0 0 0 0 0 0 0 0 0 0 0 0 0 0 0 0 0 0 0 0 65335 65278 65276 65286 65302 65433 0 0 0 65380 65336 0 0 0 0 0 0 0 65391 65335 65340 65344 65341 65399 0 0 0 0 0 0 0 0 0 0 0 0 0 65374 65365 65368 65369 65370 65405 0 0 0 0 0 0 0 0 0 0 0 0 0 0 0 0 0 0 0 0 0 0 0 0 0 65381 64968 64964 65017 65102 65150 65141 65158 65151 65147 65141 65125 65115 65098 65085 65081 65084 65075 64966 64868 64868 64896 64947 65015 65088 65116 65110 65076 65061 65063 65060 65037 65021 65001 65009 64989 65001 64992 64965 64958 64947 64940 64941 64908 64900 64875 64868
65265 65272 65280 65281 65282 65280 65284 65278 65279 65281 65297 65340 65356 65361 65358 65353 65348 65347 65347 65347 65349 65349 65349 65348 65356 65357 65359 65357 65364 65368 65368 65368 65373 65371 65357 65347 0 0 0 0 0 0 0 0 0 0 0 0 0 0 0 0 0 0 0 0 0 0 0 0 0 65423 65303 65355 65422 0 0 65401 65324 65335 65329 65334 65399 0 0 0 0 0 0 0 65341 65353 65373 65412 0 0 0 65382 65350 65356 65358 0 0 0 0 0 0 0 65400 65370 65370 65368 65368 65389 0 0 0 0 0 65421 0 0 0 0 0 0 0 0 0 0 0 0 0 0 0 0 0 0 0 0 65235 65201 65126 65065 65015 65043 65078 65117 65129 65121 65115 65108 65104 65092 65080 65071 65011 64865 64875 64916 64944 65001 65072 65117 65126 65113 65078 65070 65066 65049 65034 65024 65020 65025 65010 64998 65006 64995 64973 64967 64956 64926 64936 64901 64908 64894
65266 65272 65277 65278 65281 65279 65278 65265 65286 65305 65349 65359 65360 65354 65350 65349 65347 65348 65345 65345 65346 65351 65348 65356 65358 65358 65358 65365 65367 65369 65371 65372 65372 65371 65358 65334 65418 0 0 0 0 0 0 0 0 0 0 0 0 0 0 0 0 0 0 0 0 0 0 0 0 0 0 0 0 0 0 65436 65324 65331 65336 65332 65352 0 0 0 0 0 0 0 65428 0 0 0 0 0 65344 65350 65350 65353 65359 65443 0 0 0 0 0 0 0 65379 65389 65412 0 0 0 0 65388 65379 65379 65380 65414 0 0 0 0 0 0 0 0 0 0 0 0 0 0 0 0 0 0 0 65300 65309 65326 65323 65266 65154 65013 64986 65020 65048 65058 65080 65087 65090 65077 65060 64887 64871 64874 64926 64986 65073 65112 65128 65121 65122 65099 65081 65075 65043 65048 65042 65031 65011 65021 65015 65007 65007 64989 64972 64955 64949 64930 64916 64901 64904
65267 65279 65280 65276 65273 65272 65271 65288 65323 65356 65361 65359 65353 65349 65347 65343 65343 65341 65343 65350 65350 65349 65354 65356 65358 65360 65367 65368 65368 65370 65372 65371 65370 65373 65355 65323 65334 0 0 0 0 0 0 0 0 0 0 0 0 0 0 0 0 0 0 0 0 0 0 0 0 0 0 0 0 0 0 0 65321 65317 65327 65333 65338 0 0 0 0 0 0 0 0 0 0 0 0 0 65381 65348 65353 65353 65362 65402 0 0 0 0 0 0 0 0 0 0 0 0 0 65403 65378 65379 65375 65385 65389 0 0 0 0 0 0 0 0 0 0 0 0 0 0 0 0 0 0 0 65363 65315 65333 65366 65371 65362 65326 65240 65102 64947 64914 64956 65007 65039 65067 64886 64862 64855 64911 64957 65050 65130 65151 65135 65128 65129 65095 65082 65076 65062 65055 65048 65034 65033 65030 65019 65013 65006 64998 64975 64957 64957 64937 64934 64919 64908
65278 65279 65277 65274 65267 65266 65289 65329 65355 65357 65353 65354 65344 65347 65341 65347 65346 65345 65347 65350 65348 65354 65354 65362 65363 65367 65370 65370 65370 65371 65376 65377 65377 65377 65360 65328 65306 0 0 0 0 0 0 0 0 0 0 0 0 0 0 0 0 0 0 0 0 0 0 0 0 0 0 0 0 0 0 0 65339 65322 65338 65340 65354 0 0 0 0 65383 65315 65406 0 0 0 0 0 0 0 65350 65355 65352 65359 65374 0 0 0 0 0 0 0 0 0 0 0 0 0 0 65381 65384 65378 65378 65387 0 0 0 0 0 0 0 0 0 0 0 0 0 0 0 0 0 0 0 65436 65312 65336 65368 65378 65376 65379 65372 65360 65316 65220 65052 64923 64915 64779 64698 64768 64817 64895 65033 65117 65160 65158 65141 65137 65121 65102 65081 65080 65066 65068 65045 65044 65036 65037 65025 65006 64994 65002 64978 64970 64965 64955 64941 64913 64913
65275 65275 65270 65263 65267 65294 65335 65354 65355 65352 65352 65347 65346 65344 65345 65345 65345 65346 65352 65354 65354 65356 65361 65364 65366 65369 65371 65372 65372 65374 65375 65375 65380 65380 65375 65343 65309 0 0 0 0 0 0 0 0 0 0 0 0 0 0 0 0 0 0 0 0 0 0 0 0 0 0 0 0 0 0 0 65414 65357 65406 0 0 0 65424 65314 65312 65307 65310 65350 0 0 0 0 0 0 0 65350 65359 65368 65393 65426 0 0 0 65411 65377 65375 65415 0 0 0 0 0 0 0 65382 65379 65377 65381 65387 65440 0 0 0 0 0 0 0 0 0 0 0 0 0 0 0 0 0 0 0 65309 65334 65365 65381 65380 65381 65381 65381 65376 65371 65351 65308 65192 64967 64728 64618 64666 64864 65049 65121 65153 65150 65138 65142 65125 65105 65094 65081 65065 65064 65061 65058 65050 65050 65030 65015 65012 65011 64987 64990 64967 64952 64956 64922 64903
65274 65269 65252 65265 65304 65345 65354 65356 65353 65348 65345 65345 65342 65342 65344 65348 65347 65349 65352 65356 65359 65360 65365 65370 65370 65369 65370 65375 65375 65372 65378 65380 65383 65384 65381 65355 65319 65382 0 0 0 0 0 0 0 0 0 0 0 0 0 0 0 0 0 0 0 0 0 0 0 0 0 0 0 0 0 0 0 0 0 0 0 0 0 65314 65307 65310 65317 65324 0 0 0 0 0 0 0 65411 65436 0 0 0 0 65410 65381 65375 65375 65366 65380 0 0 0 0 0 0 0 65387 65380 65386 65399 65419 65443 0 0 0 0 0 0 0 0 0 0 0 0 0 0 0 0 0 0 0 65334 65326 65359 65383 65390 65386 65386 65384 65384 65382 65379 65375 65367 65352 65304 65187 64933 64851 64977 65061 65104 65111 65133 65119 65110 65113 65095 65104 65093 65061 65072 65068 65063 65055 65047 65029 65015 65011 65010 65010 64981 64977 64961 64932 64933
65261 65253 65271 65313 65348 65354 65355 65347 65350 65345 65344 65344 65341 65344 65344 65351 65351 65356 65352 65356 65361 65363 65364 65366 65369 65369 65374 65375 65376 65377 65380 65382 65383 65387 65388 65369 65330 65320 0 0 0 0 0 0 0 0 0 0 0 0 0 0 0 0 0 0 0 0 0 0 0 0 0 0 0 0 0 65420 0 0 0 0 0 0 0 65325 65318 65313 65311 65321 65444 0 0 0 0 0 0 0 0 0 0 0 0 0 65376 65375 65371 65365 65367 0 0 0 0 0 0 0 65434 65441 0 0 0 0 0 0 0 0 0 0 0 0 0 0 0 0 0 0 0 0 0 0 0 65399 65325 65348 65377 65390 65392 65389 65389 65384 65384 65382 65382 65380 65375 65375 65369 65351 65295 65155 65017 64990 65022 65052 65080 65088 65092 65091 65105 65085 65088 65084 65082 65067 65065 65061 65047 65018 65013 65014 64989 64993 64990 64961 64947 64920
65252 65274 65321 65350 65354 65356 65353 65347 65346 65342 65343 65341 65340 65346 65345 65351 65353 65359 65358 65361 65366 65364 65368 65370 65373 65375 65377 65378 65377 65380 65381 65382 65384 65387 65387 65377 65345 65315 0 0 0 0 0 0 0 0 0 0 0 0 0 0 0 0 0 0 0 0 0 0 0 0 0 0 65415 65312 65301 65299 65427 0 0 0 0 0 0 65380 65315 65315 65324 65341 65407 0 0 0 0 65379 65381 0 0 0 0 0 0 0 65371 65368 65372 65368 65373 65433 0 0 0 0 0 0 0 0 0 0 0 0 0 0 0 0 0 0 0 0 0 0 0 0 0 0 0 0 0 0 0 0 65322 65348 65373 65395 65390 65393 65391 65388 65385 65383 65384 65384 65380 65381 65380 65377 65376 65366 65338 65247 65084 64972 64956 64989 65019 65055 65084 65078 65072 65076 65075 65062 65063 65063 65040 65034 65028 65024 65004 65001 64991 64982 64957 64947
65278 65332 65353 65354 65352 65352 65348 65345 65341 65338 65342 65339 65345 65343 65351 65353 65358 65363 65366 65366 65367 65364 65373 65375 65375 65375 65375 65378 65379 65381 65382 65384 65385 65390 65388 65386 65356 65323 65431 0 0 0 0 0 0 0 0 0 0 0 0 0 0 0 0 0 0 0 0 0 0 0 0 0 65288 65296 65294 65296 65357 0 0 0 0 0 0 0 65350 65394 65436 0 0 0 65362 65355 65357 65364 65368 0 0 0 0 0 0 0 65389 65372 65371 65370 65387 65421 0 0 0 0 65389 65380 0 0 0 0 0 0 0 0 0 0 0 0 0 0 0 0 0 0 0 0 0 0 0 0 0 0 65322 65340 65373 65389 65394 65391 65393 65392 65391 65389 65386 65381 65387 65383 65384 65384 65380 65381 65377 65374 65361 65317 65192 65007 64920 64952 64985 65035 65049 65064 65083 65070 65071 65084 65060 65065 65035 65041 65020 65009 65007 64991 64980 64966
65336 65352 65354 65351 65347 65347 65345 65343 65338 65338 65338 65346 65346 65350 65356 65359 65362 65364 65363 65367 65367 65370 65376 65377 65374 65378 65379 65379 65380 65383 65383 65388 65390 65392 65392 65387 65370 65331 65367 0 0 0 0 0 0 0 0 0 0 0 0 0 0 0 0 0 0 0 0 0 0 0 0 0 65301 65296 65291 65302 65309 0 0 0 0 0 0 0 0 0 0 0 0 0 65356 65355 65359 65364 65366 0 0 0 0 0 0 0 0 65404 65430 0 0 0 0 65377 65368 65370 65369 65375 0 0 0 0 0 0 0 0 0 0 0 0 0 0 0 0 0 0 0 0 0 0 0 0 0 0 65362 65339 65363 65390 65397 65396 65393 65395 65390 65391 65390 65387 65386 65388 65386 65383 65384 65379 65382 65382 65379 65375 65367 65341 65260 65098 64937 64898 64917 64966 65021 65047 65061 65064 65073 65068 65051 65049 65040 65029 65020 64985 64984 64964
65352 65354 65354 65349 65347 65344 65342 65340 65341 65342 65345 65350 65349 65356 65355 65360 65367 65369 65368 65370 65369 65375 65375 65374 65380 65379 65383 65384 65385 65387 65389 65390 65389 65390 65393 65390 65382 65345 65321 0 0 0 0 0 0 0 0 0 0 0 0 0 0 0 0 0 0 0 0 0 0 0 0 0 65315 65294 65290 65297 65304 0 0 0 0 0 0 0 0 0 0 0 0 0 65376 65359 65361 65360 65359 65411 0 0 0 0 0 0 0 0 0 0 0 0 0 65384 65376 65373 65369 65377 65413 0 0 0 0 0 0 0 0 0 0 0 0 0 0 0 0 0 0 0 0 0 0 0 0 0 65427 65333 65361 65387 65400 65397 65397 65395 65393 65388 65393 65387 65389 65391 65389 65387 65385 65385 65381 65383 65383 65379 65378 65375 65370 65356 65313 65203 65011 64891 64878 64949 64993 65005 65043 65063 65063 65056 65049 65038 65016 64990 64988 64974
65351 65354 65351 65346 65346 65344 65341 65340 65344 65341 65351 65357 65358 65358 65358 65365 65366 65370 65369 65370 65374 65373 65376 65378 65382 65384 65383 65386 65386 65390 65390 65390 65392 65392 65391 65393 65388 65358 65324 0 0 0 0 0 0 0 0 0 0 0 0 0 0 0 0 0 0 0 0 0 0 0 0 0 65409 65302 65316 65336 65399 0 0 0 65356 65343 65346 65433 0 0 0 0 0 0 65426 65359 65359 65360 65362 65380 0 0 0 0 0 65396 0 0 0 0 0 0 0 65424 65377 65374 65370 65374 65392 0 0 0 0 0 0 0 0 0 0 0 0 0 0 0 0 0 0 0 0 0 0 0 0 0 0 65335 65357 65387 65398 65399 65401 65396 65396 65395 65394 65393 65393 65394 65392 65392 65386 65388 65386 65384 65385 65383 65379 65381 65376 65375 65369 65362 65340 65284 65150 64975 64882 64885 64955 65001 65030 65046 65048 65028 65023 65015 65000 64998
65349 65350 65347 65340 65342 65344 65343 65344 65344 65345 65353 65355 65357 65363 65361 65364 65366 65370 65370 65370 65374 65378 65378 65377 65382 65384 65387 65389 65386 65391 65390 65394 65393 65395 65396 65394 65392 65372 65339 65398 0 0 0 0 0 0 0 0 0 0 0 0 0 0 0 0 0 0 0 0 0 0 0 0 0 65413 0 0 0 0 65417 65341 65340 65343 65345 65383 0 0 0 0 0 0 0 65367 65376 65400 65431 0 0 65428 65362 65348 65342 65343 65434 0 0 0 0 0 0 0 65376 65373 65370 65374 65387 0 0 0 0 0 0 0 0 0 0 0 0 0 0 0 0 0 0 0 0 0 0 0 0 0 0 65347 65358 65383 65400 65400 65401 65397 65399 65396 65395 65396 65393 65397 65393 65395 65392 65394 65390 65389 65385 65385 65385 65382 65381 65379 65379 65378 65375 65369 65359 65330 65246 65084 64908 64879 64929 64980 64988 65002 65008 65027 65018 64991
65349 65349 65339 65338 65341 65342 65348 65348 65352 65353 65356 65358 65360 65362 65362 65368 65370 65369 65375 65374 65377 65378 65378 65383 65386 65385 65387 65387 65393 65395 65391 65393 65391 65398 65397 65400 65399 65387 65354 65357 0 0 0 0 0 0 0 0 0 0 0 0 0 0 0 0 0 0 0 0 0 0 0 0 0 0 0 0 0 0 0 65343 65333 65343 65342 65354 0 0 0 0 0 0 0 0 0 0 0 0 0 65366 65347 65343 65343 65347 65389 0 0 0 0 0 0 0 65375 65387 65410 65437 0 0 0 65402 65372 65370 65371 65384 0 0 0 0 0 0 0 0 0 0 0 0 0 0 0 0 0 0 0 65390 65354 65377 65398 65401 65401 65400 65400 65400 65397 65395 65395 65394 65394 65392 65392 65392 65391 65390 65390 65389 65388 65385 65382 65382 65381 65376 65376 65375 65374 65369 65364 65348 65311 65192 64999 64878 64854 64900 64933 64975 64977 64999
65343 65342 65331 65338 65342 65344 65351 65349 65352 65358 65361 65362 65363 65364 65369 65366 65371 65366 65377 65375 65376 65382 65387 65387 65382 65386 65389 65391 65390 65391 65395 65397 65397 65399 65400 65395 65404 65396 65370 65341 0 0 0 0 0 0 0 0 0 0 0 0 0 0 0 0 0 0 0 0 0 0 0 0 0 0 0 0 0 0 0 65349 65338 65344 65343 65348 0 0 0 0 0 0 0 0 0 0 0 0 0 65417 65350 65348 65341 65339 65362 0 0 0 0 0 0 0 0 0 0 0 0 0 65428 65367 65367 65374 65372 65375 0 0 0 0 0 0 0 0 0 0 0 0 0 0 0 0 0 0 0 0 65348 65375 65399 65405 65403 65401 65400 65401 65399 65397 65399 65395 65398 65397 65392 65394 65390 65391 65390 65389 65385 65386 65384 65382 65380 65376 65375 65372 65369 65372 65369 65369 65368 65356 65332 65260 65099 64915 64841 64842 64910 64955
65337 65337 65338 65341 65343 65349 65351 65352 65356 65361 65362 65365 65368 65369 65371 65376 65376 65374 65377 65376 65379 65384 65384 65386 65389 65391 65393 65390 65393 65393 65396 65398 65398 65400 65402 65404 65405 65400 65380 65345 0 0 0 0 0 0 0 0 0 0 0 0 0 0 0 0 0 0 0 0 0 0 0 0 0 0 0 0 0 0 0 65382 65342 65348 65371 65401 0 0 0 65407 65362 65355 65411 0 0 0 0 0 0 0 65357 65354 65347 65350 65353 0 0 0 0 0 0 0 0 0 0 0 0 0 0 65369 65365 65372 65371 65371 0 0 0 0 0 0 0 0 0 0 0 0 0 0 0 0 0 0 0 0 65337 65365 65400 65409 65407 65407 65404 65403 65402 65402 65403 65400 65398 65393 65396 65394 65396 65395 65390 65389 65387 65383 65382 65383 65380 65375 65373 65372 65367 65367 65366 65370 65372 65372 65364 65355 65341 65296 65187 64979 64844 64820
65332 65331 65339 65345 65349 65353 65349 65356 65360 65363 65364 65368 65371 65375 65377 65378 65380 65381 65384 65383 65384 65385 65386 65388 65388 65391 65393 65394 65395 65396 65400 65397 65400 65400 65403 65405 65407 65405 65392 65360 65376 0 0 0 0 0 0 0 0 0 0 0 0 0 0 0 0 0 0 0 0 0 0 0 0 0 0 0 0 0 0 0 65422 0 0 0 0 0 65356 65349 65353 65349 65373 0 0 0 0 0 0 0 65364 65366 65371 65399 65431 0 0 0 65403 65353 65354 65375 0 0 0 0 0 0 0 65369 65365 65369 65368 65372 65405 0 0 0 0 0 0 0 0 0 0 0 0 0 0 0 0 0 0 0 65354 65359 65391 65407 65409 65407 65407 65404 65403 65403 65402 65401 65398 65400 65396 65398 65395 65398 65397 65395 65392 65387 65386 65376 65377 65376 65375 65371 65371 65369 65365 65365 65368 65371 65373 65366 65359 65349 65343 65312 65240 65049
65332 65333 65342 65350 65354 65355 65357 65359 65360 65361 65368 65370 65373 65375 65376 65380 65386 65383 65383 65384 65389 65388 65389 65391 65391 65388 65393 65393 65397 65401 65402 65402 65403 65405 65406 65406 65407 65408 65400 65374 65348 0 0 0 0 0 0 0 0 0 0 0 0 0 0 0 0 0 0 0 0 0 0 0 0 0 0 0 0 0 0 0 0 0 0 0 0 0 65356 65350 65350 65354 65359 0 0 0 0 0 0 0 65426 0 0 0 0 0 0 65347 65346 65348 65348 65364 0 0 0 0 0 0 0 65399 65364 65367 65379 65395 65421 0 0 0 0 0 0 0 0 0 0 0 0 0 0 0 0 0 0 0 65404 65356 65382 65408 65411 65409 65410 65408 65409 65405 65402 65403 65399 65399 65397 65402 65395 65398 65398 65396 65391 65388 65385 65384 65379 65379 65377 65374 65370 65366 65366 65365 65363 65363 65370 65372 65367 65364 65359 65351 65338 65321
65334 65344 65348 65351 65351 65355 65357 65359 65361 65362 65366 65371 65368 65374 65378 65380 65380 65385 65385 65388 65387 65389 65392 65394 65395 65394 65394 65397 65398 65400 65400 65405 65405 65408 65408 65406 65409 65412 65407 65388 65353 0 0 0 0 0 0 0 0 0 0 0 0 0 0 0 0 0 0 0 0 0 0 0 0 0 0 0 0 65419 65366 65435 0 0 0 0 0 0 65379 65352 65352 65350 65359 65438 0 0 0 0 0 0 0 0 0 0 0 0 0 65351 65351 65345 65349 65358 65439 0 0 0 0 0 0 0 65414 65439 0 0 0 0 0 0 0 0 0 0 0 0 0 0 0 0 0 0 0 0 0 0 0 65352 65379 65403 65409 65413 65414 65413 65409 65409 65406 65403 65399 65401 65401 65403 65402 65399 65400 65397 65394 65392 65391 65389 65383 65385 65385 65376 65378 65373 65367 65363 65366 65364 65360 65374 65373 65371 65365 65364 65355 65350
65341 65346 65350 65353 65356 65355 65359 65360 65364 65371 65372 65375 65375 65376 65376 65376 65377 65385 65384 65386 65390 65391 65392 65395 65396 65400 65399 65398 65402 65403 65402 65405 65407 65408 65407 65410 65409 65412 65410 65400 65361 65407 0 0 0 0 0 0 0 0 0 0 0 0 0 0 0 0 0 0 0 0 0 0 0 0 0 65332 65325 65332 65330 65387 0 0 0 0 0 0 65429 65361 65358 65366 65386 65431 0 0 0 0 65383 65363 0 0 0 0 0 0 0 65370 65357 65354 65356 65356 65395 0 0 0 0 0 0 0 0 0 0 0 0 0 0 0 0 0 0 0 0 0 0 0 0 0 0 0 0 0 0 0 0 65349 65370 65402 65412 65412 65410 65414 65415 65409 65406 65407 65405 65405 65403 65404 65401 65404 65403 65402 65399 65400 65398 65396 65393 65395 65389 65391 65387 65383 65377 65370 65368 65366 65362 65366 65366 65370 65367 65365 65362 65360
65346 65349 65355 65358 65360 65361 65361 65365 65371 65371 65375 65374 65379 65375 65378 65381 65382 65384 65388 65387 65392 65394 65397 65397 65399 65400 65399 65405 65402 65404 65406 65409 65408 65408 65408 65412 65413 65413 65413 65408 65379 65363 0 0 0 0 0 0 0 0 0 0 0 0 0 0 0 0 0 0 0 0 0 0 0 0 0 65327 65330 65329 65332 65343 0 0 0 0 0 0 0 65397 65430 0 0 0 0 65344 65327 65331 65333 65346 0 0 0 0 0 0 0 65414 65361 65361 65365 65382 65406 0 0 0 0 65412 65387 0 0 0 0 0 0 0 0 0 0 0 0 0 0 0 0 0 0 0 0 0 0 0 0 0 0 65365 65367 65397 65411 65412 65413 65411 65414 65412 65410 65409 65409 65405 65407 65407 65406 65406 65405 65407 65403 65406 65405 65405 65402 65400 65397 65399 65394 65387 65387 65380 65374 65370 65367 65367 65365 65369 65369 65368 65361 65359
65347 65352 65355 65359 65362 65363 65368 65372 65378 65380 65376 65377 65378 65379 65380 65384 65387 65389 65394 65393 65396 65392 65400 65400 65401 65402 65402 65404 65405 65407 65407 65409 65408 65413 65410 65412 65413 65413 65411 65413 65388 65353 0 0 0 0 0 0 0 0 0 0 0 0 0 0 0 0 0 0 0 0 0 0 0 0 0 65341 65339 65333 65333 65338 0 0 0 0 0 0 0 0 0 0 0 0 0 65350 65329 65330 65328 65338 65425 0 0 0 0 0 0 0 65396 65423 0 0 0 0 65379 65368 65372 65377 65382 65415 0 0 0 0 0 0 0 0 0 0 0 0 0 0 0 0 0 0 0 0 0 0 0 0 0 65411 65366 65388 65412 65415 65415 65417 65415 65414 65411 65411 65412 65411 65408 65404 65405 65403 65407 65404 65404 65405 65405 65405 65404 65401 65405 65401 65397 65393 65392 65386 65382 65379 65375 65373 65368 65366 65370 65368 65363 65358
65352 65351 65355 65362 65369 65372 65374 65379 65380 65380 65379 65385 65387 65387 65389 65389 65389 65396 65395 65397 65397 65399 65399 65400 65401 65402 65403 65406 65404 65406 65407 65412 65413 65414 65417 65416 65412 65412 65415 65412 65390 65348 65424 0 0 0 0 0 0 0 0 0 0 0 0 0 0 0 0 0 0 0 0 0 0 0 0 65395 65332 65334 65339 65350 65429 0 0 0 0 65380 0 0 0 0 0 0 0 65407 65334 65333 65334 65339 65180 0 0 0 0 0 0 0 0 0 0 0 0 0 65400 65369 65370 65376 65375 65391 0 0 0 0 0 0 0 0 0 0 0 0 0 0 0 0 0 0 0 0 0 0 0 0 0 0 65359 65387 65413 65417 65416 65419 65416 65413 65413 65413 65411 65411 65409 65411 65408 65407 65405 65406 65401 65406 65403 65402 65402 65401 65402 65399 65399 65397 65393 65389 65384 65378 65380 65378 65376 65371 65370 65371 65366 65362
65355 65356 65358 65370 65371 65372 65376 65379 65380 65382 65385 65387 65389 65395 65393 65393 65396 65398 65399 65398 65399 65398 65400 65399 65401 65403 65405 65406 65408 65407 65411 65411 65413 65416 65418 65415 65415 65411 65407 65393 65370 65304 65334 0 0 0 0 65399 0 0 0 0 0 0 0 0 0 0 0 0 0 0 0 0 0 0 0 0 65353 65383 65423 0 0 0 65325 65309 65307 65310 65391 0 0 0 0 0 0 0 65340 65335 65340 65350 65371 0 0 0 0 0 65410 0 0 0 0 0 0 0 0 65375 65371 65376 65377 65381 0 0 0 0 0 0 0 0 0 0 0 0 0 0 0 0 0 0 0 0 0 0 0 0 0 0 65351 65383 65407 65418 65418 65413 65417 65415 65412 65413 65411 65409 65414 65410 65408 65411 65409 65407 65404 65405 65402 65404 65404 65400 65402 65401 65399 65397 65396 65393 65388 65385 65381 65379 65377 65374 65370 65371 65368 65368
65360 65362 65362 65367 65369 65373 65375 65375 65380 65385 65386 65389 65392 65393 65393 65395 65396 65400 65399 65400 65400 65399 65400 65399 65404 65403 65407 65408 65409 65408 65414 65412 65413 65412 65413 65405 65402 65391 65380 65369 65355 65281 65207 65428 65351 65302 65356 65373 0 0 0 0 0 0 0 0 0 0 0 0 0 0 0 0 0 0 0 0 0 0 0 0 0 0 65314 65306 65304 65311 65337 0 0 0 0 0 0 0 65356 65372 65410 65439 0 0 65423 65366 65345 65345 65355 65411 0 0 0 0 0 0 0 65372 65372 65377 65382 65390 0 0 0 0 0 0 0 0 0 0 0 0 0 0 0 0 0 0 0 0 0 0 0 0 0 0 65360 65377 65403 65417 65420 65417 65416 65415 65411 65410 65412 65411 65410 65411 65409 65408 65407 65408 65407 65403 65403 65402 65402 65400 65404 65402 65397 65398 65398 65394 65390 65389 65384 65379 65378 65377 65375 65373 65371 65366
65363 65360 65368 65371 65371 65369 65375 65379 65382 65382 65390 65389 65390 65394 65396 65397 65398 65397 65403 65400 65399 65403 65404 65404 65406 65405 65411 65409 65412 65414 65415 65412 65408 65403 65396 65380 65370 65358 65344 65287 65203 65207 65285 65319 65338 65326 65357 65369 65421 0 0 0 0 0 0 0 0 0 0 0 0 0 0 0 0 0 0 0 0 0 0 0 0 0 65320 65308 65307 65311 65316 0 0 0 0 0 0 0 0 0 0 0 0 0 65418 65341 65336 65344 65347 65372 0 0 0 0 0 0 0 65386 65388 65406 65424 0 0 0 0 65401 65373 65373 65373 0 0 0 0 0 0 0 0 0 0 0 0 0 0 0 0 0 0 0 65415 65373 65402 65417 65419 65417 65414 65413 65414 65414 65413 65414 65412 65414 65410 65409 65409 65411 65405 65404 65407 65406 65405 65405 65401 65399 65398 65402 65399 65395 65392 65391 65385 65387 65383 65378 65376 65376 65372 65366
65361 65367 65369 65373 65374 65375 65378 65378 65380 65387 65391 65392 65393 65398 65395 65400 65399 65399 65395 65399 65398 65402 65407 65409 65407 65406 65408 65409 65414 65413 65416 65413 65406 65389 65381 65350 65285 65113 64763 64615 65050 65288 65291 65322 65332 65343 65338 65366 65387 0 0 0 0 0 0 0 0 0 0 0 0 0 0 0 0 0 0 0 0 0 0 0 0 0 65359 65311 65313 65316 65326 65425 0 0 0 0 0 0 0 0 0 0 0 0 0 65339 65347 65343 65352 65359 0 0 0 0 0 0 0 0 0 0 0 0 0 0 65367 65368 65367 65375 65376 0 0 0 0 0 0 0 0 0 0 0 0 0 0 0 0 0 0 0 0 65366 65395 65418 65420 65420 65418 65418 65419 65416 65415 65411 65412 65413 65410 65411 65410 65410 65405 65406 65407 65407 65405 65404 65403 65403 65401 65397 65405 65398 65399 65392 65391 65389 65384 65385 65382 65379 65379 65373
65356 65361 65367 65370 65376 65379 65382 65382 65385 65388 65390 65392 65395 65397 65396 65399 65400 65402 65401 65403 65400 65405 65410 65411 65409 65413 65411 65412 65411 65412 65418 65412 65399 65381 65228 64680 64495 64562 64726 64770 64959 65296 65301 65307 65321 65332 65332 65351 65375 0 0 0 0 0 0 0 0 0 0 0 0 0 0 0 0 0 0 0 0 0 0 0 0 0 65429 65332 65350 65392 65436 0 0 0 65380 65351 65352 65378 0 0 0 0 0 0 0 65350 65342 65346 65349 65354 0 0 0 0 0 0 0 0 0 0 0 0 0 0 65383 65366 65368 65371 65376 65403 0 0 0 0 0 0 0 0 0 0 0 0 0 0 0 0 0 0 0 65364 65386 65417 65420 65420 65419 65414 65420 65419 65418 65413 65413 65412 65414 65412 65415 65413 65414 65409 65407 65407 65410 65404 65403 65403 65405 65402 65402 65395 65399 65399 65395 65391 65388 65389 65386 65387 65381 65375
65351 65360 65366 65370 65371 65380 65383 65381 65387 65388 65392 65395 65397 65399 65398 65403 65399 65398 65400 65405 65408 65410 65409 65410 65412 65414 65413 65414 65413 65414 65413 65401 65382 65354 64089 64461 64644 64661 64857 65062 64920 65267 65262 65291 65331 65351 65342 65366 65370 65430 0 0 0 0 0 0 0 0 0 0 0 0 0 0 0 0 0 0 0 0 0 0 0 0 0 0 0 0 0 0 0 65347 65345 65352 65352 65361 0 0 0 0 0 0 0 65393 65354 65367 65387 65417 0 0 0 0 65382 65369 65379 0 0 0 0 0 0 0 65403 65365 65368 65376 65375 65384 0 0 0 0 0 0 0 0 0 0 0 0 0 0 0 0 0 0 0 65373 65384 65409 65421 65421 65422 65420 65420 65416 65417 65415 65416 65415 65414 65416 65413 65416 65415 65411 65409 65412 65407 65404 65406 65403 65401 65403 65402 65400 65401 65398 65399 65395 65392 65390 65387 65388 65386 65384
65350 65358 65365 65370 65374 65380 65382 65386 65391 65392 65395 65397 65400 65401 65400 65402 65399 65403 65402 65409 65412 65412 65410 65410 65415 65415 65417 65415 65405 65407 65393 65373 65334 65266 64301 64659 64872 64871 64781 65065 65065 65063 64981 65287 65291 65340 65344 65345 65355 65390 0 0 0 0 0 0 0 0 0 0 0 0 0 0 0 0 0 0 0 0 0 0 0 0 0 0 0 0 0 0 0 65367 65347 65349 65347 65354 65434 0 0 0 0 0 0 0 65440 0 0 0 0 0 65372 65368 65369 65367 65371 0 0 0 0 0 0 0 65438 65365 65370 65379 65387 65400 0 0 0 0 0 0 0 0 0 0 0 0 0 0 0 0 0 0 0 65414 65384 65408 65425 65424 65421 65423 65422 65422 65419 65417 65418 65419 65416 65416 65413 65415 65411 65414 65411 65412 65405 65409 65406 65402 65404 65405 65404 65404 65403 65345 65400 65397 65393 65391 65392 65391 65388 65388
65329 65350 65363 65367 65374 65374 65383 65385 65391 65393 65397 65398 65402 65399 65401 65403 65403 65405 65408 65413 65409 65410 65410 65412 65416 65414 65414 65408 65397 65381 65361 65329 65255 64862 64691 64877 64824 64637 64474 64591 65284 65359 64980 65236 65284 65332 65337 65303 65344 65367 0 0 0 0 0 0 0 0 0 0 0 0 0 0 0 0 0 0 0 0 0 65383 65310 65294 65409 0 0 0 0 0 0 65411 65349 65347 65352 65353 65394 0 0 0 0 0 0 0 0 0 0 0 0 0 65371 65370 65368 65369 65368 65419 0 0 0 0 0 0 0 65391 65417 65442 0 0 0 0 0 0 0 0 0 0 0 0 0 0 0 0 0 0 0 0 0 0 65377 65403 65422 65426 65426 65426 65421 65423 65420 65421 65419 65420 65417 65418 65414 65416 65414 65411 65412 65413 65412 65406 65407 65405 65406 65407 65406 65405 65400 65402 65400 65399 65397 65397 65396 65394 65391 65387
65327 65334 65350 65366 65374 65378 65382 65385 65392 65392 65397 65400 65402 65403 65401 65408 65408 65412 65407 65409 65407 65411 65415 65415 65418 65413 65408 65395 65366 65324 65258 65301 64937 64495 65028 65281 65016 64664 64391 64565 65090 65150 65112 65262 65316 65314 65332 65306 65337 65369 0 0 0 0 0 0 0 0 0 0 0 0 0 0 0 0 0 0 0 0 65284 65286 65289 65296 65335 0 0 0 0 0 0 0 65354 65358 65372 65390 65417 0 0 0 65405 65358 65350 0 0 0 0 0 0 0 65384 65369 65370 65368 65366 65382 0 0 0 0 0 0 0 0 0 0 0 0 0 0 0 0 0 0 0 0 0 0 0 0 0 0 0 0 0 0 0 0 65371 65399 65421 65427 65425 65426 65425 65424 65421 65420 65419 65417 65419 65415 65416 65417 65415 65416 65413 65412 65411 65409 65409 65404 65403 65405 65404 65404 65403 65406 65399 65396 65395 65397 65396 65392 65391 65391
65331 65334 65340 65350 65365 65378 65379 65386 65393 65394 65397 65400 65403 65402 65403 65409 65406 65407 65412 65408 65410 65416 65416 65414 65416 65411 65402 65376 65292 64752 64790 64937 65154 64316 65032 65299 64989 64752 65024 64824 65205 64930 65214 65290 65320 65305 65319 65325 65404 0 0 0 0 0 0 0 0 0 0 0 0 0 0 0 0 0 0 0 0 0 65287 65286 65279 65295 65305 0 0 0 0 0 0 0 65409 65438 0 0 0 0 65342 65330 65329 65331 65331 0 0 0 0 0 0 0 65422 65364 65366 65370 65376 65388 0 0 0 0 65410 65377 65415 0 0 0 0 0 0 0 0 0 0 0 0 0 0 0 0 0 0 0 0 0 0 0 0 0 65373 65398 65418 65429 65426 65425 65424 65423 65423 65421 65421 65420 65418 65417 65421 65416 65417 65417 65413 65412 65414 65413 65409 65408 65406 65407 65404 65405 65406 65401 65401 65401 65398 65397 65398 65391 65390 65396
65337 65340 65343 65346 65354 65366 65380 65385 65392 65392 65397 65401 65400 65405 65408 65412 65410 65410 65410 65415 65416 65414 65418 65419 65419 65411 65399 65261 64321 65129 65277 65156 65088 64837 64599 64765 64825 65098 64993 64904 64981 64919 65018 65275 65249 65212 0 0 0 0 0 0 0 0 0 0 0 0 0 0 0 0 0 0 0 0 0 0 0 0 65345 65284 65293 65289 65290 65435 0 0 0 0 0 0 0 0 0 0 0 0 65369 65324 65330 65330 65336 65399 0 0 0 0 0 0 0 65382 65404 65428 0 0 0 65396 65366 65369 65372 65371 65385 0 0 0 0 0 0 0 0 0 0 0 0 0 0 0 0 0 0 0 0 0 0 0 0 0 65407 65393 65417 65429 65430 65429 65423 65426 65422 65422 65423 65422 65421 65421 65418 65418 65417 65417 65414 65412 65414 65411 65411 65409 65409 65409 65408 65408 65406 65404 65404 65401 65399 65400 65398 65393 65391 65390
65341 65345 65348 65350 65350 65357 65364 65376 65392 65397 65399 65398 65401 65406 65406 65413 65412 65413 65413 65415 65417 65418 65415 65418 65420 65410 65396 65323 64128 64800 64851 0 65178 64790 64700 64826 64777 64927 64962 64882 64907 64891 65092 65300 65347 65319 0 0 0 0 0 0 0 0 0 0 0 0 0 0 0 0 0 0 0 0 0 0 0 0 65440 65291 65307 65313 65344 65410 0 0 0 65395 65352 65420 0 0 0 0 0 0 65432 65335 65330 65324 65330 65360 0 0 0 0 0 0 0 0 0 0 0 0 0 65422 65368 65368 65365 65366 65372 0 0 0 0 0 0 0 0 0 0 0 0 0 0 0 0 0 0 0 0 0 0 0 0 0 0 65387 65412 65426 65433 65428 65430 65427 65424 65425 65422 65422 65420 65421 65421 65421 65420 65417 65414 65411 65414 65412 65416 65412 65415 65412 65408 65409 65411 65407 65407 65403 65398 65396 65399 65395 65398 65396
65345 65349 65353 65355 65357 65360 65363 65369 65377 65389 65399 65402 65403 65407 65409 65411 65411 65414 65415 65417 65418 65419 65423 65418 65418 65409 65390 65339 64950 63841 64956 0 65076 65261 65218 65221 64407 64820 64917 65002 65263 65367 65393 65401 65400 65373 0 0 0 0 0 0 0 0 0 0 0 0 0 0 0 0 0 0 0 0 0 0 0 0 0 65379 65428 0 0 0 0 65337 65336 65336 65340 65369 0 0 0 0 0 0 0 65336 65339 65339 65345 65365 0 0 0 0 0 65414 65409 0 0 0 0 0 0 0 65367 65369 65369 65368 65370 0 0 0 0 0 0 0 0 0 0 0 0 0 0 0 0 0 0 0 0 0 0 0 0 0 0 65381 65412 65429 65430 65428 65431 65430 65427 65427 65422 65420 65416 65422 65422 65421 65422 65421 65422 65418 65419 65417 65415 65415 65416 65414 65411 65408 65406 65407 65402 65402 65397 65400 65397 65398 65396 65400
65345 65353 65354 65359 65360 65361 65367 65369 65370 65374 65386 65398 65405 65407 65409 65411 65414 65414 65417 65416 65422 65424 65421 65420 65414 65415 65398 65354 65129 64013 64825 65434 65023 65323 65232 65329 65368 65340 65375 65389 65398 65410 65420 65429 65432 65423 65403 0 0 0 0 0 0 0 0 0 0 0 0 0 0 0 0 0 0 0 0 0 0 0 0 0 0 0 0 0 0 65338 65339 65342 65337 65345 0 0 0 0 0 0 0 65366 65385 65419 0 0 0 65429 65376 65342 65351 65356 65377 0 0 0 0 0 0 0 65369 65367 65372 65374 65375 65412 0 0 0 0 0 0 0 0 0 0 0 0 0 0 0 0 0 0 0 0 0 0 0 0 0 65388 65416 65429 65430 65433 65432 65431 65427 65428 65427 65425 65421 65420 65421 65423 65421 65418 65422 65421 65421 65420 65417 65418 65415 65418 65415 65414 65409 65406 65402 65402 65400 65396 65397 65401 65395 65394
65343 65350 65355 65360 65365 65368 65373 65371 65376 65377 65379 65384 65396 65403 65408 65413 65412 65419 65418 65420 65423 65419 65418 65415 65418 65409 65409 65368 65214 64018 64851 65390 64986 65346 65313 65387 65416 65412 65408 65420 65426 65434 65437 65440 65436 65431 65397 0 0 0 0 0 0 0 0 0 0 0 0 0 0 0 0 0 0 0 0 0 0 0 0 0 0 0 0 0 0 65350 65336 65332 65345 65343 0 0 0 0 0 0 0 0 0 0 0 0 0 0 65355 65344 65350 65354 65364 0 0 0 0 0 0 0 65392 65380 65394 65417 0 0 0 0 0 0 0 0 0 0 0 0 0 0 0 0 0 0 0 0 0 0 0 0 0 0 0 65408 65417 65432 65432 65429 65431 65433 65430 65432 65429 65428 65428 65424 65425 65425 65426 65423 65423 65419 65420 65423 65420 65422 65419 65418 65419 65416 65414 65411 65409 65407 65403 65400 65400 65399 65396 65392
65336 65350 65356 65360 65368 65371 65372 65376 65375 65378 65379 65380 65383 65391 65404 65414 65413 65420 65423 65420 65420 65410 65414 65412 65412 65416 65425 65398 65276 64139 65069 65387 65080 65359 65372 65413 65433 65428 65429 65433 65434 65434 65436 65439 65437 65434 65404 65432 0 0 0 0 0 0 0 0 0 0 0 0 0 0 0 0 0 0 0 0 0 0 0 0 0 0 0 0 0 65411 65336 65344 65342 65353 65408 0 0 0 0 0 65405 0 0 0 0 0 0 0 65350 65351 65346 65351 65349 65429 0 0 0 0 0 0 0 0 0 0 0 0 0 0 0 0 0 0 0 0 0 0 0 0 0 0 0 0 0 0 0 0 0 0 0 0 0 65416 65417 65432 65430 65434 65426 65430 65431 65433 65434 65428 65426 65429 65428 65427 65425 65423 65424 65423 65422 65423 65418 65422 65421 65422 65421 65417 65419 65414 65412 65410 65408 65406 65402 65402 65401 65398
65331 65345 65351 65359 65366 65373 65377 65376 65380 65383 65384 65386 65388 65387 65390 65398 65409 65415 65419 65416 65417 65412 65412 65413 65421 65427 65425 65401 65296 64026 65050 65389 65092 65366 65391 65427 65434 65433 65435 65435 65434 65437 65435 65437 65436 65431 65416 65401 0 0 0 0 0 0 0 0 0 0 0 0 0 0 0 0 0 0 0 0 0 0 0 0 0 0 0 0 0 0 65369 65398 65431 0 0 0 65402 65335 65311 65315 65330 0 0 0 0 0 0 0 65370 65353 65354 65359 65357 65384 0 0 0 0 0 0 0 0 0 0 0 0 0 0 0 0 0 0 0 0 0 0 0 0 0 0 0 0 0 0 0 0 0 0 0 65412 65404 65416 65423 65433 65430 65433 65434 65433 65433 65431 65431 65429 65428 65429 65429 65428 65424 65425 65422 65425 65425 65423 65420 65421 65422 65415 65418 65417 65421 65418 65414 65414 65410 65407 65406 65404 65401 65399
65311 65335 65345 65353 65365 65373 65377 65380 65382 65383 65385 65387 65389 65391 65392 65393 65395 65403 65411 65416 65417 65414 65417 65420 65423 65425 65430 65407 65322 63990 65052 65375 65115 65355 65403 65431 65435 65434 65436 65434 65433 65436 65438 65438 65438 65438 65364 65405 0 0 0 0 0 0 0 0 0 0 0 0 0 0 0 0 0 0 0 0 0 0 0 0 0 0 0 0 0 0 0 0 0 0 0 0 65325 65315 65312 65321 65324 65434 0 0 0 0 0 0 65406 65363 65370 65385 65410 0 0 0 0 0 0 0 0 0 0 0 0 0 0 0 0 0 0 0 0 0 0 0 0 0 0 0 0 0 0 0 65413 65392 65387 65388 65396 65402 65413 65424 65428 65430 65432 65434 65434 65433 65435 65430 65434 65432 65429 65430 65426 65431 65427 65426 65425 65426 65426 65421 65421 65420 65419 65418 65418 65419 65421 65421 65418 65419 65411 65408 65406 65404 65399 65394
65240 65308 65337 65350 65362 65367 65376 65376 65382 65387 65389 65390 65393 65393 65394 65393 65395 65394 65403 65411 65420 65422 65423 65423 65425 65428 65429 65414 65352 64170 65106 65361 65169 65355 65418 65433 65438 65437 65437 65437 65439 65436 65440 65437 65440 65438 65436 65413 65437 0 0 0 0 0 0 0 0 0 0 0 0 0 0 0 0 0 0 0 0 0 0 0 0 0 0 0 65421 65423 0 0 0 0 0 0 65378 65313 65317 65318 65317 65379 0 0 0 0 0 0 0 0 0 0 0 0 0 0 0 0 0 0 0 0 0 0 0 0 0 0 0 0 0 0 0 0 0 0 0 0 0 0 65418 65405 65397 65395 65404 65407 65413 65421 65423 65431 65430 65431 65427 65431 65432 65433 65434 65431 65433 65433 65433 65434 65432 65431 65429 65428 65425 65426 65426 65424 65425 65419 65419 65417 65416 65418 65414 65414 65412 65413 65415 65415 65413 65408 65403 65404 65396 65395
65229 65224 65293 65328 65353 65359 65373 65375 65381 65385 65388 65391 65394 65397 65397 65399 65398 65398 65400 65400 65410 65417 65426 65424 65428 65425 65424 65417 65379 64973 65144 65350 65246 65383 65425 65437 65438 65430 65439 65437 65436 0 65439 65438 65439 65439 65438 65426 65405 0 0 0 0 0 0 0 0 0 0 0 0 0 0 0 0 0 0 0 0 0 0 0 0 65238 65327 65322 65317 65363 0 0 0 0 0 0 0 65325 65317 65323 65331 65348 0 0 0 0 0 0 0 0 0 0 0 0 0 0 0 0 0 0 0 0 0 0 0 0 0 0 0 0 0 0 0 0 0 0 65427 65402 65397 65403 65408 65418 65420 65426 65433 65435 65436 65438 65417 65439 65434 65433 65433 65431 65432 65429 65432 65430 65432 65431 65435 65434 65433 65432 65429 65427 65428 65423 65427 65422 65421 65416 65415 65417 65415 65417 65409 65412 65409 65411 65411 65407 65406 65405 65404 65401 65395 65395
65277 65249 65210 65273 65320 65351 65362 65373 65379 65384 65388 65389 65393 65394 65398 65401 65400 65402 65403 65403 65404 65406 65417 65425 65428 65428 65430 65423 65395 65268 65021 65242 65344 65405 65429 65436 65436 65439 65438 65437 65440 65436 65439 65438 65437 65441 65439 65434 65405 0 0 0 0 0 0 0 0 0 0 0 0 0 0 0 0 0 0 0 0 0 0 0 0 65322 65316 65322 65325 65336 0 0 0 0 0 0 0 65333 65335 65354 65383 65429 0 0 0 0 0 0 0 0 0 0 0 0 0 0 0 0 0 0 0 0 0 0 0 0 0 0 0 0 0 0 0 65409 65404 65403 65409 65408 65418 65430 65434 65438 65444 65440 65440 65439 65440 65438 65437 65437 65436 65436 65436 65433 65434 65432 65432 65433 65432 65429 65430 65434 65434 65434 65432 65430 65430 65427 65427 65426 65426 65425 65428 65425 65423 65418 65419 65412 65410 65406 65407 65406 65402 65398 65399 65401 65395 65396
65268 65285 65274 65226 65245 65307 65346 65365 65375 65381 65387 65390 65392 65397 65401 65400 65404 65404 65405 65407 65406 65407 65411 65414 65424 65428 65428 65423 65409 65280 64886 65158 65367 65415 65429 65436 65435 65438 65438 65434 65438 65439 65439 65437 65441 65437 65441 65439 65418 0 0 0 0 0 0 0 0 0 0 0 0 0 0 0 0 0 0 0 0 0 0 0 0 65353 65315 65321 65321 65323 0 0 0 0 0 0 0 65430 0 0 0 0 0 0 0 0 0 0 0 0 0 0 0 0 0 0 0 0 0 0 0 0 0 0 0 0 0 0 0 65409 65400 65401 65410 65421 65430 65431 65436 65441 65434 65438 65436 65440 65440 65436 65443 65442 65439 65440 65438 65438 65439 65436 65439 65436 65436 65434 65432 65434 65434 65433 65433 65431 65434 65433 65435 65432 65430 65433 65431 65433 65430 65432 65431 65430 65427 65422 65422 65419 65420 65415 65412 65407 65407 65407 65402 65401 65399 65398
65145 65265 65290 65288 65257 65224 65288 65335 65363 65377 65385 65390 65392 65397 65398 65400 65403 65406 65405 65407 65409 65411 65410 65415 65416 65420 65426 65429 65408 65263 64886 65147 65374 65416 65428 65433 65434 65435 65439 0 65436 65438 65438 65439 65443 65436 65443 65440 65431 65412 0 0 0 0 0 0 0 0 0 0 0 0 0 0 0 0 0 0 0 0 0 0 0 0 65331 65324 65325 65327 65390 0 0 0 0 0 0 0 0 0 0 0 0 0 0 0 0 0 0 0 0 0 0 0 0 0 0 0 0 0 0 0 0 0 65439 65409 65405 65402 65411 65416 65421 65429 65436 65442 65445 65446 65442 65443 65442 65440 65440 65441 65442 65440 65437 65438 65438 65443 65442 65439 65442 65437 65442 65438 65440 65436 65436 65436 65434 65436 65431 65429 65433 65430 65435 65431 65434 65432 65432 65433 65429 65432 65431 65429 65430 65425 65427 65427 65424 65423 65420 65419 65414 65411 65409 65407 65405 65405
65043 65105 65242 65293 65310 65300 65252 65263 65323 65357 65378 65387 65391 65395 65398 65401 65404 65402 65408 65410 65409 65411 65415 65415 65414 65417 65419 65421 65406 65239 64914 65165 65383 65422 65427 65428 65430 65433 65436 65437 65439 65438 65439 65437 65441 0 65443 65441 65438 65410 0 0 0 0 0 0 0 0 0 0 0 0 0 0 0 0 0 0 0 0 0 0 0 0 65344 65356 65380 65420 0 0 0 0 0 0 0 0 0 0 0 0 0 0 0 0 0 0 0 0 0 0 0 0 0 0 0 0 0 0 0 65409 65403 65408 65413 65421 65431 65433 65440 65440 65440 65441 65437 65441 65441 65439 65444 65444 65444 65444 65442 65443 65441 65439 65440 65442 65439 65441 65442 65444 65443 65440 65443 65439 65441 65438 65439 65436 65435 65435 65434 65434 65435 65435 65435 65432 65432 65435 65434 65435 65432 65432 65432 65430 65432 65429 65430 65429 65427 65427 65425 65423 65423 65416 65418 65415 65414 65411
65117 65065 65076 65210 65287 65312 65320 65300 65251 65306 65348 65374 65385 65390 65396 65400 65404 65406 65408 65410 65414 65415 65414 65417 65417 65419 65419 65420 65398 65167 65000 65196 65390 65423 65428 65427 65427 65427 65433 65434 65433 65434 65437 65441 65441 65440 65440 0 65443 65419 0 0 0 0 0 0 0 0 0 0 0 0 0 0 0 0 0 0 0 0 0 0 0 0 0 0 0 0 0 0 0 0 0 0 0 0 0 0 0 0 0 0 0 0 0 0 0 0 0 0 0 0 0 0 0 65415 65409 65411 65422 65424 65428 65438 65440 65441 65445 65445 65446 65442 65442 65442 65440 65443 65444 65443 65446 65445 65443 65446 65444 65445 65444 65442 65443 65438 65442 65442 65442 65442 65443 65440 65442 65442 65442 65440 65439 65439 65438 65435 65437 65436 65436 65434 65435 65435 65432 65434 65431 65433 65433 65431 65298 65429 65430 65431 65430 65431 65429 65428 65425 65424 65428 65425 65422 65420 65418 65416
65153 65135 65108 65068 65163 65284 65313 65325 65321 65252 65286 65333 65362 65383 65392 65397 65401 65403 65404 65409 65412 65415 65416 65419 65417 65418 65418 65420 65393 65115 65028 65226 65395 65427 65433 65427 65428 65428 65427 65427 65433 65437 65437 65440 65438 65440 0 0 65441 65427 65415 0 0 0 0 0 0 0 0 0 0 0 0 0 0 0 0 0 0 0 0 0 0 0 0 0 0 0 0 0 0 0 0 0 0 0 0 0 0 0 0 0 0 0 0 0 0 0 0 0 0 65416 65413 65417 65421 65429 65434 65437 65443 65442 65444 65445 65445 65445 65445 65445 65447 65442 65444 65445 65439 65445 65442 65443 65445 65445 65445 65444 65443 65444 65439 65442 65443 65444 65443 65444 65439 65443 65443 65442 65444 65440 65441 65443 65441 65440 65440 65438 65436 65436 65434 65433 65435 65437 65433 65433 65429 65433 65428 65428 65431 65428 65431 65429 65426 65429 65431 65429 65429 65425 65426 65423 65422 65420 65420 65418
65158 65167 65168 65137 65099 65117 65253 65314 65332 65331 65296 65261 65302 65348 65377 65390 65393 65396 65405 65410 65412 65416 65417 65417 65421 65419 65422 65419 65398 65065 65061 65248 65393 65431 65434 65438 65436 65431 65427 65428 65429 65431 65433 65436 65438 65439 65439 65439 65440 65438 65411 0 0 0 0 0 0 0 0 0 0 0 0 0 0 0 0 0 0 0 0 0 0 0 0 0 0 0 0 0 0 0 0 0 0 0 0 0 0 0 0 0 0 0 0 0 0 65417 65411 65416 65420 65428 65436 65441 65442 65445 65445 65444 65447 65445 65444 65444 65443 65446 65445 0 0 65444 65445 65448 65444 65443 65444 65442 65445 65444 65445 65448 65444 65447 65444 65443 65446 65440 65442 65445 65440 65444 65445 65443 65443 65440 65442 65442 65440 65439 65438 65440 65441 65438 65432 65436 65434 65434 65431 65432 65431 65432 65430 65425 65426 65426 65425 65423 65424 65424 65424 65426 65422 65422 65420 65418 65418 65417 65416 65414
65149 65168 65184 65182 65170 65137 65110 65205 65305 65328 65335 65335 65267 65280 65330 65366 65386 65395 65401 65405 65409 65415 65416 65420 65422 65422 65422 65423 65395 64991 65080 65266 65395 65430 65433 65433 65438 65440 65437 65430 65429 65431 65431 65434 65435 65434 65436 65442 65440 65438 65422 65433 0 0 0 0 0 0 0 0 0 0 0 0 0 0 0 0 0 0 0 0 0 0 0 0 0 0 0 0 0 0 0 0 0 0 0 0 0 0 0 0 65431 65417 65420 65423 65428 65434 65438 65444 0 65445 65448 65444 65446 65444 65444 65445 65446 65446 65447 65446 65444 0 65445 65444 65446 65444 0 65447 65445 65445 65444 65445 65446 65443 65446 65445 65443 0 65448 65445 65447 65445 65444 65444 65442 65443 65444 65443 65444 65442 65239 65439 65441 65436 65440 65441 65443 65440 65439 65438 65435 65433 65433 65433 65434 65434 65434 65431 65430 65427 65426 65429 65423 65425 65421 65423 65420 65418 65419 65416 65416 65415 65414 65413
65165 65178 65176 65195 65192 65194 65168 65119 65158 65282 65327 65346 65355 65323 65262 65303 65348 65378 65394 65403 65409 65412 65416 65418 65419 65423 65422 65423 65396 64904 65065 65279 65398 65430 65431 65431 65434 65438 65441 65442 65438 65432 65431 65430 65430 65434 65436 65437 65439 65439 65432 65409 0 0 0 0 0 0 0 0 0 0 0 0 0 0 0 0 0 0 0 0 0 0 0 0 0 0 0 0 0 0 0 0 0 0 0 0 65424 65417 65415 65424 65430 65438 65440 65444 65447 65450 65444 65449 0 65447 65448 0 65447 0 65446 0 65445 65445 65447 65445 65445 65447 65358 65444 65446 65444 65447 65448 65446 0 0 65445 65447 65446 0 65445 65445 0 65446 65446 65445 65445 65446 65442 65444 65445 65442 65444 65444 65443 65440 65441 65439 65441 65439 65438 65441 65437 65440 65441 65441 65438 65435 65435 65435 65434 65433 65430 65431 65432 65429 65429 65428 65424 65422 65421 65422 65423 65421 65417 65420 65416 65414 65415
65163 65173 65183 65191 65192 65208 65204 65190 65152 65131 65232 65320 65349 65366 65358 65295 65287 65340 65373 65390 65399 65407 65410 65415 65419 65420 65420 65423 65392 64826 65063 65295 65403 65429 65430 65432 65432 65435 65437 65438 65442 65442 65440 65431 65426 65436 65436 65436 65436 65440 65437 65413 0 0 0 0 0 0 0 0 0 0 0 0 0 0 0 0 0 0 0 0 0 0 0 0 0 0 0 0 0 0 0 0 65424 65421 65422 65426 65435 65442 65443 0 65449 65450 0 65449 0 65448 65447 0 65447 65448 65449 65447 65448 65448 65446 65447 65445 65445 65447 65444 65447 0 65445 0 65448 65445 65449 65446 65446 65448 65445 65447 65446 65445 65449 65446 65443 65443 65443 65445 65445 65446 65445 65448 65444 65446 65443 65443 65446 65443 65443 65445 65441 65443 65442 65442 65440 65439 65439 65439 65438 65441 65437 65437 65436 65435 65436 65434 65433 65434 65432 65430 65428 65424 65426 65423 65426 65426 65424 65422 65419 65421 65414 65416
65170 65182 65194 65195 65196 65213 65217 65222 65209 65177 65137 65181 65294 65345 65364 65365 65353 65292 65331 65367 65385 65398 65405 65413 65413 65418 65421 65419 65396 64752 65088 65299 65408 65432 65432 65433 65434 65434 65434 65436 65438 65441 65442 65444 65441 65430 65434 65436 65437 65433 65438 65426 65423 0 0 0 0 0 0 0 0 0 0 0 0 0 0 0 0 0 0 0 0 0 0 0 0 0 0 0 65421 65420 65427 65435 65437 65444 65446 65445 65448 65450 65450 0 0 0 0 65449 65452 65449 65449 0 0 0 0 0 0 65446 65445 65449 65445 0 65450 0 65450 65448 65445 0 65447 65444 0 65446 65448 65448 65445 0 65447 65447 65446 65443 65446 65446 65444 65444 65448 65443 65447 65446 65446 65448 65445 65444 65446 65443 65444 65442 65441 65443 65443 65443 65443 65443 65442 65440 65439 65440 65438 65439 65438 65436 65435 65433 65431 65428 65430 65432 65431 65427 65427 65427 65426 65424 65424 65422 65419 65419 65415 65414
65174 65189 65200 65207 65204 65222 65219 65211 65232 65230 65203 65177 65158 65250 65341 65359 65370 65377 65329 65317 65356 65381 65394 65405 65412 65413 65417 65421 65389 64691 65077 65319 65410 65427 65433 65434 65432 65434 65435 65436 65437 65439 65438 65441 0 65447 65443 65437 65437 65441 65441 65437 65413 0 0 0 0 0 0 0 0 0 0 0 0 0 0 0 0 0 0 0 0 0 0 65430 65425 65428 65436 65438 65445 0 65450 65451 65448 65449 0 65448 0 0 65450 0 65449 0 65451 65449 0 0 0 65450 65448 0 65447 65448 65449 65447 65447 65449 65444 65449 65448 65443 65450 65446 65445 65448 65444 65445 65447 65444 0 65446 65446 65449 65447 65446 65446 65445 65446 65446 65445 65447 65447 65445 65446 65444 65446 65446 65445 65446 65446 65443 65443 65443 65443 65443 65443 65441 65444 65441 65444 65443 65436 65441 65439 65439 65437 65436 65436 65436 65434 65432 65432 65431 65432 65428 65428 65425 65424 65424 65422 65421 65417 65421 65415 65414
65176 65179 65198 65203 65197 65215 65221 65219 65233 65239 65234 65226 65204 65171 65208 65318 65355 65366 65373 65357 65305 65336 65371 65389 65401 65409 65413 65417 65385 64605 65078 65327 65415 65431 65433 65433 65435 65434 65437 65437 65433 65438 65440 65438 65441 65444 65446 65446 0 65444 65439 65439 65425 0 0 0 0 0 0 0 0 0 0 0 0 0 0 0 0 0 65431 65422 65423 65429 65439 65443 65447 0 65453 0 0 65452 0 65450 0 0 0 0 0 0 0 65449 0 65450 0 0 65449 65449 0 0 0 0 0 0 65451 65447 0 0 65448 65450 65449 65446 0 65447 0 0 0 65447 0 65446 65448 65446 65447 65449 65446 65447 65415 65445 65447 0 65446 65448 65446 65447 65447 0 65443 65444 65445 65447 0 65443 65447 65445 65443 65445 65443 65442 65442 65441 65442 65441 65436 65441 65441 65439 65438 65437 65436 65435 65435 65435 65433 65432 65434 65431 65430 65426 65425 65423 65420 65421 65418 65419 65416 65413
65181 65191 65194 65204 65210 65213 65218 65225 65235 65238 65242 65250 65249 65233 65192 65180 65275 65350 65366 65374 65368 65321 65318 65351 65383 65397 65405 65411 65375 64495 65036 65334 65416 65429 65432 65432 65434 65433 65437 65437 65438 65438 65439 65437 65439 65441 65442 65443 65445 0 0 0 65432 65428 0 0 0 0 0 0 0 0 0 0 0 0 65421 65426 65425 65434 65440 0 65449 65450 65451 65450 0 0 0 0 0 0 0 0 0 0 0 0 0 0 0 0 0 65450 0 0 0 0 65452 0 0 65451 65447 0 0 0 0 65449 0 0 65448 65447 65450 65447 65448 65450 0 65449 65447 0 65448 65447 65446 65447 65446 65447 65448 65445 0 65447 0 65448 65445 65445 0 65444 65445 65445 65444 65446 65445 65445 65446 65445 65445 65447 65442 65442 65443 65442 65443 65441 65441 65442 65438 65440 65439 65438 65437 65437 65436 65437 65435 65433 65432 65431 65431 65427 65425 65424 65422 65421 65416 65417 65416 65414
65190 65184 65193 65202 65207 65214 65220 65232 65231 65230 65239 65242 65253 65262 65255 65223 65178 65212 65330 65366 65373 65373 65361 65312 65328 65366 65390 65399 65367 64402 65015 65336 65417 65429 65432 65434 65435 65435 65434 65437 65438 65439 65439 65439 65439 65441 65441 0 65443 0 0 0 65446 65430 0 0 0 0 0 0 0 65413 65410 65415 65428 65433 65446 0 0 0 65449 0 0 0 0 0 0 0 0 0 0 0 0 0 0 0 0 0 0 0 0 0 0 0 0 0 0 0 0 0 0 0 0 0 0 0 65452 65448 0 0 0 0 0 65448 0 0 65449 65449 65447 65449 65447 65445 0 65447 65447 65448 65448 65444 65446 0 65446 65444 65446 65446 65448 65445 0 65448 65443 65443 65445 65441 65444 65440 65444 65445 65445 65443 65445 65443 65442 65442 65441 65443 65440 65441 65441 65438 65440 65439 65437 65437 65435 65434 65435 65430 65430 65429 65424 65426 65424 65421 65421 65420 65416 65413
65186 65191 65195 65207 65218 65220 65224 65221 65234 65231 65239 65251 65261 65267 65271 65264 65238 65204 65178 65280 65358 65373 65381 65376 65356 65315 65344 65375 65344 64334 64991 65339 65413 65427 65430 65430 65434 65436 65437 65437 65437 65437 65440 65438 65439 65439 65441 0 65442 65442 0 65445 0 65437 0 0 0 65416 65418 65422 65427 65429 65438 65440 65442 65443 65446 0 0 0 0 0 0 0 0 0 0 0 0 0 0 0 0 0 0 0 0 0 0 0 0 0 0 0 65452 0 65448 0 65449 0 0 65451 0 0 0 0 65452 0 0 0 0 0 65449 0 65452 0 0 65450 65447 0 65450 65446 65445 65448 65446 65446 65446 65446 0 65445 65450 65448 0 65447 65445 65445 65446 65447 65445 65445 65441 65445 65445 65441 65442 65445 65442 65444 65443 65442 65442 65442 65440 65443 65441 65441 65442 65439 65439 65439 65439 65435 65436 65434 65435 65431 65431 65431 65425 65427 65426 65423 65424 65422 65421 65418
65181 65192 65203 65209 65220 65230 65234 65234 65239 65237 65250 65256 65256 65262 65264 65270 65272 65259 65232 65207 65214 65332 65372 65383 65388 65389 65356 65317 65283 64258 64981 65333 65415 65423 65429 65430 65433 65434 65436 65437 65438 65438 65439 65439 65440 65441 65442 65441 65443 65442 65441 65444 65443 65441 65439 65440 65444 65445 65443 65437 65442 65441 65440 65438 0 65441 65444 0 65446 65447 0 0 0 0 65451 0 0 0 0 0 0 0 0 0 0 65452 0 0 0 0 65452 0 0 0 0 0 0 0 65449 65450 0 0 0 0 0 65452 65450 65451 0 65451 0 0 65450 0 65452 0 65452 65450 65447 0 0 65447 65450 65448 0 0 65447 65446 65446 65445 65444 65447 65445 65449 0 65447 65448 65448 65446 65448 65448 65446 65445 65442 65444 65445 65442 65446 65444 65439 65444 65443 65440 65442 65441 65442 65441 65438 65438 65440 65438 65436 65435 65435 65436 65435 65433 65433 65429 65429 65427 65422 65422 65422 65418 65417
65179 65194 65204 65202 65217 65222 65230 65237 65245 65255 65256 65264 65264 65265 65267 65277 65280 65269 65275 65261 65222 65203 65272 65365 65382 65390 65396 65395 65257 64232 64997 65326 65407 65420 65422 65426 65432 65433 65436 65434 65437 65436 65440 65440 65439 65441 65438 65443 65442 0 0 65444 65445 65442 0 65446 0 65449 0 0 65443 65442 65440 65438 65437 65440 65442 0 65444 65443 65447 65445 65449 0 0 0 0 0 0 65451 0 0 0 0 0 0 0 0 0 0 0 0 0 0 0 0 0 0 0 0 0 65450 0 0 0 0 65450 65451 0 0 0 0 0 0 0 0 0 0 65449 0 65449 0 0 65449 0 65449 65446 65448 65446 65445 65448 65445 65442 0 65444 65445 65448 65445 65446 65447 65445 65448 65448 65446 65448 65445 65445 65445 65441 65440 65444 65441 65442 65441 65440 65442 65442 65438 65440 65438 65435 65436 65437 65438 65434 65432 65434 65433 65428 65431 65426 65425 65422 65418 65417 65414
65184 65199 65201 65205 65217 65228 65237 65237 65248 65249 65249 65256 65264 65261 65266 65274 65273 65280 65279 65287 65269 65259 65216 65222 65329 65380 65392 65390 65342 64316 64952 65299 65383 65407 65415 65422 65427 65428 65433 65434 65437 65438 65439 0 65442 65442 65443 65443 65443 65442 65444 65444 0 65445 0 0 65445 0 65448 0 0 0 65438 65441 65433 65439 65434 65438 65442 65441 65444 65442 65445 65446 65447 65450 0 0 0 0 0 0 0 0 0 0 0 0 0 0 0 0 0 0 0 0 0 0 0 0 0 0 0 0 0 0 65451 0 0 0 0 0 0 0 65450 65450 0 65450 0 65451 65450 0 65449 65450 65450 0 65449 0 65449 65446 65445 65446 65446 65447 65446 65444 65445 65446 65444 65444 65443 65445 65443 65444 65449 65448 65445 65445 65444 65444 65445 65442 65444 65442 65440 65441 65440 65438 65438 65438 65437 65439 65435 65436 65435 65434 65434 65434 65432 65432 65430 65426 65424 65420 65417 65418
65189 65184 65205 65209 65216 65225 65234 65241 65248 65248 65252 65260 65260 65264 65262 65272 65274 65282 65287 65292 65288 65288 65275 65245 65219 65263 65363 65385 65318 64301 64962 65279 65334 65377 65399 65412 65419 65425 65430 65432 65435 65437 65437 65439 65440 65442 65442 0 65443 65443 65444 65445 0 65444 65445 65445 65446 0 65448 0 0 0 65452 65448 65441 65443 65443 65441 65439 65438 65439 0 0 65446 65447 65445 0 0 0 0 0 0 0 0 0 0 0 0 0 0 0 0 0 0 0 0 0 0 0 0 0 0 0 0 0 0 0 0 0 0 0 0 0 0 0 65452 65451 0 0 0 65449 0 0 0 0 0 65448 0 65448 65447 65448 65447 65446 65445 65445 65446 65447 65444 65444 65444 65443 65443 65444 65443 65444 65444 65446 65446 65442 65442 65444 65440 65443 65443 65440 65442 65439 65440 65440 65437 65440 65439 65436 65436 65435 65433 65433 65433 65431 65434 65431 65425 65426 65420 65418 65416
65190 65198 65207 65211 65218 65223 65231 65240 65245 65244 65253 65256 65266 65265 65271 65277 65270 65282 65290 65297 65293 65288 65292 65294 65279 65236 65208 65291 65300 64370 64960 65316 65398 65349 65351 65384 65405 65417 65423 65429 65430 65435 65438 65438 65440 65439 0 65442 0 65443 0 0 65445 0 65446 65446 0 65448 0 0 0 0 0 0 0 65450 65443 65442 65444 0 65441 65441 65439 65438 0 65446 0 0 0 0 0 0 0 0 0 0 0 0 0 0 0 0 0 0 0 0 0 0 0 0 0 0 0 0 0 0 65453 0 0 0 0 0 0 0 0 0 65452 65451 0 0 0 0 0 0 0 65450 0 0 0 65447 65450 65446 65448 0 65447 65447 65446 65446 65446 65446 65445 65444 65446 65445 65447 65445 65443 65443 65444 65446 65444 0 65441 65442 65438 65440 65439 65441 65441 65438 65439 65438 65437 65437 65436 65435 65432 65432 65430 65428 65428 65428 65424 65420 65421 65417
65187 65196 65215 65218 65226 65224 65230 65236 65235 65248 65252 65259 65266 65264 65278 65272 65273 65283 65293 65290 65294 65298 65300 65304 65301 65291 65244 65143 65056 64306 64966 65317 65401 65411 65398 65336 65359 65391 65409 65420 65427 65432 65435 65437 65439 65439 65441 65441 65443 65443 65443 65444 0 0 0 65447 65446 0 0 0 0 65450 0 0 0 0 0 65451 65444 65442 65445 65444 65440 65443 65442 65440 65443 0 0 0 65448 0 0 0 0 0 0 0 0 0 0 0 0 0 0 0 0 0 0 0 0 0 0 0 0 0 0 0 0 0 0 0 0 65450 0 0 65452 0 0 0 0 0 0 0 0 0 65450 0 0 0 0 0 65450 65449 65447 65448 0 65447 63117 65448 65446 0 65447 65446 0 65446 65446 65446 65445 65444 65445 65443 65443 65441 65440 65439 65439 65438 65441 65438 65440 65439 65435 65437 65436 65435 65435 65433 65428 65426 65427 65427 65426 65424 65421 65420
65191 65209 65216 65220 65224 65225 65234 65238 65239 65246 65247 65262 65266 65266 65271 65280 65280 65281 65292 65297 65294 65297 65296 65307 65301 65299 65281 65202 65100 64241 64963 65308 65394 65404 65409 65410 65386 65334 65367 65400 65419 65424 65431 65434 65438 65436 65440 65442 65441 65443 65444 0 65446 0 0 65446 65447 0 0 65448 0 0 0 0 0 0 0 0 0 0 65445 65446 0 65444 65442 65444 65439 65439 65442 65446 0 0 0 0 0 62088 0 0 0 0 0 0 0 0 0 0 0 0 0 0 0 0 0 0 0 0 0 0 0 0 0 0 0 65451 0 0 0 0 0 0 0 0 0 0 0 0 65451 65451 0 0 65451 65448 0 0 65448 65450 65448 65447 65450 65448 0 0 65448 65445 65448 65445 65447 65446 65446 65446 65444 65443 65444 65440 65440 65441 65442 65441 65441 65436 65437 65439 65437 65437 65436 65437 65435 65434 65431 65428 65428 65425 65426 65422 65423 65421
65192 65198 65210 65220 65222 65228 65239 65244 65254 65257 65252 65265 65268 65267 65266 65277 65281 65285 65294 65300 65301 65299 65304 65305 65308 65306 65284 65219 65140 64293 64933 65189 65309 65395 65406 65408 65411 65412 65368 65346 65386 65410 65420 65431 65436 65437 65439 65439 65442 65442 65443 65445 65444 65445 0 0 0 65447 0 65449 0 0 0 0 0 0 0 0 0 0 0 0 65446 65447 65445 65445 65443 65440 65441 65443 0 65447 0 0 0 0 0 0 0 0 0 0 0 0 0 0 0 0 0 0 0 0 0 0 0 0 0 0 0 0 0 0 0 0 65453 0 0 0 0 0 0 0 0 0 0 0 0 65450 0 0 0 0 0 0 0 0 65447 65448 65447 65447 65449 65450 65447 65448 0 65447 0 65446 65446 65447 65445 65441 65444 65442 65441 65441 65440 65440 65441 65439 65438 65440 65434 65437 65436 65435 65433 65434 65432 65433 65427 65427 65424 65422 65421 65420
65185 65198 65208 65223 65219 65229 65237 65238 65253 65255 65260 65260 65267 65271 65276 65274 65279 65285 65294 65297 65298 65292 65301 65308 65316 65311 65290 65222 65121 64378 64926 65119 65091 65226 65366 65403 65408 65411 65417 65413 65354 65363 65398 65413 65427 65433 65435 65438 65437 65442 0 65445 65445 65445 0 0 0 65447 0 0 0 0 65449 0 0 0 0 0 0 0 0 0 0 0 0 65448 65447 0 65443 65443 65440 65440 0 65445 65445 0 65449 0 0 0 0 0 0 0 0 0 0 0 0 0 0 0 0 0 0 0 0 0 0 65453 0 0 0 0 0 0 0 0 0 0 0 0 0 0 0 0 65452 65450 0 0 0 0 0 65450 0 0 0 0 65449 0 65450 65449 0 65449 65447 65447 65448 65445 65446 65446 65446 65444 65445 65444 65443 65442 65441 65441 65441 65440 65439 65441 65440 65437 65434 65433 65432 65434 65433 65429 65430 65427 65424 65424 65421 65418
65189 65198 65205 65214 65228 65234 65238 65235 65246 65256 65260 65268 65271 65270 65279 65285 65280 65284 65295 65298 65297 65299 65303 65313 65314 65308 65289 65225 65115 64334 64885 65138 65188 65224 65241 65295 65390 65408 65408 65414 65420 65402 65350 65376 65405 65420 65429 65433 65436 65440 65441 65443 65444 0 65445 0 0 0 0 0 65448 0 0 0 65448 0 0 0 0 0 0 0 0 0 0 0 0 65447 0 0 65443 65443 65443 65442 65442 65444 0 0 0 0 0 0 65452 0 0 0 0 0 0 0 0 0 0 0 0 0 0 0 0 0 0 0 0 0 0 0 0 0 0 0 0 0 0 0 65452 0 65453 65452 0 65452 65451 65452 0 0 0 65451 0 65451 0 65449 0 0 0 65449 65448 65448 65448 65445 65446 65448 65446 65444 65444 65445 65442 65444 65442 65442 65441 65440 65440 65440 65441 65440 65435 65433 65434 65433 65428 65430 65430 65427 65426 65423 65420 65418
65189 65198 65212 65216 65229 65236 65239 65238 65243 65254 65246 65252 65267 65272 65279 65287 65288 65292 65290 65299 65294 65299 65301 65303 65302 65314 65293 65218 65134 64422 64894 65158 65238 65287 65288 65257 65235 65336 65401 65411 65416 65415 65421 65392 65356 65383 65412 65420 65431 65436 65438 65441 65441 65445 0 65444 65445 0 65447 0 0 0 0 65449 0 0 0 0 0 0 0 0 0 0 0 0 0 0 0 0 65448 65448 0 65444 65443 65446 65444 65444 65446 0 65448 0 0 0 0 0 0 0 0 0 0 0 0 0 0 0 0 0 0 0 0 0 0 0 0 0 0 0 0 0 65454 0 0 0 0 0 0 0 0 65450 0 0 0 65452 65450 0 65450 0 65451 0 65450 65448 0 0 65449 65449 0 0 65448 65446 65445 65444 0 65443 65443 65444 65441 65443 65441 65440 65441 65438 65441 65441 65439 65435 65435 65432 65431 65430 65428 65426 65425 65423 65420 65418
65187 65200 65212 65223 65220 65228 65230 65243 65244 65245 65252 65265 65267 65280 65283 65283 65288 65286 65287 65287 65289 65300 65306 65305 65310 65312 65295 65226 65137 64512 64936 65171 65254 65293 65321 65301 65287 65264 65273 65363 65410 65417 65417 65419 65421 65381 65363 65394 65413 65425 65431 65438 65440 65441 65441 65443 65444 65447 0 0 65448 0 0 0 0 65449 0 0 0 0 0 0 0 0 0 0 0 0 0 0 0 65446 0 0 65447 65445 0 65444 0 65443 65446 0 65446 0 0 0 0 0 0 0 0 0 0 0 0 0 0 0 0 0 0 0 0 0 0 0 0 0 0 0 0 0 0 0 0 0 0 0 0 0 0 0 0 0 65453 0 65452 63603 0 65451 65448 0 65449 65446 65447 0 65449 65447 65449 65446 65446 0 65444 65440 65441 65441 65441 65442 65440 65442 65444 65441 65439 65442 65441 65436 65434 65432 65430 65430 65425 65424 65425 65422 65421 65418
65184 65206 65211 65223 65224 65229 65232 65245 65244 65246 65252 65260 65264 65279 65285 65285 65277 65283 65292 65295 65292 65299 65304 65305 65310 65308 65299 65240 65136 64641 64949 65178 65253 65300 65320 65325 65320 65309 65290 65261 65291 65388 65416 65418 65420 65426 65422 65372 65366 65395 65415 65427 65431 65437 65440 65441 65444 65445 0 65446 0 65447 0 0 0 0 0 0 0 0 0 0 0 0 0 0 0 0 0 0 0 0 0 0 0 65448 0 65447 0 65443 65445 65444 0 65448 0 65449 65448 0 0 0 0 0 0 0 0 0 0 0 0 0 0 0 0 0 0 0 0 0 0 0 0 0 0 0 0 0 0 0 0 0 0 65451 0 65452 65451 0 0 0 65449 65449 65448 65449 65448 0 65448 65448 65448 65449 0 65447 65444 0 65445 65445 65443 65440 65440 65441 65437 65440 65441 65435 65437 65440 65438 65436 65436 65433 65431 65428 65429 65425 65426 65422 65421 65417
65185 65199 65206 65218 65224 65234 65239 65242 65247 65253 65248 65260 65265 65275 65279 65284 65279 65280 65288 65294 65289 65297 65307 65308 65314 65305 65293 65244 65140 64772 64983 65179 65248 65300 65327 65337 65334 65329 65323 65313 65289 65262 65323 65403 65417 65419 65423 65425 65422 65365 65362 65397 65417 65428 65432 65438 65439 0 65442 0 0 0 65448 65446 0 0 0 0 0 0 0 0 0 0 0 0 0 0 0 0 0 0 0 0 0 0 0 0 0 65445 65445 0 65447 65446 0 0 0 0 0 0 0 0 0 0 0 0 0 0 0 0 0 0 0 0 0 0 0 0 0 0 0 0 0 0 0 0 0 0 0 0 0 0 0 0 0 0 0 65450 0 0 0 65450 65450 65448 65448 65449 65447 65450 65447 65447 0 65448 65444 65444 65444 65439 65440 65435 65436 65440 65438 65438 65436 65437 65437 65436 65430 65431 65428 65429 65428 65426 65426 65422 65419 65415
65181 65199 65206 65201 65217 65231 65234 65245 65246 65254 65260 65260 65268 65267 65272 65279 65285 65289 65289 65296 65297 65298 65302 65313 65318 65308 65290 65236 65135 64914 65025 65172 65251 65311 65328 65335 65341 65342 65339 65340 65335 65312 65285 65270 65352 65411 65420 65425 65424 65427 65416 65360 65368 65399 65418 65428 65432 65437 65442 65444 0 65446 0 0 65448 0 0 0 0 0 0 0 0 0 0 0 0 0 0 0 0 0 0 0 0 0 0 0 65447 0 65447 65446 65445 65445 65447 0 65448 0 0 0 0 0 0 0 0 0 0 0 0 0 0 0 0 0 0 0 0 0 0 0 0 0 0 0 0 0 0 0 0 0 0 0 0 0 0 0 0 0 65451 65450 65448 0 65448 65448 0 0 65449 0 0 65447 65449 65449 65446 65446 65444 65442 65439 65438 65434 65435 65435 65435 65435 65434 65436 65435 65435 65434 65430 65430 65426 65425 65423 65422 65420 65419
65182 65193 65203 65206 65213 65222 65229 65238 65245 65249 65255 65260 65264 65269 65270 65280 65288 65288 65293 65286 65304 65307 65306 65309 65300 65301 65272 65206 65088 65046 65098 65181 65253 65318 65333 65339 65339 65343 65343 65343 65343 65342 65334 65313 65286 65290 65375 65418 65424 65424 65426 65432 65416 65358 65374 65402 65420 65432 65437 65440 65443 65444 0 0 0 65447 65448 0 0 0 0 0 0 0 0 0 0 0 0 0 0 0 0 0 0 0 0 0 0 0 65449 0 65447 0 65442 65445 65444 0 0 0 65449 0 0 0 0 0 0 0 0 0 0 0 0 0 0 0 0 0 0 0 0 0 0 0 0 0 0 0 0 0 0 0 0 0 0 0 65452 0 65452 0 0 65450 0 0 65450 65449 0 0 0 65448 65447 65448 65446 65447 65446 65444 65443 65442 65434 65435 65435 65433 65435 65436 65436 65435 65433 65431 65432 65433 65431 65430 65424 65422 65420 65417
