0.463136 0.45376 0.444834 0.440607 0.432482 0.429129 0.420488 0.415473 0.408627 0.404054 0.394809 0.389412 0.383647 0.376106 0.368742 0.362656 0.357431 0.35097 0.344827 0.338296 0.334047 0.327767 0.321953 0.314792 0.311399 0.304657 0.299303 0.293822 0.288296 0.282067 0.278062 0.271979 0.267064 0.260247 0.25566 0.250086 0.245196 0.239182 0.235515 0.226113 0.22273 0.0 0.0 0.0 0.0 0.0 0.0 0.0 0.0 0.0 0.0 0.0 0.0 0.0 0.0 0.0 0.0 0.0 0.0 0.0 0.0 0.0 0.0 0.0 0.0 0.0 0.0 0.0 0.0 0.0577279 0.0541439 0.0511441 0.0 0.0 0.0 0.0 0.0 0.0 0.0282124 0.0259382 0.0229972 0.0201567 0.0176215 0.0149246 0.0 0.0 0.0 0.0 0.0 0.0 0.0 0.0 0.0 0.0 0.0 0.0 0.0 -0.024858 -0.0275809 -0.0306752 -0.0334783 -0.0363586 -0.0408257 0.0 0.0 0.0 0.0 0.0 0.0 0.0 -0.0632324 -0.0665536 0.0 0.0 0.0 0.0 0.0 0.0 0.0 0.0 0.0 0.0 0.0 0.0 0.0 0.0 0.0 0.0 0.0 0.0 0.0 0.0 0.0 0.0 0.0 -0.215681 -0.218821 -0.223593 -0.225667 -0.23192 -0.236387 -0.240922 -0.245728 -0.249052 -0.255734 -0.260664 -0.265327 -0.271391 -0.276246 -0.281117 -0.286159 -0.292872 -0.297426 -0.303447 -0.307374 -0.313717 -0.317395 -0.324685 -0.327318 -0.336056 -0.339668 -0.344728 -0.349993 -0.356991 -0.362813 -0.368871 -0.375173 -0.379719 -0.386305 -0.39171 -0.397141 -0.402492 -0.410017 -0.415335 -0.421226 -0.428162
0.460567 0.450551 0.444659 0.438249 0.432313 0.426408 0.41791 0.411273 0.406732 0.397453 0.391777 0.386618 0.379736 0.375866 0.368973 0.360762 0.357112 0.348953 0.344342 0.336777 0.331526 0.32436 0.320919 0.313938 0.309118 0.302572 0.298725 0.292188 0.286915 0.280784 0.275863 0.269821 0.264737 0.258716 0.253956 0.247824 0.244397 0.23783 0.232891 0.226029 0.221283 0.184666 0.0 0.0 0.0 0.0 0.0 0.0 0.0 0.0 0.0 0.0 0.0 0.0 0.0 0.0 0.0 0.0 0.0 0.0 0.0 0.0 0.0 0.0 0.0 0.0 0.0 0.0612685 0.058108 0.055067 0.0524619 0.0500976 0.0 0.0 0.0 0.0 0.0 0.0 0.0281243 0.0258144 0.023351 0.0202938 0.0176203 0.0149298 0.0 0.0 0.0 0.0 0.000295628 -0.00257081 0.0 0.0 0.0 0.0 0.0 0.0 0.0 -0.0245852 -0.0278203 -0.0305668 -0.0334325 -0.036529 -0.0393485 0.0 0.0 0.0 0.0 0.0 0.0 0.0 0.0 0.0 0.0 0.0 0.0 0.0 0.0 0.0 0.0 0.0 0.0 0.0 0.0 0.0 0.0 0.0 0.0 0.0 0.0 0.0 0.0 0.0 0.0 0.0 0.0 -0.212421 -0.218681 -0.222484 -0.22515 -0.23026 -0.23495 -0.238015 -0.244032 -0.248752 -0.255081 -0.257809 -0.265296 -0.267476 -0.274797 -0.279111 -0.283886 -0.289145 -0.294275 -0.301867 -0.30552 -0.311077 -0.315139 -0.321008 -0.326132 -0.331905 -0.336088 -0.342934 -0.347892 -0.353909 -0.359301 -0.36599 -0.371458 -0.376755 -0.383603 -0.388661 -0.394154 -0.402541 -0.405334 -0.414077 -0.419951 -0.425525
0.456529 0.447016 0.441059 0.435243 0.429024 0.422525 0.415444 0.406461 0.402803 0.39519 0.387759 0.384223 0.376508 0.371448 0.365183 0.359059 0.353797 0.348287 0.341833 0.336044 0.328754 0.322894 0.317655 0.312357 0.306842 0.300649 0.29668 0.289493 0.285764 0.278918 0.274753 0.268021 0.264572 0.257734 0.253865 0.246815 0.242247 0.23705 0.232313 0.226009 0.220018 0.207702 0.0 0.0 0.0 0.0 0.0 0.0 0.0 0.0 0.0 0.0 0.0 0.0 0.0 0.0 0.0 0.0 0.0 0.0 0.0 0.0 0.0 0.0 0.0 0.0 0.0 0.0609555 0.0578591 0.0553199 0.0523262 0.0494063 0.0 0.0 0.0 0.0 0.0 0.0 0.0 0.0264338 0.0238332 0.0 0.0 0.0 0.0 0.00886614 0.00591899 0.00314058 0.000281482 -0.00257505 0.0 0.0 0.0 0.0 0.0 0.0 0.0 -0.0240524 -0.0280237 -0.0308174 -0.033445 -0.0364797 -0.0398376 0.0 0.0 0.0 0.0 -0.0546695 -0.0566984 0.0 0.0 0.0 0.0 0.0 0.0 0.0 0.0 0.0 0.0 0.0 0.0 0.0 0.0 0.0 0.0 0.0 0.0 0.0 0.0 0.0 0.0 0.0 0.0 0.0 0.0 -0.194539 -0.21872 -0.220412 -0.225623 -0.229044 -0.234029 -0.239564 -0.24254 -0.248592 -0.252005 -0.257854 -0.261529 -0.266717 -0.273502 -0.276882 -0.28432 -0.288094 -0.294085 -0.298912 -0.304414 -0.307186 -0.315189 -0.318115 -0.324777 -0.327849 -0.33614 -0.340685 -0.347011 -0.352256 -0.358297 -0.364385 -0.370127 -0.375404 -0.381928 -0.388097 -0.393687 -0.398247 -0.404853 -0.411082 -0.416584 -0.425472
0.452956 0.445846 0.439905 0.431044 0.425097 0.419502 0.410468 0.405591 0.39878 0.39072 0.387719 0.379487 0.373962 0.36913 0.362899 0.355886 0.350217 0.344761 0.337039 0.333755 0.326159 0.321939 0.315391 0.310129 0.304811 0.298259 0.294485 0.288402 0.282447 0.276395 0.272708 0.266581 0.261627 0.256689 0.251834 0.246204 0.241326 0.236463 0.230686 0.225992 0.217746 0.213087 0.0 0.0 0.0 0.0 0.0 0.0 0.0 0.0 0.0 0.0 0.0 0.0 0.0 0.0 0.0 0.0 0.0 0.0 0.0 0.0 0.0 0.0 0.0 0.0 0.0 0.0610037 0.0577333 0.0548975 0.0522792 0.0497582 0.0 0.0 0.0 0.0 0.0 0.0 0.0 0.0 0.0 0.0 0.0 0.0 0.0 0.00868069 0.00591615 0.00310023 0.000281834 -0.00257602 -0.00550543 0.0 0.0 0.0 0.0 0.0 0.0 0.0 -0.0283119 -0.0314401 0.0 0.0 0.0 0.0 -0.0446102 -0.047526 -0.0495602 -0.0526607 -0.0556999 -0.0595559 0.0 0.0 0.0 0.0 0.0 0.0 0.0 0.0 0.0 0.0 0.0 0.0 0.0 0.0 0.0 0.0 0.0 0.0 0.0 0.0 0.0 0.0 0.0 0.0 0.0 -0.16406 -0.217227 -0.220697 -0.222586 -0.22846 -0.231059 -0.237777 -0.241586 -0.24585 -0.250944 -0.256773 -0.260356 -0.266401 -0.26975 -0.276858 -0.28167 -0.28799 -0.291583 -0.297667 -0.301498 -0.307073 -0.311922 -0.319297 -0.321581 -0.329514 -0.333297 -0.339364 -0.344268 -0.350894 -0.354991 -0.362007 -0.365338 -0.373659 -0.378936 -0.383928 -0.389878 -0.397675 -0.402445 -0.409076 -0.413226 -0.421397
0.449278 0.444236 0.436987 0.429367 0.421501 0.413402 0.409803 0.402244 0.396194 0.390385 0.384114 0.375737 0.370845 0.365963 0.360902 0.353088 0.347825 0.342584 0.335161 0.332253 0.324681 0.318802 0.314374 0.309373 0.302946 0.298237 0.292295 0.287391 0.281304 0.276375 0.271534 0.264861 0.259938 0.255032 0.248735 0.244085 0.239635 0.23569 0.229125 0.224887 0.216843 0.214757 0.167194 0.0 0.0 0.0 0.0 0.0 0.0 0.0 0.0 0.0 0.0 0.0 0.0 0.0 0.0 0.0 0.0 0.0 0.0 0.0 0.0 0.0 0.0 0.0 0.0 0.0588123 0.0580986 0.055198 0.0521445 0.0494641 0.0473104 0.0 0.0 0.0 0.0 0.0332337 0.0 0.0 0.0 0.0 0.0 0.0 0.0 0.00853687 0.00595683 0.00309877 0.000284502 -0.00255509 -0.00541496 0.0 0.0 0.0 0.0 0.0 0.0 0.0 0.0 0.0 0.0 0.0 0.0 0.0 -0.0435032 -0.0471324 -0.0497327 -0.0527276 -0.0558188 -0.0590686 0.0 0.0 0.0 0.0 0.0 0.0 0.0 0.0 0.0 0.0 0.0 0.0 0.0 0.0 0.0 0.0 0.0 0.0 0.0 0.0 0.0 0.0 0.0 0.0 0.0 0.0 -0.21556 -0.221287 -0.221833 -0.226621 -0.231557 -0.235863 -0.241503 -0.244405 -0.250996 -0.254071 -0.260481 -0.263892 -0.2707 -0.276003 -0.280569 -0.28632 -0.290763 -0.295453 -0.301888 -0.305541 -0.310279 -0.316849 -0.321556 -0.326453 -0.33173 -0.338232 -0.343493 -0.348401 -0.354769 -0.360123 -0.365209 -0.370415 -0.376359 -0.38245 -0.387333 -0.394882 -0.4037 -0.407515 -0.412417 -0.419569
0.446291 0.440615 0.432417 0.426278 0.418885 0.413267 0.406313 0.399422 0.394126 0.387943 0.380813 0.375028 0.370049 0.361947 0.356571 0.350851 0.34544 0.339698 0.333905 0.329889 0.321584 0.31853 0.312286 0.308133 0.302048 0.295857 0.290962 0.286005 0.279643 0.274743 0.267909 0.264563 0.258881 0.252902 0.246645 0.243612 0.236852 0.233973 0.228062 0.224876 0.219443 0.214863 0.192173 0.0 0.0 0.0 0.0 0.131432 0.0 0.0 0.0 0.0 0.0 0.0 0.0 0.0 0.0 0.0 0.0 0.0 0.0 0.0 0.0 0.0 0.0 0.0 0.0 0.0 0.0581211 0.0565475 0.0541516 0.0 0.0 0.0 0.0416098 0.0376003 0.0343722 0.032164 0.0295836 0.0 0.0 0.0 0.0 0.0 0.0 0.0 0.0059771 0.00312546 0.000284371 -0.0025572 -0.00545876 0.0 0.0 0.0 0.0 0.0 -0.0232993 0.0 0.0 0.0 0.0 0.0 0.0 0.0 0.0 -0.0474605 -0.0500367 -0.0532099 -0.0556712 -0.058633 0.0 0.0 0.0 0.0 0.0 0.0 0.0 0.0 0.0 0.0 0.0 0.0 0.0 0.0 0.0 0.0 0.0 0.0 0.0 0.0 0.0 0.0 0.0 0.0 0.0 0.0 -0.213127 -0.217897 -0.222006 -0.22422 -0.230454 -0.235851 -0.239622 -0.244732 -0.248972 -0.253493 -0.258885 -0.263072 -0.269865 -0.272801 -0.279627 -0.282457 -0.28875 -0.294137 -0.300385 -0.3046 -0.311283 -0.313541 -0.321448 -0.323397 -0.331437 -0.335819 -0.341976 -0.346199 -0.352342 -0.357563 -0.363304 -0.368484 -0.375418 -0.379018 -0.386783 -0.392733 -0.398081 -0.403782 -0.411505 -0.41719
0.443882 0.437451 0.429627 0.423416 0.418433 0.411651 0.404614 0.398781 0.391248 0.385811 0.379009 0.372662 0.367139 0.361265 0.355898 0.348897 0.344151 0.337444 0.331951 0.326662 0.321485 0.316414 0.310534 0.305677 0.299311 0.294426 0.289401 0.283329 0.27836 0.274658 0.267321 0.263702 0.257618 0.252619 0.245563 0.24288 0.236779 0.233712 0.227991 0.224504 0.218664 0.211547 0.19529 0.145581 0.140754 0.127947 0.123672 0.121986 0.0 0.0 0.0 0.0 0.0 0.0 0.0 0.0 0.0 0.0 0.0 0.0 0.0 0.0 0.0 0.0 0.0 0.0 0.0 0.0 0.0 0.0 0.0 0.0 0.0 0.0 0.0404229 0.0378708 0.034976 0.0320821 0.029386 0.0 0.0 0.0 0.0 0.0 0.0 0.0 0.00598208 0.00312941 0.00029021 -0.00265908 0.0 0.0 -0.0113713 -0.01421 -0.0167946 -0.0196338 -0.0223653 -0.025762 0.0 0.0 0.0 0.0 0.0 0.0 0.0 -0.0471914 -0.0498608 -0.0530472 -0.0559126 -0.0585805 0.0 0.0 0.0 0.0 0.0 0.0 0.0 0.0 0.0 0.0 0.0 0.0 0.0 0.0 0.0 0.0 0.0 0.0 0.0 0.0 0.0 0.0 0.0 0.0 0.0 0.0 -0.197703 -0.217949 -0.222245 -0.224652 -0.228392 -0.234664 -0.237944 -0.242954 -0.248269 -0.25433 -0.257651 -0.263647 -0.267841 -0.273321 -0.276682 -0.282445 -0.286982 -0.293718 -0.296742 -0.303581 -0.308117 -0.314479 -0.317478 -0.325168 -0.328431 -0.335343 -0.338785 -0.345993 -0.349248 -0.356277 -0.360912 -0.366659 -0.371226 -0.378483 -0.384671 -0.390804 -0.397093 -0.401364 -0.408834 -0.41661
0.439776 0.433062 0.426845 0.421108 0.414754 0.407703 0.401453 0.396596 0.388685 0.383383 0.377905 0.372161 0.364813 0.359163 0.353921 0.34741 0.343596 0.337166 0.329561 0.326479 0.320365 0.313798 0.307795 0.304203 0.298022 0.293158 0.285986 0.282712 0.27551 0.270976 0.265798 0.262278 0.256081 0.252544 0.246361 0.24386 0.238449 0.233896 0.227553 0.217834 0.19321 0.14722 0.136172 0.133807 0.129573 0.126249 0.123773 0.121883 0.121322 0.0 0.0 0.0 0.0 0.0 0.0 0.0 0.0 0.0 0.0 0.0 0.0 0.0 0.0 0.0 0.0 0.0 0.0 0.0 0.0 0.0 0.0 0.0 0.0 0.0 0.0404566 0.0371677 0.0346658 0.0319735 0.0291518 0.0 0.0 0.0 0.0 0.0 0.0 0.0 0.0 0.0 0.0 0.0 0.0 0.0 -0.0106777 -0.0137682 -0.0166004 -0.0194571 -0.0222398 -0.0254363 0.0 0.0 0.0 0.0 0.0 0.0 0.0 -0.0469434 -0.0504713 -0.053346 -0.0577082 0.0 0.0 0.0 0.0 -0.0733194 -0.0735938 -0.0752064 -0.078092 0.0 0.0 0.0 0.0 0.0 0.0 0.0 0.0 0.0 0.0 0.0 0.0 0.0 0.0 0.0 0.0 0.0 0.0 0.0 -0.167161 -0.218125 -0.220515 -0.22515 -0.227232 -0.233414 -0.237271 -0.240567 -0.24757 -0.251075 -0.256854 -0.260125 -0.266194 -0.271114 -0.276984 -0.281417 -0.286256 -0.291032 -0.296651 -0.300973 -0.305894 -0.310749 -0.318436 -0.322391 -0.327334 -0.333493 -0.338402 -0.343614 -0.34943 -0.353633 -0.359119 -0.363537 -0.371011 -0.376098 -0.381625 -0.388989 -0.395468 -0.399717 -0.404735 -0.414359
0.441589 0.432719 0.426729 0.418698 0.412053 0.406528 0.401343 0.39597 0.388169 0.381365 0.374527 0.368831 0.363941 0.356687 0.353261 0.343992 0.340138 0.333491 0.328234 0.322917 0.319507 0.313205 0.30655 0.300047 0.295616 0.29221 0.286447 0.281111 0.274534 0.269504 0.263774 0.259936 0.254965 0.251039 0.245421 0.241426 0.233485 0.218423 0.177252 0.156209 0.149904 0.140137 0.137306 0.133806 0.130223 0.127095 0.124444 0.122992 0.119942 0.0 0.0 0.0 0.0 0.0 0.0 0.0 0.0 0.0 0.0 0.0 0.0 0.0 0.0 0.0 0.0 0.0 0.0 0.0 0.0 0.0 0.0 0.0 0.0 0.0 0.0398721 0.0377103 0.0349752 0.0320138 0.0293608 0.0267177 0.0 0.0 0.0 0.0 0.0 0.0 0.0 0.0 0.0 0.0 0.0 0.0 0.0 -0.0137204 -0.016629 -0.0194317 -0.0222782 -0.0252735 0.0 0.0 0.0 0.0 0.0 0.0 0.0 0.0 0.0 0.0 0.0 0.0 0.0 0.0 -0.0666223 -0.0695176 -0.0722644 -0.0751073 -0.0783984 0.0 0.0 0.0 0.0 0.0 0.0 0.0 0.0 0.0 0.0 0.0 0.0 0.0 0.0 0.0 0.0 0.0 0.0 0.0 0.0 -0.216615 -0.220389 -0.222632 -0.227037 -0.23027 -0.237268 -0.24036 -0.246389 -0.24966 -0.254909 -0.258951 -0.265595 -0.269367 -0.276209 -0.278745 -0.285614 -0.288838 -0.295245 -0.299293 -0.306061 -0.309188 -0.316147 -0.320603 -0.326968 -0.329441 -0.336344 -0.342283 -0.347791 -0.353531 -0.355948 -0.363632 -0.368156 -0.373822 -0.379527 -0.384104 -0.393313 -0.398731 -0.404619 -0.410773
0.439431 0.431039 0.426399 0.417062 0.40936 0.403764 0.396309 0.39266 0.385722 0.378046 0.374231 0.366289 0.361146 0.355929 0.351765 0.343163 0.338958 0.332956 0.327531 0.321703 0.317457 0.311441 0.304813 0.299967 0.293054 0.289297 0.284435 0.280579 0.274087 0.269505 0.261971 0.258023 0.25253 0.248377 0.23497 0.20108 0.167512 0.161276 0.156836 0.152937 0.146642 0.140137 0.137193 0.13314 0.131363 0.127043 0.124548 0.121276 0.118564 0.0 0.0 0.0 0.0 0.0 0.0 0.0 0.0 0.0 0.0 0.0 0.0 0.0 0.0 0.0 0.0 0.0 0.0 0.0 0.0 0.0 0.0 0.0 0.0 0.0 0.0394941 0.0377264 0.0351228 0.032582 0.0301361 0.0 0.0 0.0 0.0179508 0.0146284 0.0117596 0.00888359 0.0 0.0 0.0 0.0 0.0 0.0 0.0 -0.0136786 -0.0167153 -0.0195578 -0.0222783 -0.0254037 0.0 0.0 0.0 0.0 0.0 0.0 0.0 0.0 0.0 0.0 0.0 0.0 0.0 0.0 -0.0655428 -0.0695179 -0.0730556 -0.0750089 -0.0787396 -0.0827516 0.0 0.0 0.0 0.0 0.0 0.0 0.0 0.0 0.0 0.0 0.0 0.0 0.0 0.0 0.0 0.0 0.0 0.0 0.0 -0.213237 -0.220575 -0.221501 -0.227102 -0.230599 -0.235267 -0.239885 -0.244795 -0.249732 -0.252393 -0.259391 -0.26336 -0.268685 -0.272737 -0.279218 -0.282901 -0.289894 -0.292442 -0.299211 -0.302655 -0.309189 -0.310787 -0.319087 -0.32416 -0.331191 -0.334104 -0.341432 -0.344043 -0.353435 -0.356346 -0.360924 -0.366835 -0.371967 -0.378902 -0.384319 -0.389336 -0.394701 -0.40175 -0.408089
0.439556 0.433518 0.42497 0.41729 0.409694 0.401008 0.395164 0.390599 0.382158 0.378357 0.370766 0.364145 0.359033 0.353656 0.348307 0.34151 0.33642 0.331351 0.326039 0.321189 0.314815 0.308672 0.303661 0.298915 0.29274 0.28757 0.283202 0.277312 0.272446 0.267599 0.261831 0.258028 0.251352 0.247494 0.198123 0.170527 0.167966 0.162037 0.153374 0.149123 0.149433 0.140256 0.138047 0.136029 0.130931 0.127151 0.124136 0.121278 0.118566 0.119202 0.0 0.0 0.0 0.0 0.0 0.0 0.0 0.0 0.0 0.0 0.0 0.0 0.0 0.0 0.0 0.0 0.0 0.0 0.0 0.0 0.0 0.0 0.0 0.0 0.0 0.0 0.0 0.0 0.0 0.0 0.0 0.020203 0.0175126 0.0145167 0.0116649 0.00887991 0.0 0.0 0.0 0.0 0.0 0.0 0.0 -0.0134878 -0.016658 -0.0196001 -0.0224421 -0.0256642 0.0 0.0 0.0 0.0 -0.0397296 -0.0422846 -0.04509 0.0 0.0 0.0 0.0 0.0 0.0 0.0 -0.0650183 -0.0693971 -0.0723289 -0.0751413 -0.0782973 -0.0815866 0.0 0.0 0.0 0.0 0.0 0.0 0.0 0.0 0.0 0.0 0.0 0.0 0.0 0.0 0.0 0.0 0.0 0.0 0.0 -0.201233 -0.218977 -0.221442 -0.224668 -0.230603 -0.232468 -0.239549 -0.243205 -0.247971 -0.251319 -0.258225 -0.261278 -0.268615 -0.27035 -0.278046 -0.281071 -0.287628 -0.291541 -0.297037 -0.301213 -0.305994 -0.311936 -0.317755 -0.322717 -0.328898 -0.334018 -0.338786 -0.343859 -0.348078 -0.355068 -0.358423 -0.365724 -0.36857 -0.375771 -0.3821 -0.388056 -0.394165 -0.399551 -0.408099
0.429571 0.428151 0.423548 0.414795 0.408741 0.4006 0.395076 0.387718 0.380847 0.375453 0.367705 0.362399 0.356154 0.350534 0.34598 0.339493 0.336342 0.328768 0.323671 0.316774 0.311323 0.30616 0.302431 0.295832 0.291069 0.286005 0.280888 0.276256 0.271708 0.266506 0.262707 0.258533 0.252891 0.244702 0.181982 0.215416 0.21114 0.179661 0.157958 0.150157 0.143623 0.14235 0.143049 0.135256 0.130067 0.127685 0.124347 0.119817 0.118667 0.11671 0.0 0.0 0.0 0.0 0.0 0.0 0.0 0.0 0.0 0.0 0.0 0.0 0.0 0.0 0.0 0.0 0.0 0.0 0.0 0.0 0.0 0.0 0.0 0.0 0.0 0.0 0.0 0.0 0.0 0.0 0.0 0.0199872 0.0173718 0.0145046 0.0116651 0.00887254 0.00617909 0.0 0.0 0.0 0.0 0.0 0.0 0.0 -0.0174416 0.0 0.0 0.0 0.0 0.0 -0.0335565 -0.0361445 -0.0389172 -0.0417587 -0.0448195 0.0 0.0 0.0 0.0 0.0 0.0 0.0 -0.0669167 -0.069642 -0.072552 -0.0751431 -0.0787766 -0.0823306 0.0 0.0 0.0 0.0 0.0 0.0 0.0 0.0 0.0 0.0 0.0 0.0 0.0 0.0 0.0 0.0 0.0 0.0 0.0 -0.172154 -0.217566 -0.221826 -0.223263 -0.229236 -0.232409 -0.236904 -0.242104 -0.245719 -0.251255 -0.256037 -0.261585 -0.265286 -0.271363 -0.274994 -0.281081 -0.28423 -0.291634 -0.294533 -0.301054 -0.304361 -0.312827 -0.315625 -0.322639 -0.325415 -0.332724 -0.336525 -0.340891 -0.348385 -0.351223 -0.357033 -0.362075 -0.367243 -0.375264 -0.378509 -0.387534 -0.391785 -0.40001 -0.405095
0.425392 0.417181 0.416598 0.414055 0.408334 0.400943 0.392896 0.386085 0.380155 0.374469 0.366932 0.360952 0.35521 0.350649 0.343845 0.338405 0.33318 0.326816 0.323424 0.315402 0.310827 0.306008 0.301205 0.295033 0.290123 0.285075 0.278967 0.27429 0.268804 0.266593 0.261781 0.256986 0.25527 0.183996 0.16544 0.160814 0.173198 0.18611 0.167431 0.149073 0.139061 0.130744 0.139136 0.136927 0.13208 0.128061 0.124662 0.12169 0.118327 0.116954 0.0 0.0 0.0 0.0 0.0 0.0 0.0 0.0 0.0 0.0 0.0 0.0 0.0 0.0 0.0 0.0 0.0 0.0 0.0 0.0 0.0 0.0519866 0.0480557 0.0439968 0.0418683 0.0 0.0 0.0 0.0 0.0 0.0 0.0195986 0.0171716 0.0145236 0.0116754 0.00884258 0.00605138 0.0 0.0 0.0 0.0 0.0 0.0 0.0 0.0 0.0 0.0 0.0 0.0 0.0 -0.03334 -0.0362085 -0.0388336 -0.0419779 -0.0450535 -0.0487391 0.0 0.0 0.0 0.0 0.0 0.0 0.0 -0.0699484 -0.0740732 -0.0788601 0.0 0.0 0.0 0.0 0.0 0.0 0.0 0.0 0.0 0.0 0.0 0.0 0.0 0.0 0.0 0.0 0.0 0.0 0.0 0.0 0.0 0.0 -0.21659 -0.222591 -0.223209 -0.22761 -0.231819 -0.234806 -0.240382 -0.244177 -0.251052 -0.254438 -0.260629 -0.263403 -0.269756 -0.273281 -0.280537 -0.284163 -0.289587 -0.294381 -0.299026 -0.30533 -0.309768 -0.314929 -0.319485 -0.325526 -0.330315 -0.33645 -0.340527 -0.345868 -0.350551 -0.356653 -0.359958 -0.366852 -0.372147 -0.378532 -0.383687 -0.388866 -0.396942 -0.40098
0.419969 0.414521 0.409101 0.40622 0.404485 0.398847 0.393347 0.385494 0.378551 0.373088 0.366464 0.35961 0.354562 0.348014 0.341248 0.335108 0.330658 0.32496 0.320361 0.315425 0.309995 0.304347 0.29866 0.293506 0.287499 0.283124 0.278211 0.273699 0.269794 0.256025 0.219344 0.199221 0.212135 0.169869 0.159754 0.155894 0.152202 0.152901 0.157231 0.154112 0.147375 0.145905 0.143119 0.136046 0.131002 0.127803 0.124306 0.121444 0.118924 0.115664 0.0 0.0 0.0 0.0 0.0 0.0 0.0 0.0 0.0 0.0 0.0 0.0 0.0 0.0 0.0 0.0 0.0 0.0 0.0 0.0 0.0528081 0.0501953 0.0468601 0.0439433 0.0414918 0.0 0.0 0.0 0.0 0.0 0.0 0.0 0.0174249 0.0145677 0.0117258 0.00897128 0.00608741 0.0 0.0 0.0 -0.00562104 -0.0084631 -0.011263 0.0 0.0 0.0 0.0 0.0 0.0 0.0 -0.0330077 -0.0360526 -0.0392079 -0.0420522 -0.0449971 -0.0480403 0.0 0.0 0.0 0.0 0.0 0.0 0.0 0.0 0.0 0.0 0.0 0.0 0.0 0.0 0.0 0.0 0.0 0.0 0.0 0.0 0.0 0.0 0.0 0.0 0.0 0.0 0.0 0.0 0.0 0.0 0.0 0.0 -0.215309 -0.220402 -0.222901 -0.225332 -0.231833 -0.23516 -0.24005 -0.244333 -0.249557 -0.254088 -0.259453 -0.263269 -0.267767 -0.272514 -0.277921 -0.284426 -0.286802 -0.293815 -0.296917 -0.303707 -0.307241 -0.314684 -0.316517 -0.324446 -0.329499 -0.333063 -0.340071 -0.343455 -0.350973 -0.353468 -0.361208 -0.365229 -0.370501 -0.377289 -0.381996 -0.388679 -0.392666 -0.400452
0.419442 0.411757 0.406483 0.398827 0.395465 0.39229 0.391601 0.383978 0.37726 0.371513 0.363024 0.358273 0.351991 0.345669 0.341279 0.333569 0.330234 0.323466 0.319243 0.311545 0.308996 0.30185 0.29703 0.291902 0.286321 0.281099 0.275213 0.271513 0.265775 0.22936 0.217845 0.198244 0.165447 0.17077 0.163385 0.152619 0.151698 0.171229 0.167948 0.160911 0.146792 0.144464 0.139948 0.134334 0.131227 0.127864 0.124625 0.126199 0.125235 0.0 0.0 0.0 0.0 0.0 0.0 0.0 0.0 0.0 0.0 0.0 0.0 0.0 0.0 0.0 0.0 0.0 0.0 0.0 0.0 0.0 0.0522588 0.05001 0.0465286 0.043927 0.0409437 0.0 0.0 0.0 0.0 0.0 0.0 0.0 0.0175818 0.0152331 0.0 0.0 0.0 0.0 0.000283425 -0.00255307 -0.00538987 -0.00823741 -0.0111115 0.0 0.0 0.0 0.0 0.0 0.0 0.0 -0.0325306 -0.0362587 -0.0390064 -0.0419089 -0.045038 -0.0477953 0.0 0.0 0.0 0.0 -0.0633558 -0.06562 -0.068472 0.0 0.0 0.0 0.0 0.0 0.0 0.0 0.0 0.0 0.0 0.0 0.0 0.0 0.0 0.0 0.0 0.0 0.0 0.0 0.0 0.0 0.0 0.0 0.0 0.0 -0.206696 -0.218468 -0.222725 -0.224367 -0.230181 -0.234429 -0.237989 -0.243363 -0.246843 -0.253302 -0.257386 -0.26329 -0.265782 -0.274343 -0.275869 -0.282583 -0.286579 -0.292247 -0.297454 -0.302089 -0.306389 -0.310159 -0.316999 -0.320702 -0.327848 -0.330345 -0.337602 -0.341243 -0.347443 -0.351092 -0.358188 -0.36227 -0.370328 -0.373187 -0.380205 -0.387518 -0.392042 -0.397694
0.417218 0.411581 0.402321 0.398765 0.390442 0.38478 0.383248 0.382262 0.374955 0.369743 0.36376 0.357824 0.35039 0.343806 0.338881 0.332775 0.328269 0.322157 0.316278 0.311317 0.305951 0.300198 0.295321 0.290139 0.285629 0.280261 0.273535 0.263468 0.200248 0.174536 0.168183 0.174508 0.166855 0.163134 0.170973 0.164859 0.164858 0.17137 0.170871 0.159833 0.148822 0.143895 0.142573 0.134456 0.135471 0.142082 0.0 0.0 0.0 0.0 0.0 0.0 0.0 0.0 0.0 0.0 0.0 0.0 0.0 0.0 0.0 0.0 0.0 0.0 0.0 0.0 0.0 0.0 0.0 0.0 0.0511137 0.0500338 0.0467276 0.0436533 0.0409805 0.0389477 0.0 0.0 0.0 0.0 0.0 0.0 0.0 0.0 0.0 0.0 0.0 0.0 0.000277106 -0.00253676 -0.00534619 -0.00826612 -0.0111738 -0.0142543 0.0 0.0 0.0 0.0 0.0 0.0 0.0 -0.0364967 -0.0396017 -0.043074 0.0 0.0 0.0 -0.0533802 -0.0558749 -0.0588471 -0.061515 -0.0643938 -0.0680676 0.0 0.0 0.0 0.0 0.0 0.0 0.0 0.0 0.0 0.0 0.0 0.0 0.0 0.0 0.0 0.0 0.0 0.0 0.0 0.0 0.0 0.0 0.0 0.0 0.0 -0.182123 -0.218424 -0.221782 -0.224124 -0.228399 -0.233634 -0.237178 -0.243386 -0.246866 -0.252301 -0.256218 -0.261115 -0.265577 -0.272407 -0.275736 -0.27977 -0.285205 -0.288251 -0.296803 -0.299264 -0.30563 -0.308763 -0.315945 -0.320829 -0.325549 -0.330381 -0.333696 -0.340793 -0.344809 -0.350931 -0.35497 -0.362518 -0.367753 -0.371214 -0.378098 -0.385165 -0.390542 -0.398636
0.416593 0.409504 0.401933 0.398819 0.390603 0.384831 0.37721 0.3732 0.37 0.368079 0.362219 0.357381 0.350435 0.34423 0.338924 0.331339 0.32549 0.320048 0.316405 0.31066 0.303936 0.299477 0.295356 0.290418 0.284861 0.280135 0.272017 0.265478 0.203489 0.196467 0.202506 0.0 0.185739 0.20879 0.185469 0.168426 0.178024 0.170818 0.158386 0.15506 0.151982 0.162435 0.182181 0.184623 0.182653 0.180323 0.0 0.0 0.0 0.0 0.0 0.0 0.0 0.0 0.0 0.0 0.0 0.0 0.0 0.0 0.0 0.0 0.0 0.0 0.0 0.0 0.0 0.0 0.0 0.0 0.0517354 0.0495366 0.0466522 0.0441718 0.041688 0.0393495 0.0 0.0 0.0 0.0274012 0.0235592 0.020805 0.0 0.0 0.0 0.0 0.0 0.0 0.000277124 -0.00256214 -0.00539745 -0.00822071 -0.011165 -0.0140403 0.0 0.0 0.0 0.0 0.0 0.0 0.0 0.0 0.0 0.0 0.0 0.0 0.0 -0.0512163 -0.0558302 -0.0586726 -0.0619471 -0.0648178 -0.067693 0.0 0.0 0.0 0.0 0.0 0.0 0.0 0.0 0.0 0.0 0.0 0.0 0.0 0.0 0.0 0.0 0.0 0.0 0.0 0.0 0.0 0.0 0.0 0.0 0.0 0.0 -0.217565 -0.221419 -0.224475 -0.226887 -0.232706 -0.236024 -0.241858 -0.245885 -0.250057 -0.255948 -0.259474 -0.265375 -0.268747 -0.275129 -0.277205 -0.285156 -0.288286 -0.294112 -0.298954 -0.303997 -0.308712 -0.312449 -0.319028 -0.321946 -0.328717 -0.333354 -0.33869 -0.343171 -0.348466 -0.354202 -0.360914 -0.365499 -0.372644 -0.374599 -0.3838 -0.388164 -0.395444
0.413131 0.408221 0.402549 0.3956 0.390339 0.382123 0.377372 0.371392 0.364336 0.359875 0.357407 0.355378 0.347881 0.342853 0.337848 0.330279 0.325991 0.318301 0.313362 0.308705 0.302866 0.298339 0.293409 0.288908 0.282815 0.277492 0.271975 0.267949 0.26257 0.239069 0.19278 0.0 0.184299 0.221182 0.223501 0.231629 0.200348 0.169701 0.179759 0.189451 0.199301 0.19823 0.196915 0.19142 0.184518 0.180235 0.0 0.0 0.0 0.0 0.0 0.0 0.0 0.0 0.0 0.0 0.0 0.0 0.0 0.0 0.0 0.0 0.0 0.0 0.0 0.0 0.0 0.0 0.0 0.0 0.0 0.0510631 0.0482659 0.0 0.0 0.0 0.0 0.0319707 0.0288661 0.0260946 0.0234128 0.0206421 0.0 0.0 0.0 0.0 0.0 0.0 0.0 -0.00257219 -0.00542098 -0.00830963 -0.0111753 -0.0140533 0.0 0.0 0.0 0.0 0.0 -0.032603 -0.0343502 0.0 0.0 0.0 0.0 0.0 0.0 0.0 -0.0558346 -0.0586518 -0.0610965 -0.0643197 -0.0676694 0.0 0.0 0.0 0.0 0.0 0.0 0.0 0.0 0.0 0.0 0.0 0.0 0.0 0.0 0.0 0.0 0.0 0.0 0.0 0.0 0.0 0.0 0.0 0.0 0.0 0.0 -0.217149 -0.219775 -0.223584 -0.22638 -0.231236 -0.235706 -0.239343 -0.246491 -0.248256 -0.25598 -0.258065 -0.265023 -0.267289 -0.274287 -0.277485 -0.28247 -0.288241 -0.291169 -0.298649 -0.300257 -0.307862 -0.311314 -0.317233 -0.32274 -0.326109 -0.332152 -0.336592 -0.342727 -0.346107 -0.353746 -0.35787 -0.363042 -0.370153 -0.37584 -0.380696 -0.386677 -0.392929
0.414455 0.407056 0.402397 0.394793 0.387816 0.381869 0.373866 0.369591 0.362865 0.358928 0.351308 0.347505 0.346104 0.341197 0.336028 0.328947 0.322313 0.317455 0.31244 0.307016 0.30086 0.295775 0.291217 0.287077 0.280853 0.276666 0.270697 0.265245 0.264404 0.228071 0.202198 0.185212 0.206189 0.21964 0.229162 0.232054 0.22094 0.215218 0.21216 0.208574 0.205559 0.200229 0.195916 0.190609 0.184485 0.178135 0.168163 0.0 0.0 0.0 0.0 0.0 0.0 0.0 0.0 0.0 0.0 0.0 0.0 0.0 0.0 0.0 0.0 0.0 0.0 0.0 0.0 0.0 0.0 0.0 0.0 0.0 0.0 0.0 0.0 0.0 0.0 0.0316892 0.0289177 0.0259858 0.0231877 0.020514 0.0 0.0 0.0 0.0 0.0 0.0 0.0 -0.00256582 -0.00544225 -0.00858589 0.0 0.0 0.0 -0.0197089 -0.0228267 -0.0251214 -0.0281274 -0.0310777 -0.0338889 0.0 0.0 0.0 0.0 0.0 0.0 0.0 -0.0556452 -0.0586315 -0.0620379 -0.0643256 -0.0678216 -0.0720152 0.0 0.0 0.0 0.0 0.0 0.0 0.0 0.0 0.0 0.0 0.0 0.0 0.0 0.0 0.0 0.0 0.0 0.0 0.0 0.0 0.0 0.0 0.0 0.0 0.0 -0.211828 -0.217684 -0.222172 -0.225007 -0.229497 -0.234489 -0.238245 -0.245158 -0.247485 -0.253704 -0.258102 -0.26259 -0.268585 -0.272011 -0.27712 -0.280201 -0.287194 -0.289252 -0.29653 -0.300216 -0.304873 -0.311363 -0.315534 -0.320923 -0.324929 -0.332014 -0.3345 -0.341694 -0.345764 -0.352787 -0.356381 -0.364046 -0.369367 -0.374075 -0.377272 -0.385749 -0.38919
0.412487 0.404552 0.401033 0.3929 0.387458 0.37896 0.375722 0.369038 0.363341 0.356476 0.350379 0.343847 0.340568 0.337548 0.334588 0.327435 0.32237 0.316346 0.309406 0.304983 0.299286 0.295741 0.289194 0.286636 0.279857 0.276632 0.27012 0.264678 0.260627 0.240464 0.207937 0.185098 0.234357 0.219673 0.234091 0.229063 0.220972 0.217334 0.214357 0.209149 0.204103 0.198049 0.19509 0.189412 0.185487 0.17784 0.173673 0.0 0.0 0.0 0.0 0.0 0.0 0.0 0.0 0.0 0.0 0.0 0.0 0.0 0.0 0.0 0.0 0.0 0.0 0.0 0.0 0.0 0.0 0.0 0.0 0.0 0.0 0.0 0.0 0.0 0.0 0.0316921 0.0290435 0.02621 0.0231898 0.0205591 0.0 0.0 0.0 0.0 0.0 0.0 0.0 0.0 0.0 0.0 0.0 0.0 0.0 0.0 -0.0224629 -0.0253515 -0.0281421 -0.0309876 -0.0340516 0.0 0.0 0.0 0.0 0.0 0.0 0.0 -0.055092 -0.0593263 -0.0622581 -0.0665698 0.0 0.0 0.0 0.0 0.0 0.0 0.0 0.0 0.0 0.0 0.0 0.0 0.0 0.0 0.0 0.0 0.0 0.0 0.0 0.0 0.0 0.0 0.0 0.0 0.0 0.0 0.0 -0.196878 -0.217266 -0.222074 -0.225775 -0.228577 -0.23501 -0.237433 -0.243324 -0.247524 -0.251953 -0.25708 -0.260315 -0.266036 -0.26862 -0.276597 -0.27934 -0.285648 -0.29024 -0.294762 -0.299476 -0.303676 -0.308606 -0.312643 -0.319018 -0.323755 -0.328801 -0.334561 -0.340568 -0.345627 -0.349592 -0.356035 -0.35982 -0.366464 -0.370164 -0.377235 -0.382175 -0.389937
0.414509 0.40621 0.399455 0.394186 0.385596 0.380849 0.372753 0.367353 0.360656 0.35554 0.349258 0.342839 0.337353 0.332286 0.328372 0.326021 0.319248 0.314703 0.3092 0.303911 0.299 0.296049 0.289082 0.284732 0.279907 0.275183 0.266369 0.259542 0.257228 0.245802 0.200312 0.1896 0.234675 0.218068 0.235537 0.227915 0.221007 0.216609 0.211417 0.207725 0.202768 0.19895 0.194152 0.189662 0.185459 0.17935 0.173439 0.148312 0.0 0.0 0.0 0.0 0.0 0.0 0.0 0.0 0.0 0.0 0.0 0.0 0.0 0.0 0.0 0.0 0.0 0.0 0.0 0.0 0.0 0.0 0.0 0.0 0.0 0.0 0.0 0.0 0.0 0.0306668 0.0290711 0.0262903 0.0231823 0.0205266 0.0179393 0.0 0.0 0.0 0.0 0.0 0.000303051 0.0 0.0 0.0 0.0 0.0 0.0 0.0 -0.0223207 -0.0252565 -0.0282173 -0.0309775 -0.0338519 -0.0377076 0.0 0.0 0.0 0.0 0.0 0.0 0.0 0.0 0.0 0.0 0.0 0.0 0.0 0.0 0.0 0.0 0.0 0.0 0.0 0.0 0.0 0.0 0.0 0.0 0.0 0.0 0.0 0.0 0.0 0.0 0.0 0.0 0.0 0.0 0.0 0.0 0.0 -0.202889 -0.216337 -0.218702 -0.224876 -0.227389 -0.2338 -0.236766 -0.242573 -0.246686 -0.249982 -0.256062 -0.259665 -0.264198 -0.268588 -0.273885 -0.278565 -0.283435 -0.289441 -0.292479 -0.29927 -0.301053 -0.30794 -0.312796 -0.317117 -0.32268 -0.327615 -0.33287 -0.337367 -0.342481 -0.347422 -0.352698 -0.356856 -0.364947 -0.370026 -0.37535 -0.380155 -0.388451
0.415175 0.405068 0.399436 0.392416 0.386008 0.37742 0.372732 0.365259 0.35951 0.353099 0.348043 0.342816 0.337137 0.331978 0.324785 0.319899 0.317768 0.314769 0.30847 0.303452 0.297264 0.293835 0.286736 0.282342 0.277556 0.271688 0.26642 0.258449 0.255029 0.246584 0.205336 0.188783 0.239733 0.216466 0.233231 0.225521 0.220013 0.21633 0.211081 0.20685 0.202385 0.197994 0.193785 0.189191 0.184565 0.177945 0.17419 0.16289 0.0 0.0 0.0 0.0 0.0 0.0 0.0 0.0 0.0 0.0 0.0 0.0 0.0 0.0 0.0 0.0 0.0 0.0 0.0 0.0 0.0 0.0 0.0 0.0 0.0 0.0 0.0 0.0 0.0 0.0 0.0290866 0.0266261 0.0236983 0.0 0.0 0.0 0.0121427 0.00917702 0.005999 0.00314363 0.000288704 0.0 0.0 0.0 0.0 0.0 0.0 0.0 -0.0221979 -0.025281 -0.0280756 -0.030848 -0.0339283 -0.0370196 0.0 0.0 0.0 0.0 0.0 0.0 0.0 0.0 0.0 0.0 0.0 0.0 0.0 0.0 0.0 0.0 0.0 0.0 0.0 0.0 0.0 0.0 0.0 0.0 0.0 0.0 0.0 0.0 0.0 0.0 0.0 0.0 0.0 0.0 0.0 -0.193657 -0.206509 -0.209975 -0.215218 -0.217364 -0.223713 -0.227021 -0.232384 -0.235536 -0.240025 -0.246366 -0.249059 -0.255275 -0.258865 -0.263306 -0.267841 -0.272396 -0.279364 -0.281477 -0.287965 -0.290546 -0.297043 -0.301384 -0.305827 -0.312218 -0.315128 -0.323699 -0.324605 -0.33265 -0.336352 -0.342457 -0.34648 -0.351227 -0.356727 -0.362374 -0.368172 -0.373035 -0.380574 -0.386075
0.416189 0.408765 0.399424 0.392185 0.383511 0.377726 0.370301 0.364726 0.358268 0.353083 0.348226 0.342114 0.336154 0.330437 0.325423 0.320065 0.313015 0.307846 0.305978 0.302303 0.296474 0.291877 0.285307 0.280609 0.27561 0.271035 0.265623 0.25774 0.253883 0.24737 0.206028 0.191092 0.25072 0.219517 0.2318 0.224511 0.218699 0.215485 0.209819 0.206644 0.2026 0.196808 0.192113 0.188779 0.183727 0.179408 0.172302 0.166606 0.0 0.0 0.0 0.0 0.0 0.0 0.0 0.0 0.0 0.0 0.0 0.0 0.0 0.0 0.0 0.0 0.0 0.0 0.0 0.0 0.0 0.0 0.0 0.0 0.0 0.0 0.0 0.0 0.0 0.0 0.0 0.0 0.0 0.0 0.0 0.0 0.0116944 0.00885692 0.00604322 0.00314266 0.00028825 -0.00265903 0.0 0.0 0.0 0.0 0.0 0.0 -0.0217094 -0.02536 -0.0283084 -0.0311974 -0.0347887 0.0 0.0 0.0 0.0 0.0 0.0 0.0 0.0 0.0 0.0 0.0 0.0 0.0 0.0 0.0 0.0 0.0 0.0 0.0 0.0 0.0 0.0 0.0 0.0 0.0 0.0 0.0 0.0 0.0 0.0 0.0 -0.166111 -0.179177 -0.187465 -0.193055 -0.196704 -0.202271 -0.206485 -0.208817 -0.214615 -0.217077 -0.223088 -0.22686 -0.231041 -0.236078 -0.238704 -0.244875 -0.248139 -0.252745 -0.257451 -0.261867 -0.269178 -0.27091 -0.276368 -0.280447 -0.285554 -0.290177 -0.295613 -0.300291 -0.304717 -0.310539 -0.315107 -0.320927 -0.324296 -0.329699 -0.334449 -0.339322 -0.346156 -0.348831 -0.354927 -0.361612 -0.366539 -0.371381 -0.379894 -0.382921
0.426325 0.410562 0.399864 0.392618 0.384693 0.3774 0.370083 0.364925 0.359691 0.351763 0.346824 0.340044 0.33508 0.327759 0.322877 0.318019 0.313365 0.307025 0.300841 0.297418 0.293805 0.289924 0.283384 0.278961 0.273828 0.270229 0.264054 0.257721 0.251766 0.247866 0.205422 0.192481 0.24457 0.226745 0.229029 0.223306 0.217969 0.214516 0.208931 0.205532 0.200262 0.196032 0.191695 0.188203 0.182565 0.178167 0.173162 0.166181 0.145343 0.0 0.0 0.0 0.0 0.0 0.0 0.0 0.0 0.0 0.0 0.0 0.0 0.0 0.0 0.0 0.0 0.0 0.0 0.0 0.0 0.0 0.0 0.0 0.0 0.0 0.0 0.0 0.0374452 0.033494 0.0 0.0 0.0 0.0 0.0 0.0 0.011436 0.00885806 0.00605168 0.00317122 0.000290847 -0.00262974 0.0 0.0 0.0 0.0 0.0 0.0 0.0 0.0 0.0 0.0 0.0 0.0 0.0 0.0 0.0 0.0 0.0 0.0 0.0 0.0 0.0 0.0 0.0 0.0 0.0 0.0 0.0 0.0 0.0 0.0 0.0 0.0 0.0 0.0 0.0 0.0 0.0 0.0 -0.148822 -0.160878 -0.169176 -0.174574 -0.177336 -0.18397 -0.186934 -0.192455 -0.195914 -0.198564 -0.204613 -0.206844 -0.214144 -0.217318 -0.221462 -0.22609 -0.228937 -0.235633 -0.237963 -0.243902 -0.247671 -0.251434 -0.25805 -0.259804 -0.26716 -0.269997 -0.276185 -0.279422 -0.283915 -0.29068 -0.291811 -0.301169 -0.30343 -0.309326 -0.314064 -0.319204 -0.325053 -0.329686 -0.333841 -0.339208 -0.346552 -0.348405 -0.35523 -0.360113 -0.365236 -0.370169 -0.378335 -0.38392
0.445474 0.426985 0.405306 0.394482 0.386748 0.380065 0.370292 0.364819 0.358461 0.35186 0.345029 0.340039 0.332658 0.327847 0.322776 0.316531 0.311535 0.305401 0.300654 0.296016 0.290284 0.285194 0.281133 0.278623 0.274056 0.270058 0.26598 0.260376 0.253399 0.24947 0.204312 0.195934 0.239327 0.231243 0.227603 0.222434 0.217565 0.214372 0.208727 0.204482 0.198699 0.0 0.190823 0.187406 0.182058 0.177671 0.172885 0.165909 0.158093 0.0 0.0 0.0 0.0 0.0 0.0 0.0 0.0 0.0 0.0 0.0 0.0 0.0 0.0 0.0 0.0 0.0 0.0 0.0 0.0 0.0 0.0 0.0 0.0 0.0460351 0.0415524 0.038025 0.0353544 0.0327676 0.0 0.0 0.0 0.0 0.0 0.0 0.0 0.00892731 0.00599874 0.00316897 0.000290155 -0.00261804 0.0 0.0 0.0 0.0 0.0 0.0 0.0 0.0 0.0 0.0 0.0 0.0 0.0 0.0 0.0 0.0 0.0 0.0 0.0 0.0 0.0 0.0 0.0 0.0 0.0 0.0 0.0 0.0 0.0 0.0 0.0 0.0 0.0 0.0 -0.129234 -0.145714 -0.15201 -0.157241 -0.161115 -0.16438 -0.168899 -0.174238 -0.176127 -0.18218 -0.184989 -0.190178 -0.194593 -0.198061 -0.203483 -0.207077 -0.212133 -0.216382 -0.219907 -0.225868 -0.227461 -0.234555 -0.238307 -0.242565 -0.247356 -0.251114 -0.256179 -0.259788 -0.266426 -0.269576 -0.274848 -0.279408 -0.28211 -0.290235 -0.294264 -0.29928 -0.304781 -0.308302 -0.315083 -0.317675 -0.324948 -0.328309 -0.333735 -0.337693 -0.343486 -0.348812 -0.353547 -0.358408 -0.363184 -0.370275 -0.376341 -0.383021
0.444129 0.438252 0.427966 0.404133 0.389567 0.379753 0.370824 0.364617 0.359079 0.351964 0.34533 0.338177 0.332658 0.326894 0.321178 0.316436 0.310529 0.305396 0.299324 0.294184 0.289335 0.283585 0.279383 0.274453 0.271881 0.26926 0.26372 0.259145 0.253314 0.252184 0.210801 0.219779 0.234783 0.233762 0.226785 0.222025 0.217228 0.212207 0.207969 0.204528 0.198684 0.195126 0.190637 0.186723 0.181607 0.177708 0.172298 0.166752 0.161577 0.0 0.0 0.0 0.0 0.0 0.0 0.0 0.0 0.0 0.0 0.0 0.0 0.0 0.0 0.0 0.0 0.0 0.0 0.0 0.0 0.0 0.0 0.0 0.0 0.0437015 0.0408189 0.0380469 0.0351384 0.0324746 0.0 0.0 0.0 0.0 0.0 0.0 0.0 0.00891729 0.00605341 0.00317615 0.000294588 -0.00268317 0.0 0.0 0.0 0.0 0.0 0.0 0.0 0.0 0.0 0.0 0.0 0.0 0.0 0.0 0.0 0.0 0.0 0.0 0.0 0.0 0.0 0.0 0.0 0.0 0.0 0.0 0.0 0.0 0.0 0.0 0.0 -0.127312 -0.134641 -0.140338 -0.143318 -0.149005 -0.15218 -0.155599 -0.160412 -0.163307 -0.168521 -0.173165 -0.176164 -0.181499 -0.185709 -0.188482 -0.1944 -0.19732 -0.202603 -0.206557 -0.210382 -0.216433 -0.218688 -0.224218 -0.227446 -0.232843 -0.237068 -0.240717 -0.247045 -0.249809 -0.254698 -0.259069 -0.263376 -0.269159 -0.272359 -0.279316 -0.282955 -0.28832 -0.293201 -0.29659 -0.301052 -0.305807 -0.311336 -0.315202 -0.320512 -0.327329 -0.332245 -0.338798 -0.340526 -0.348813 -0.352604 -0.358516 -0.363294 -0.368311 -0.373134 -0.378202
0.453965 0.43817 0.430659 0.42651 0.404722 0.384142 0.372416 0.363799 0.357555 0.353589 0.345039 0.339165 0.33276 0.326612 0.320806 0.314681 0.309164 0.30414 0.297556 0.293225 0.287191 0.282064 0.277886 0.273469 0.268584 0.265387 0.260609 0.258758 0.252332 0.250041 0.215198 0.239375 0.236518 0.231836 0.226237 0.220368 0.216506 0.211752 0.207337 0.203605 0.198196 0.193659 0.189827 0.18582 0.180289 0.177163 0.171455 0.167395 0.160477 0.0 0.0 0.0 0.0 0.0 0.0 0.0 0.0 0.0 0.0 0.0 0.0 0.0 0.0 0.0 0.0 0.0 0.0 0.0 0.0 0.0 0.0 0.0 0.0 0.0429161 0.0410322 0.038261 0.0351736 0.0325747 0.0 0.0 0.0 0.0 0.0 0.0 0.0 0.0091947 0.0 0.0 0.0 0.0 0.0 0.0 0.0 0.0 0.0 0.0 0.0 0.0 0.0 0.0 0.0 0.0 0.0 0.0 0.0 0.0 0.0 0.0 0.0 0.0 0.0 0.0 0.0 0.0 0.0 0.0 0.0 -0.110957 -0.119083 -0.122464 -0.127175 -0.13117 -0.135001 -0.13921 -0.14273 -0.146905 -0.151606 -0.155727 -0.16074 -0.163845 -0.16763 -0.173203 -0.176203 -0.180377 -0.185242 -0.188584 -0.194268 -0.197246 -0.202035 -0.206292 -0.208955 -0.214584 -0.217405 -0.223184 -0.227505 -0.231771 -0.236265 -0.240414 -0.244645 -0.249269 -0.253685 -0.258511 -0.261609 -0.267852 -0.271196 -0.276874 -0.282098 -0.284933 -0.290555 -0.293814 -0.299506 -0.304515 -0.308247 -0.315868 -0.3182 -0.325083 -0.32957 -0.333671 -0.34043 -0.34499 -0.350302 -0.354694 -0.362764 -0.364823 -0.373144 -0.376641
0.518898 0.454192 0.432584 0.423038 0.416758 0.406895 0.381068 0.367659 0.359313 0.352394 0.345651 0.338393 0.333449 0.326623 0.321379 0.315522 0.308351 0.303338 0.297825 0.292968 0.287365 0.282319 0.278219 0.27249 0.266495 0.262858 0.257502 0.253413 0.249254 0.248564 0.215041 0.242782 0.238327 0.232515 0.225693 0.220558 0.216176 0.210984 0.206708 0.0 0.19777 0.193474 0.189475 0.184585 0.180005 0.176143 0.171961 0.167788 0.160464 0.152298 0.0 0.0 0.0 0.0 0.0 0.0 0.0 0.0 0.0 0.0 0.0 0.0 0.0 0.0 0.0 0.0 0.0 0.0 0.0 0.0 0.0 0.0 0.0 0.0 0.0411427 0.0383157 0.0352093 0.0324584 0.0299996 0.0 0.0 0.0 0.0 0.0 0.0 0.0 0.0 0.0 0.0 0.0 0.0 0.0 0.0 0.0 0.0 0.0 0.0 0.0 0.0 0.0 0.0 0.0 0.0 0.0 0.0 0.0 0.0 0.0 0.0 0.0 0.0 0.0 -0.0837849 -0.0950816 -0.102318 -0.10732 -0.110215 -0.115334 -0.11918 -0.121352 -0.126928 -0.130027 -0.134655 -0.138555 -0.142364 -0.146484 -0.15164 -0.154183 -0.159402 -0.16338 -0.167359 -0.172187 -0.175163 -0.180365 -0.18336 -0.188631 -0.192777 -0.19657 -0.201036 -0.205526 -0.208688 -0.214575 -0.21753 -0.221675 -0.226942 -0.23056 -0.236187 -0.239013 -0.24479 -0.249721 -0.252907 -0.258194 -0.261206 -0.267851 -0.271112 -0.275613 -0.280561 -0.284067 -0.290822 -0.293906 -0.299238 -0.304243 -0.307596 -0.312834 -0.317436 -0.322841 -0.328686 -0.331969 -0.33799 -0.341482 -0.350211 -0.353963 -0.360082 -0.364948 -0.369948 -0.376771
0.676068 0.551196 0.4573 0.427577 0.415394 0.407254 0.405529 0.380773 0.362922 0.352619 0.347664 0.338216 0.3325 0.325495 0.319421 0.314333 0.308089 0.30326 0.296951 0.291845 0.286601 0.281904 0.275651 0.271841 0.266418 0.262071 0.256338 0.253185 0.245052 0.243405 0.215467 0.246052 0.238117 0.23087 0.225153 0.220488 0.216042 0.210282 0.207384 0.202253 0.197882 0.192361 0.188784 0.184632 0.18016 0.0 0.170655 0.167121 0.160651 0.155557 0.0 0.0 0.0 0.0 0.0 0.0 0.0 0.0 0.0 0.0 0.0 0.0 0.0 0.0 0.0 0.0 0.0 0.0 0.0 0.0 0.0 0.0 0.0 0.0 0.041116 0.0382429 0.0357181 0.0336974 0.0 0.0 0.0 0.0 0.0 0.0 0.0 0.0 0.0 0.0 0.0 0.0 0.0 0.0 0.0 0.0 0.0 0.0 0.0 0.0 0.0 0.0 0.0 0.0 0.0 0.0 0.0 0.0 0.0 0.0 0.0 -0.0794151 -0.0869289 -0.0903033 -0.0942991 -0.0982701 -0.101737 -0.10642 -0.109316 -0.114332 -0.11818 -0.121758 -0.127269 -0.130056 -0.134852 -0.138886 -0.141515 -0.146473 -0.150557 -0.154124 -0.159441 -0.162765 -0.166626 -0.171384 -0.174666 -0.179525 -0.183408 -0.187463 -0.192828 -0.196017 -0.199917 -0.205456 -0.207652 -0.213257 -0.216119 -0.221602 -0.225895 -0.229352 -0.234597 -0.238129 -0.243144 -0.248351 -0.250585 -0.257014 -0.260247 -0.266144 -0.270536 -0.27402 -0.279968 -0.281555 -0.288802 -0.293198 -0.297428 -0.302961 -0.305827 -0.311229 -0.317738 -0.320799 -0.327311 -0.330273 -0.336884 -0.340671 -0.34813 -0.352919 -0.355356 -0.362564 -0.367311 -0.373089
0.703833 0.682754 0.58788 0.470963 0.422262 0.406874 0.399888 0.393799 0.384064 0.36255 0.350183 0.340992 0.332814 0.326662 0.320476 0.314722 0.308289 0.301569 0.296435 0.29151 0.285242 0.282 0.276076 0.271196 0.266748 0.260418 0.255877 0.250288 0.242578 0.242744 0.215389 0.242288 0.233023 0.230254 0.225019 0.221476 0.216493 0.210913 0.206451 0.201885 0.196688 0.192414 0.18821 0.183513 0.17912 0.17533 0.169662 0.0 0.161136 0.155597 0.0 0.0 0.0 0.0 0.0 0.0 0.0 0.0 0.0 0.0 0.0 0.0 0.0 0.0 0.0 0.0 0.0 0.0 0.0 0.0 0.0 0.0 0.0 0.0 0.0 0.0 0.0 0.0 0.0 0.0 0.0 0.0 0.0 0.0 0.0 0.0 0.0 0.0 0.0 0.0 0.0 0.0 0.0 0.0 0.0 0.0 0.0 0.0 0.0 0.0 0.0 0.0 0.0 0.0 0.0 -0.0638289 -0.0694989 -0.0742269 -0.0779752 -0.0824475 -0.086358 -0.0899023 -0.0943487 -0.0974686 -0.10214 -0.106444 -0.110126 -0.113862 -0.118207 -0.121369 -0.126086 -0.129441 -0.134343 -0.138834 -0.141285 -0.146418 -0.150082 -0.153733 -0.158745 -0.162555 -0.166463 -0.170953 -0.1739 -0.178687 -0.183458 -0.186877 -0.191638 -0.194499 -0.198862 -0.204506 -0.20694 -0.211744 -0.215983 -0.220577 -0.225407 -0.228148 -0.233949 -0.238498 -0.242099 -0.2463 -0.250279 -0.255916 -0.260172 -0.265419 -0.268806 -0.272767 -0.279466 -0.281565 -0.288373 -0.29133 -0.295168 -0.302515 -0.305655 -0.311342 -0.316116 -0.319937 -0.326836 -0.329991 -0.335681 -0.339451 -0.345319 -0.350709 -0.353979 -0.36128 -0.365788 -0.371322
0.698978 0.685507 0.675198 0.618434 0.501047 0.426906 0.401099 0.389692 0.384317 0.383009 0.359986 0.34574 0.336815 0.328218 0.319186 0.313728 0.307857 0.302399 0.29672 0.290919 0.286803 0.280327 0.276174 0.270801 0.264991 0.260587 0.254877 0.250372 0.241684 0.243488 0.215895 0.242296 0.230375 0.225599 0.220316 0.219963 0.215008 0.210978 0.206079 0.201824 0.196686 0.191247 0.187523 0.18351 0.179279 0.173624 0.0 0.0 0.161526 0.155734 0.146335 0.0 0.0 0.0 0.0 0.0 0.0 0.0 0.0 0.0 0.0 0.0 0.0 0.0 0.0 0.0 0.0 0.0 0.0 0.0 0.0 0.0 0.0 0.0 0.0 0.0 0.0 0.0 0.0 0.0 0.0 0.0 0.0 0.0 0.0 0.0 0.0 0.0 0.0 0.0 0.0 0.0 0.0 0.0 0.0 0.0 0.0 0.0 0.0 0.0 0.0 -0.0491125 -0.0540984 -0.0580351 -0.0623088 -0.0659907 -0.0701485 -0.0738965 -0.0775057 -0.0816989 -0.0863238 -0.0899226 -0.0942531 -0.097369 -0.101688 -0.106205 -0.109674 -0.113358 -0.117832 -0.121323 -0.126273 -0.129554 -0.133461 -0.138012 -0.141586 -0.146093 -0.149656 -0.153438 -0.15751 -0.161541 -0.166302 -0.170207 -0.17292 -0.177795 -0.18283 -0.186294 -0.190865 -0.194739 -0.198922 -0.203054 -0.206102 -0.211547 -0.216051 -0.219691 -0.224645 -0.228151 -0.232582 -0.238283 -0.240909 -0.246687 -0.249435 -0.254665 -0.259061 -0.263475 -0.268736 -0.271096 -0.278369 -0.281668 -0.28689 -0.291348 -0.295187 -0.30152 -0.303989 -0.308795 -0.314692 -0.31908 -0.324378 -0.328507 -0.334483 -0.339377 -0.343984 -0.349356 -0.354228 -0.360767 -0.363938 -0.370459
0.698587 0.684668 0.671365 0.663928 0.641113 0.545076 0.439009 0.399939 0.384679 0.378716 0.373492 0.362294 0.345766 0.332263 0.322511 0.315613 0.309711 0.304405 0.296303 0.291378 0.286225 0.279841 0.275446 0.270574 0.264767 0.258941 0.255046 0.250156 0.241093 0.247853 0.218216 0.242521 0.229266 0.223413 0.219986 0.215484 0.211263 0.209398 0.206206 0.200185 0.196747 0.191831 0.187694 0.181559 0.178298 0.173676 0.169499 0.164624 0.161176 0.156548 0.15022 0.0 0.0 0.0 0.0 0.0 0.0 0.0 0.0 0.0 0.0 0.0 0.0 0.0 0.0 0.0 0.0 0.0 0.0 0.0 0.0 0.0 0.0 0.0 0.0 0.0 0.0 0.0 0.0 0.0 0.0 0.0 0.0 0.0 0.0 0.0 0.0 0.0 0.0 0.0 0.0 0.0 0.0 0.0 0.0 0.0 0.0 -0.0337355 -0.0386055 -0.0424029 -0.0464872 -0.0506364 -0.0541274 -0.0581573 -0.0623034 -0.0657371 -0.0701865 -0.074006 -0.0778401 -0.0819226 -0.0854598 -0.0896077 -0.0939247 -0.0973927 -0.102062 0.0 0.0 -0.113918 -0.116909 -0.121354 -0.126149 -0.128417 -0.133288 -0.137234 -0.140653 -0.145634 -0.148718 -0.153529 -0.157752 -0.161184 -0.165731 -0.16978 -0.173296 -0.178181 -0.181865 -0.185075 -0.190094 -0.194316 -0.198552 -0.203245 -0.205976 -0.21096 -0.215118 -0.219287 -0.224443 -0.227591 -0.232085 -0.235867 -0.239422 -0.245709 -0.250454 -0.254127 -0.258194 -0.261616 -0.268836 -0.271282 -0.276849 -0.281427 -0.284087 -0.290743 -0.295575 -0.299235 -0.30364 -0.309394 -0.314818 -0.316464 -0.323913 -0.326725 -0.334824 -0.337546 -0.342023 -0.349394 -0.352971 -0.359166 -0.363979 -0.368816
0.694782 0.679894 0.67088 0.66312 0.648112 0.634916 0.579586 0.467837 0.399208 0.381204 0.372653 0.362348 0.366653 0.344246 0.327539 0.317412 0.309655 0.303989 0.298194 0.291495 0.285394 0.279782 0.275803 0.270106 0.264063 0.260464 0.254208 0.249714 0.241107 0.247427 0.218585 0.241184 0.22774 0.222463 0.217438 0.213711 0.209718 0.205157 0.201803 0.200981 0.195978 0.191893 0.187184 0.182118 0.178408 0.172665 0.169811 0.164471 0.160731 0.155969 0.150264 0.134703 0.0 0.0 0.0 0.0 0.0 0.0 0.0 0.0 0.0 0.0 0.0 0.0 0.0 0.0 0.0 0.0 0.0 0.0 0.0 0.0 0.0 0.0 0.0 0.0 0.0 0.0 0.0 0.0 0.0 0.0 0.0 0.0 0.0 0.0 0.0 0.0 0.0 0.0 0.0 0.0 -0.0142007 -0.0188838 -0.0227316 -0.0265946 -0.0307212 -0.0344607 -0.0385176 -0.0422129 0.0 -0.0504117 -0.0539702 -0.0580618 -0.062085 -0.0659802 -0.0702034 -0.0739084 -0.0777374 -0.0818917 -0.0854811 -0.0895741 -0.0932753 0.0 -0.10139 -0.105105 -0.109354 -0.113948 0.0 -0.120894 -0.125361 -0.128694 -0.133117 -0.13723 -0.140958 -0.145586 -0.148761 -0.152808 -0.156766 0.0 -0.164851 -0.169303 -0.1727 -0.17735 -0.180618 -0.185309 -0.190275 -0.192623 -0.197752 -0.202682 -0.205273 -0.210375 -0.213584 -0.217724 -0.224035 -0.226041 -0.231952 -0.235953 -0.238911 -0.2442 -0.247447 -0.25304 -0.258212 -0.261717 -0.266039 -0.270715 -0.275674 -0.279975 -0.283406 -0.290054 -0.292599 -0.298896 -0.303953 -0.306189 -0.314563 -0.317186 -0.323652 -0.326864 -0.332921 -0.338314 -0.34154 -0.346773 -0.349882 -0.357679 -0.362474 -0.367741
0.693844 0.679754 0.663058 0.657599 0.648082 0.635738 0.626911 0.597835 0.506649 0.408297 0.378307 0.364279 0.35285 0.352136 0.347078 0.326918 0.312986 0.305828 0.298054 0.292402 0.286371 0.280827 0.274834 0.269233 0.264008 0.259934 0.253686 0.249276 0.240524 0.250919 0.218668 0.241275 0.227825 0.220487 0.216441 0.211874 0.20824 0.204278 0.200569 0.196486 0.192292 0.191025 0.186791 0.182402 0.178521 0.1732 0.16919 0.164421 0.160781 0.155632 0.15031 0.143647 0.0 0.0 0.0 0.0 0.0 0.0 0.0 0.0 0.0 0.0 0.0 0.0 0.0 0.0 0.0 0.0 0.0 0.0 0.0 0.0 0.0 0.0 0.0 0.0 0.0 0.0 0.0 0.0 0.0 0.0 0.0 0.0 0.0 0.0 0.0 0.0 0.000373212 -0.0034568 -0.00744397 -0.0112204 -0.0150901 -0.0189542 -0.0227371 -0.0268117 -0.0306997 -0.0346973 -0.0385028 -0.0424364 0.0 -0.0503769 -0.0538137 0.0 -0.0616922 0.0 -0.0701993 0.0 -0.077587 -0.081785 -0.0849136 -0.0894015 -0.0933294 -0.0966505 -0.100973 -0.104606 -0.109076 -0.113377 -0.116423 -0.120928 -0.124536 0.0 0.0 -0.136327 -0.139676 -0.144858 0.0 -0.152808 -0.156324 0.0 -0.164387 -0.168935 -0.171997 -0.17641 -0.180792 -0.184385 -0.18945 -0.192084 -0.197141 -0.201238 -0.205346 -0.210319 -0.213595 -0.216916 -0.222029 -0.22641 -0.230594 -0.235822 -0.239078 -0.244524 -0.247467 -0.253141 -0.257433 -0.259784 -0.265153 -0.268972 -0.273991 -0.279395 -0.281935 -0.288831 -0.292269 -0.296435 -0.302019 -0.30537 -0.311123 -0.31556 -0.321009 -0.327009 -0.329692 -0.336494 -0.339168 -0.346397 -0.351122 -0.356199 -0.36375 -0.365096
0.688915 0.676467 0.663151 0.653953 0.644918 0.636146 0.624567 0.615505 0.605572 0.544278 0.436786 0.379111 0.359317 0.347803 0.342336 0.344049 0.327936 0.310735 0.300934 0.294013 0.287956 0.280356 0.275201 0.270411 0.265407 0.258459 0.254413 0.249072 0.240997 0.249911 0.223761 0.240372 0.226794 0.220709 0.21585 0.212284 0.207087 0.203402 0.198964 0.195766 0.192182 0.187536 0.182921 0.18174 0.178201 0.172727 0.168831 0.164223 0.160241 0.154815 0.151016 0.144607 0.0 0.0 0.0 0.0 0.0 0.0 0.0 0.0 0.0 0.0 0.0 0.0 0.0 0.0 0.0 0.0 0.0 0.0 0.0 0.0 0.0 0.0 0.0 0.0 0.0 0.0 0.0 0.0 0.0 0.0 0.0 0.0 0.0155274 0.0119405 0.00812188 0.00427441 0.000386254 -0.00347086 -0.00735996 0.0 -0.015213 -0.0190427 0.0 -0.0268606 0.0 -0.0346192 -0.0383553 0.0 -0.0462741 -0.0502164 -0.0538957 -0.0579093 -0.0615724 -0.0657869 -0.0698896 -0.0733458 -0.0773401 -0.0810909 -0.0851247 -0.0893983 -0.0927699 0.0 -0.101193 0.0 -0.108971 -0.113056 -0.11631 -0.120433 -0.124573 -0.12776 -0.132489 -0.135725 -0.140338 -0.144495 -0.148294 -0.151947 -0.155981 -0.159673 -0.165011 -0.168144 -0.171568 -0.176304 -0.179322 -0.18445 -0.18845 -0.191668 -0.197213 -0.20068 -0.204842 -0.209609 -0.212335 -0.216794 -0.221906 -0.226002 -0.228734 -0.234224 -0.237976 -0.243175 -0.246172 -0.251273 -0.256016 -0.258996 -0.265266 -0.268919 -0.273681 -0.277777 -0.28144 -0.287522 -0.292034 -0.293884 -0.301028 -0.304269 -0.310975 -0.315116 -0.319067 -0.325141 -0.32831 -0.334367 -0.338591 -0.345066 -0.349666 -0.353298 -0.360701 -0.365158
0.68777 0.672173 0.663926 0.653947 0.643499 0.632818 0.626141 0.615492 0.606482 0.591751 0.565249 0.481894 0.38909 0.355045 0.34278 0.336225 0.330009 0.327364 0.307458 0.295894 0.288086 0.280312 0.275989 0.270367 0.26504 0.259997 0.254601 0.25002 0.239444 0.250607 0.223346 0.241825 0.228006 0.22018 0.215869 0.211311 0.207039 0.202783 0.198729 0.194866 0.190585 0.186555 0.182475 0.178738 0.175376 0.173747 0.168786 0.164128 0.159504 0.155205 0.151301 0.144472 0.131892 0.0 0.0 0.0 0.0 0.0 0.0 0.0 0.0 0.0 0.0 0.0 0.0 0.0 0.0 0.0 0.0 0.0 0.0 0.0 0.0 0.0 0.0 0.0 0.0 0.0 0.0 0.0 0.0308304 0.0273518 0.0234308 0.0195574 0.0158622 0.0119437 0.00811632 0.00426747 0.000386355 -0.00350586 -0.00740368 0.0 0.0 0.0 0.0 -0.0268171 -0.0307156 -0.0345958 -0.0385109 0.0 0.0 -0.0498515 0.0 0.0 0.0 -0.065433 -0.0692957 -0.0730195 -0.0773621 0.0 -0.0842372 0.0 -0.0931194 -0.0964622 -0.101255 0.0 -0.108593 -0.112523 0.0 -0.120471 -0.123986 -0.127882 -0.131865 0.0 -0.139766 -0.144316 -0.146944 -0.151711 -0.156133 -0.158971 -0.164189 -0.167621 -0.171304 -0.175813 -0.178649 -0.184054 -0.187452 -0.192104 -0.195925 -0.200252 -0.204277 -0.208508 -0.211614 -0.216608 -0.220602 -0.223538 -0.22919 -0.233585 -0.236502 -0.242058 -0.245579 -0.250671 -0.255084 -0.258212 -0.263724 -0.268871 -0.27149 -0.277119 -0.280419 -0.286307 -0.290711 -0.294206 -0.299478 -0.304222 -0.308801 -0.314678 -0.317826 -0.325198 -0.327445 -0.331933 -0.339073 -0.344168 -0.349838 -0.353363 -0.359435 -0.363424
0.681486 0.672068 0.658023 0.649881 0.64144 0.629713 0.620436 0.610176 0.602986 0.592454 0.58342 0.574345 0.519302 0.415987 0.355583 0.340383 0.330169 0.322654 0.318344 0.306082 0.29192 0.284845 0.277866 0.270327 0.265483 0.259559 0.254793 0.249288 0.240979 0.255818 0.225984 0.24036 0.226913 0.22089 0.215554 0.211134 0.206281 0.202166 0.198 0.194578 0.189348 0.185168 0.181802 0.177745 0.0 0.170349 0.165052 0.163528 0.158919 0.155309 0.150368 0.145117 0.140072 0.0 0.0 0.0 0.0 0.0 0.0 0.0 0.0 0.0 0.0 0.0 0.0 0.0 0.0 0.0 0.0 0.0 0.0 0.0 0.0 0.0 0.0 0.0489575 0.0464279 0.0425586 0.0386338 0.0349943 0.0311559 0.0 0.0234448 0.0197187 0.0159969 0.0119962 0.0 0.00427805 0.0 0.0 -0.00740341 0.0 -0.0151068 0.0 -0.0229427 -0.026909 0.0 0.0 0.0 -0.0420574 -0.0460378 0.0 -0.0537558 -0.0579237 -0.0614127 -0.0652245 -0.0690969 -0.073018 -0.0770927 -0.0807801 -0.0850678 -0.0882728 -0.0917416 -0.0964006 -0.100428 -0.103909 -0.10808 -0.111353 -0.114732 -0.119827 0.0 -0.127116 -0.131868 -0.135215 -0.139858 -0.143821 -0.146995 -0.151669 -0.154811 -0.158726 -0.163577 -0.166994 -0.171585 -0.175824 -0.178945 -0.183021 -0.187466 -0.191149 -0.195632 -0.199827 -0.203134 -0.208527 -0.211299 -0.215877 -0.220556 -0.223633 -0.228855 -0.233392 -0.236081 -0.242394 -0.24468 -0.249599 -0.254879 -0.258085 -0.262434 -0.267393 -0.269989 -0.276205 -0.280552 -0.285367 -0.290212 -0.293886 -0.300095 -0.303418 -0.306823 -0.313361 -0.315693 -0.322935 -0.327303 -0.331685 -0.33777 -0.340711 -0.347743 -0.351349 -0.356839 -0.364626
0.682539 0.66587 0.655474 0.647695 0.639717 0.626081 0.620658 0.607473 0.598571 0.59033 0.578324 0.570009 0.561345 0.536645 0.452748 0.364163 0.335919 0.326242 0.317702 0.311041 0.306089 0.290234 0.280416 0.273325 0.26569 0.260633 0.255379 0.250016 0.241089 0.258375 0.23088 0.240324 0.225822 0.220094 0.21558 0.211158 0.206369 0.20187 0.197833 0.1935 0.189306 0.184893 0.18079 0.176699 0.173055 0.168976 0.16522 0.161154 0.0 0.153148 0.149907 0.145673 0.140568 0.0 0.0 0.0 0.0 0.0 0.0 0.0 0.0 0.0 0.0 0.0 0.0 0.0 0.0 0.0 0.0 0.0 0.0666347 0.0654956 0.0617726 0.0582033 0.0541332 0.0502706 0.0467823 0.0 0.0388923 0.0 0.0 0.0277235 0.0 0.0197494 0.0 0.0 0.0 0.0 0.0 0.0 0.0 -0.0112468 0.0 -0.0189867 0.0 0.0 -0.0305593 -0.0345177 0.0 0.0 0.0 0.0 0.0 0.0 -0.0612562 -0.06541 0.0 0.0 -0.0771168 -0.0803445 -0.0847995 -0.0882167 -0.0916539 -0.0961875 0.0 0.0 0.0 -0.111248 0.0 -0.119185 -0.122932 -0.127646 -0.131122 -0.134446 -0.139245 -0.143145 -0.146208 -0.151821 -0.154623 0.0 -0.163639 -0.16621 -0.170566 -0.17556 -0.178391 0.0 -0.186591 -0.190621 -0.195155 -0.199152 0.0 -0.207958 -0.211323 -0.215698 -0.219606 -0.222809 -0.227872 -0.231729 -0.235588 -0.240291 -0.243317 -0.249242 -0.253874 -0.25641 -0.262809 -0.264905 -0.270721 -0.275818 -0.278832 -0.283711 -0.289354 -0.291533 -0.298272 -0.303287 -0.306884 -0.311557 -0.315657 -0.321384 -0.325936 -0.33082 -0.337948 -0.340785 -0.346844 -0.350328 -0.356251 -0.362341
0.677073 0.667711 0.657177 0.646841 0.633439 0.625997 0.617401 0.607596 0.598382 0.586895 0.578435 0.569526 0.562519 0.553311 0.540582 0.490083 0.388492 0.335252 0.321864 0.311375 0.306158 0.305039 0.291645 0.27707 0.268886 0.261553 0.255035 0.249217 0.242183 0.272262 0.234332 0.240507 0.225856 0.219575 0.215273 0.210657 0.206071 0.201704 0.197234 0.192485 0.189147 0.184095 0.180637 0.176046 0.171925 0.168458 0.164193 0.160405 0.157258 0.0 0.0 0.0 0.139775 0.130783 0.0 0.0 0.0 0.0 0.0 0.0 0.0 0.0 0.0 0.0 0.0 0.0 0.0844142 0.0810404 0.077699 0.0732555 0.0699158 0.0 0.0621275 0.0584806 0.054461 0.0506873 0.0 0.0 0.0 0.0 0.0 0.0 0.0 0.0 0.0 0.0 0.0 0.0 0.0 0.0 0.0 0.0 0.0 -0.0188307 0.0 0.0 0.0 0.0 -0.0382179 0.0 0.0 -0.0495646 -0.0534146 0.0 0.0 0.0 0.0 -0.0726475 0.0 0.0 -0.0847739 -0.0880777 -0.0919487 -0.0961897 -0.0997009 -0.103583 0.0 -0.110861 -0.11415 0.0 -0.121878 -0.126883 -0.130794 -0.133981 -0.139298 -0.14179 -0.146545 -0.150536 0.0 -0.158798 0.0 -0.166118 -0.170201 -0.174409 0.0 -0.181718 -0.186374 -0.189852 -0.19462 -0.197973 -0.202147 -0.207326 -0.209537 -0.21559 -0.219707 -0.223054 -0.227906 -0.231248 -0.2354 -0.240101 -0.243746 -0.248019 -0.253275 -0.254984 -0.261694 -0.264869 -0.268712 -0.275436 -0.278533 -0.283048 -0.287221 -0.2915 -0.296641 -0.301155 -0.305497 -0.311232 -0.314431 -0.320445 -0.324881 -0.330272 -0.335707 -0.338191 -0.347252 -0.348874 -0.355557 -0.362542
0.677348 0.664812 0.650516 0.642912 0.634779 0.621095 0.61447 0.602719 0.596351 0.583975 0.574054 0.565501 0.556897 0.549206 0.541161 0.532779 0.510234 0.429671 0.344524 0.319066 0.306233 0.300196 0.295384 0.291902 0.278063 0.266448 0.257114 0.250491 0.242906 0.271284 0.244117 0.240909 0.226525 0.21961 0.215441 0.210225 0.206555 0.201478 0.196887 0.192327 0.188216 0.184175 0.18083 0.17506 0.171343 0.167409 0.163636 0.0 0.156183 0.0 0.0 0.0 0.138896 0.13278 0.0 0.0 0.0 0.0 0.0 0.0 0.0 0.103032 0.101058 0.0978035 0.0928447 0.0894779 0.0845248 0.0 0.0 0.0 0.0703387 0.0 0.0 0.0 0.0 0.0 0.0 0.0 0.0 0.0 0.0 0.0 0.0 0.0 0.0 0.0 0.0 0.0 0.0 0.0 0.0 0.0 0.0 0.0 0.0 0.0 0.0 0.0 0.0 0.0 0.0 0.0 0.0 0.0 0.0 0.0 -0.0689445 -0.072649 0.0 0.0 0.0 0.0 0.0 -0.095857 0.0 0.0 -0.107473 -0.110298 -0.114486 -0.119082 -0.121492 -0.126931 0.0 -0.134463 -0.138467 -0.142346 -0.146276 -0.14978 -0.153515 0.0 -0.16227 -0.164648 -0.170219 -0.173594 -0.177404 -0.181914 0.0 -0.190787 -0.194832 -0.19705 -0.202886 -0.204983 -0.209837 -0.215692 -0.218904 -0.221667 -0.227219 -0.230697 -0.23484 -0.239762 -0.242624 -0.247908 -0.252841 -0.255197 -0.260915 -0.264332 -0.268854 -0.273226 -0.277352 -0.28176 -0.287285 -0.290545 -0.294261 -0.30046 -0.303629 -0.310323 -0.313009 -0.31779 -0.32568 -0.327335 -0.335052 -0.338277 -0.344305 -0.349073 -0.352753 -0.358799
0.673964 0.659543 0.651013 0.641748 0.632324 0.619635 0.613242 0.600565 0.593401 0.584416 0.573184 0.565332 0.557703 0.54856 0.537594 0.53131 0.519415 0.510925 0.464866 0.37309 0.317691 0.302564 0.296043 0.289184 0.286448 0.279691 0.265758 0.254151 0.244916 0.277126 0.248315 0.241172 0.226637 0.220268 0.215546 0.21132 0.205875 0.200937 0.197229 0.193027 0.187765 0.184259 0.179996 0.175697 0.171255 0.165722 0.162509 0.0 0.155159 0.150919 0.0 0.142962 0.0 0.132834 0.0 0.0 0.0 0.120215 0.117527 0.113509 0.10881 0.105236 0.100262 0.0970692 0.0925237 0.0895956 0.0850978 0.0 0.0 0.0 0.0 0.0 0.0 0.0 0.0 0.0 0.0 0.0 0.0 0.0 0.0 0.0 0.0 0.0 0.0 0.0 0.0 0.0 0.0 0.0 0.0 0.0 -0.0150015 0.0 -0.0227114 0.0 -0.030318 0.0 -0.0378796 0.0 0.0 -0.0495979 0.0 0.0 0.0 0.0 -0.0686176 0.0 0.0 0.0 -0.0841622 0.0 -0.0915453 0.0 -0.0994557 0.0 0.0 -0.110624 -0.114751 0.0 -0.122443 -0.126657 -0.129268 -0.133657 -0.138657 -0.141267 -0.145261 -0.149603 0.0 -0.157314 -0.161252 -0.165145 0.0 -0.173059 -0.177313 -0.181356 -0.184043 -0.189964 -0.19424 -0.196573 -0.20169 -0.205148 -0.209266 -0.213536 -0.217685 -0.220283 -0.225449 -0.229412 -0.233683 -0.239274 -0.24205 -0.246851 -0.251285 -0.254597 -0.260556 -0.263629 -0.268141 -0.273114 -0.276619 -0.281917 -0.285983 -0.288759 -0.295935 -0.300536 -0.302833 -0.309024 -0.313689 -0.317468 -0.322891 -0.327422 -0.332503 -0.337726 -0.34212 -0.34774 -0.351067 -0.359012
0.674263 0.659721 0.647273 0.637947 0.630858 0.622375 0.611176 0.6003 0.589532 0.581412 0.573426 0.562902 0.554333 0.543606 0.536868 0.527334 0.519258 0.511671 0.50304 0.485617 0.415836 0.33159 0.300718 0.291069 0.282888 0.275791 0.276837 0.268184 0.253948 0.278162 0.255942 0.241511 0.225561 0.220105 0.215114 0.211094 0.206821 0.201291 0.196514 0.192448 0.187795 0.18382 0.179623 0.175331 0.170623 0.167185 0.163208 0.158425 0.154583 0.149922 0.146435 0.142932 0.138744 0.133842 0.130096 0.125982 0.12248 0.118311 0.114833 0.112516 0.108611 0.104777 0.100301 0.0974151 0.0 0.0892043 0.0847501 0.0 0.0770425 0.0739192 0.0 0.0 0.0 0.0 0.0547937 0.0 0.0 0.0 0.0 0.0 0.0 0.0 0.0 0.0 0.0 0.0118294 0.0 0.0 0.0 0.0 -0.00731516 0.0 0.0 0.0 0.0 0.0 0.0 0.0 -0.0378687 -0.0413915 0.0 0.0 0.0 0.0 0.0 -0.0645672 -0.0688404 -0.0726552 0.0 -0.0800728 0.0 0.0 -0.0916684 0.0 -0.0986032 0.0 -0.106836 -0.110313 -0.114356 0.0 0.0 -0.125453 -0.129823 -0.13367 0.0 0.0 -0.14523 -0.149091 -0.152217 -0.156979 -0.160132 -0.164795 -0.16923 -0.172638 0.0 -0.181267 -0.18425 -0.189265 -0.192596 -0.196669 -0.201919 -0.204987 -0.208228 -0.213164 -0.216329 -0.220967 -0.226727 -0.229311 -0.233883 -0.237872 -0.24078 -0.246668 -0.250053 -0.253673 -0.259119 -0.263692 -0.267862 -0.272134 -0.275269 -0.280728 -0.285508 -0.287906 -0.294223 -0.298608 -0.302332 -0.308715 -0.310978 -0.316847 -0.32216 -0.325431 -0.331753 -0.335681 -0.340482 -0.347071 -0.351282 -0.357649
0.66883 0.654128 0.644884 0.632164 0.627659 0.616961 0.606999 0.597014 0.590105 0.580755 0.568264 0.562952 0.554672 0.546721 0.534828 0.527932 0.519109 0.511523 0.503249 0.493266 0.483211 0.450076 0.364144 0.303812 0.286768 0.278491 0.271052 0.263262 0.272431 0.286694 0.255717 0.242714 0.226874 0.220084 0.21543 0.210541 0.205758 0.202157 0.19705 0.1923 0.18705 0.183266 0.179424 0.174856 0.171197 0.166783 0.162659 0.158702 0.15391 0.0 0.0 0.142033 0.137692 0.134334 0.0 0.126689 0.0 0.11905 0.0 0.0 0.107688 0.10382 0.10031 0.0970224 0.0922409 0.088814 0.0843764 0.0 0.0766777 0.0731977 0.069417 0.0656105 0.0619395 0.0 0.0 0.0 0.0 0.0 0.0 0.0348742 0.0 0.0 0.0 0.0 0.0 0.0 0.0 0.0 0.0 0.0 0.0 0.0 0.0 0.0 0.0 0.0 0.0 0.0 0.0 0.0 0.0 -0.0493337 0.0 0.0 0.0 0.0 -0.0686691 -0.0720802 0.0 0.0 0.0 0.0 0.0 0.0 0.0 0.0 0.0 0.0 -0.114404 0.0 -0.122152 0.0 0.0 -0.133771 0.0 -0.140798 -0.144921 -0.14863 -0.152139 -0.156545 -0.159844 -0.164501 -0.168494 0.0 -0.176286 -0.180191 -0.184043 -0.188021 -0.19201 -0.196705 -0.200729 -0.204103 -0.208 -0.212659 -0.217213 -0.220088 -0.2246 -0.227589 -0.233485 -0.237774 -0.240602 -0.246173 -0.249954 -0.253162 -0.257853 -0.261898 -0.26647 -0.271507 -0.274455 -0.279903 -0.284397 -0.288079 -0.292514 -0.297927 -0.302905 -0.306736 -0.30977 -0.313494 -0.319891 -0.324591 -0.32974 -0.336321 -0.338631 -0.344647 -0.349829 -0.356858
0.663403 0.654554 0.643288 0.633128 0.624141 0.614671 0.607391 0.597608 0.585323 0.578378 0.567121 0.559846 0.551415 0.542741 0.536015 0.52798 0.514837 0.509576 0.498122 0.491636 0.481085 0.476177 0.463018 0.408613 0.322369 0.284778 0.272695 0.266872 0.261408 0.27862 0.266062 0.247213 0.229457 0.221307 0.216764 0.211516 0.205867 0.202328 0.197528 0.192278 0.187565 0.183535 0.1794 0.0 0.170844 0.166277 0.162216 0.157761 0.154033 0.149723 0.146146 0.141778 0.0 0.133529 0.0 0.0 0.12235 0.0 0.114968 0.0 0.0 0.0 0.100031 0.0961063 0.0921014 0.0883965 0.0843567 0.0809076 0.076684 0.0733209 0.0691337 0.0653218 0.0612924 0.0578085 0.0539538 0.0501355 0.0 0.0 0.0 0.0 0.0 0.0 0.0 0.0 0.0 0.0 0.0 0.0 0.0 0.0 0.0 0.0 0.0 0.0 0.0 0.0 0.0 0.0 0.0 0.0 0.0 0.0 0.0 0.0 0.0 0.0 -0.0680814 0.0 0.0 -0.0799826 0.0 0.0 0.0 0.0 -0.0988758 -0.1019 0.0 -0.110193 0.0 -0.117642 -0.122206 0.0 -0.128767 -0.133401 -0.137067 0.0 -0.145223 0.0 -0.152557 -0.156671 -0.159402 -0.163784 -0.168359 -0.17108 -0.175747 -0.179699 -0.183482 -0.188119 -0.19124 -0.193573 -0.200188 -0.203287 -0.207439 -0.211814 -0.215373 -0.220709 -0.224726 -0.227569 -0.232789 -0.236531 -0.239261 -0.244493 -0.249536 -0.252 -0.257923 -0.260954 -0.265512 -0.270448 -0.273468 -0.279443 -0.283932 -0.287328 -0.292602 -0.296199 -0.299597 -0.305747 -0.309567 -0.314607 -0.320096 -0.324382 -0.328894 -0.333749 -0.337437 -0.343107 -0.349051 -0.354374
0.663964 0.647045 0.641478 0.630013 0.623904 0.61282 0.602379 0.592349 0.584987 0.574482 0.568799 0.558035 0.546896 0.539151 0.532287 0.522906 0.514706 0.509447 0.500665 0.489838 0.482162 0.471371 0.463888 0.456185 0.435239 0.359451 0.289056 0.27003 0.263905 0.282346 0.267019 0.255517 0.24034 0.22619 0.218847 0.211766 0.206696 0.201801 0.197697 0.191892 0.187665 0.183632 0.178978 0.175146 0.171096 0.166843 0.162872 0.0 0.154159 0.14999 0.14617 0.141663 0.0 0.133765 0.129347 0.125579 0.122129 0.0 0.114724 0.0 0.0 0.0 0.099561 0.0951601 0.0921413 0.0878664 0.0844198 0.0802418 0.076815 0.0731639 0.0687847 0.0 0.0 0.0576839 0.0535951 0.0497862 0.0 0.0 0.0 0.0 0.0 0.0 0.0 0.0 0.0 0.0 0.0 0.0 0.0 0.0 0.0 0.0 0.0 0.0 0.0 0.0 0.0 0.0 0.0 0.0 0.0 0.0 0.0 0.0 0.0 0.0 0.0 0.0 0.0 0.0 0.0 0.0 0.0 0.0 0.0 -0.101945 -0.106114 0.0 0.0 0.0 -0.121279 0.0 0.0 0.0 0.0 0.0 -0.144262 0.0 -0.152089 -0.155989 -0.158963 -0.163441 -0.167247 -0.170276 -0.17504 -0.179736 -0.182745 -0.187245 -0.190783 -0.194695 -0.199326 -0.202475 -0.207353 -0.211658 -0.214376 -0.219695 -0.223693 -0.226518 -0.231345 -0.235292 -0.239248 -0.244957 -0.248638 -0.25199 -0.256914 -0.260353 -0.265075 -0.269917 -0.272752 -0.277635 -0.284205 -0.286396 -0.291752 -0.296294 -0.299597 -0.305355 -0.30957 -0.313494 -0.319484 -0.322926 -0.328372 -0.33279 -0.338098 -0.343116 -0.349285 -0.353026
0.666149 0.648514 0.63979 0.627569 0.61669 0.608609 0.601623 0.592439 0.582905 0.574464 0.565868 0.558609 0.549703 0.538934 0.529039 0.522878 0.514033 0.50371 0.494389 0.490067 0.478755 0.468184 0.463094 0.45639 0.445474 0.437328 0.397834 0.312137 0.27193 0.280214 0.27214 0.255884 0.236966 0.239432 0.227435 0.215075 0.208636 0.202616 0.198495 0.1931 0.188068 0.183556 0.179476 0.174679 0.17042 0.165915 0.0 0.157769 0.0 0.149872 0.0 0.0 0.137353 0.0 0.129031 0.125599 0.0 0.117948 0.0 0.0 0.0 0.0 0.0 0.0 0.0 0.0879057 0.0841312 0.0799659 0.0765028 0.0 0.0687699 0.0649358 0.0611461 0.0574304 0.0 0.0496464 0.0 0.0 0.0 0.0 0.0 0.0 0.0 0.0 0.0 0.0 0.0 0.0 0.0 0.0 0.0 0.0 0.0 0.0 0.0 0.0 0.0 0.0 0.0 0.0 0.0 0.0 0.0 0.0 0.0 0.0 -0.0680511 0.0 0.0 0.0 0.0 0.0 0.0 0.0 0.0 0.0 -0.106232 -0.11008 0.0 0.0 0.0 0.0 0.0 0.0 0.0 -0.140225 0.0 0.0 0.0 -0.155259 -0.159513 -0.162835 -0.167281 0.0 -0.174564 -0.179192 -0.182667 -0.18674 -0.190455 -0.194487 -0.198403 -0.201864 -0.20599 -0.210545 -0.214502 -0.218112 -0.221937 -0.226655 -0.231862 -0.235436 -0.238693 0.0 -0.24726 -0.251328 -0.257327 -0.258229 -0.264211 -0.269304 -0.27204 -0.277455 -0.28054 -0.285281 -0.29015 -0.295533 -0.297948 -0.303783 -0.308276 -0.313402 -0.316918 -0.32137 -0.327537 -0.331944 -0.335499 -0.343021 -0.347289 -0.349416
0.660977 0.644881 0.635418 0.626796 0.618109 0.608499 0.600664 0.58845 0.579073 0.571806 0.563144 0.555032 0.547933 0.539304 0.529021 0.519403 0.511712 0.502509 0.493739 0.486879 0.478467 0.47028 0.459042 0.453308 0.445843 0.438485 0.430132 0.41714 0.380381 0.282544 0.274279 0.257976 0.241051 0.233156 0.228113 0.230545 0.21527 0.205606 0.199173 0.192231 0.187875 0.18366 0.180093 0.175393 0.171062 0.166005 0.162261 0.157802 0.153923 0.149079 0.146084 0.141394 0.0 0.0 0.0 0.125662 0.121812 0.0 0.0 0.0 0.0 0.102405 0.0 0.0 0.0 0.0 0.0 0.07925 0.0760433 0.0722193 0.0688676 0.0643976 0.0609953 0.0570107 0.0534163 0.0495878 0.0458105 0.0 0.0 0.0 0.0307713 0.0 0.0 0.0 0.0 0.0 0.0 0.0 0.0 0.0 0.0 0.0 0.0 0.0 0.0 0.0 0.0 0.0 0.0 0.0 0.0 0.0 0.0 0.0 0.0 0.0 0.0 0.0 0.0 0.0 0.0 0.0 0.0 -0.0942684 0.0 0.0 -0.105939 0.0 0.0 0.0 0.0 -0.125582 0.0 0.0 0.0 0.0 -0.143941 0.0 0.0 0.0 0.0 0.0 -0.166446 -0.170629 -0.174491 -0.1783 0.0 -0.186725 0.0 -0.1946 -0.198001 0.0 -0.205101 -0.210259 0.0 -0.218531 -0.222656 -0.225759 -0.230273 -0.23405 -0.238064 -0.242248 -0.246612 -0.249438 -0.255408 -0.258399 -0.262575 -0.268519 -0.271332 -0.277552 -0.280454 -0.284451 -0.289686 -0.293336 -0.298251 -0.303697 -0.306285 -0.311485 -0.316212 -0.320968 -0.326071 -0.330889 -0.334973 -0.340393 -0.344961 -0.350231
0.658 0.644896 0.634533 0.626476 0.618339 0.605273 0.595566 0.588665 0.580421 0.569971 0.562541 0.551857 0.544119 0.537277 0.52816 0.521077 0.508753 0.500045 0.493991 0.484047 0.47637 0.468725 0.45843 0.45188 0.445005 0.434867 0.427671 0.422498 0.415306 0.291577 0.278545 0.262945 0.243385 0.235581 0.229271 0.223709 0.221982 0.21882 0.205172 0.195102 0.189185 0.185352 0.179681 0.175213 0.170227 0.167009 0.162352 0.157941 0.153609 0.149645 0.145266 0.0 0.137452 0.0 0.0 0.125686 0.121875 0.11726 0.0 0.110098 0.0 0.0 0.0 0.0 0.0 0.0 0.0 0.0 0.0 0.0 0.0684547 0.0646587 0.0 0.05674 0.0534061 0.0492242 0.0455192 0.0417652 0.0381094 0.0342429 0.0 0.0 0.0 0.0 0.0 0.0 0.0 0.0 0.0 0.0 0.0 0.0 0.0 0.0 0.0 0.0 0.0 0.0 0.0 0.0 0.0 0.0 0.0 0.0 0.0 0.0 0.0 0.0 0.0 0.0 0.0 0.0 0.0 -0.0943144 0.0 0.0 0.0 0.0 0.0 0.0 0.0 0.0 0.0 0.0 0.0 0.0 -0.143643 -0.14708 0.0 0.0 -0.159168 -0.163495 0.0 0.0 -0.174363 -0.178521 -0.181744 -0.185067 -0.18962 -0.193382 0.0 0.0 -0.20516 -0.209151 -0.213154 -0.217955 -0.221342 -0.226275 -0.230045 -0.233665 -0.23783 -0.242091 -0.246857 -0.250262 -0.25441 -0.258489 -0.26284 -0.266687 -0.270451 -0.276568 -0.278721 -0.283811 -0.288849 -0.293063 -0.297683 -0.302232 -0.306404 -0.310793 -0.315924 -0.31942 -0.325988 -0.330591 -0.333036 -0.340419 -0.345212 -0.349692
0.654454 0.643215 0.633434 0.620512 0.613439 0.6054 0.596009 0.586056 0.57909 0.568247 0.560539 0.553155 0.541288 0.533908 0.524268 0.516305 0.509671 0.500312 0.492107 0.481485 0.474106 0.467007 0.458077 0.448974 0.440928 0.434286 0.430392 0.419929 0.410734 0.293036 0.285527 0.297137 0.273202 0.23995 0.232401 0.225114 0.219644 0.213462 0.215063 0.20509 0.19356 0.185581 0.181051 0.175654 0.171644 0.16641 0.161975 0.158286 0.153597 0.149536 0.145725 0.141365 0.136858 0.133 0.0 0.0 0.0 0.117284 0.0 0.109509 0.0 0.0 0.0 0.0 0.0 0.0 0.0 0.0 0.0 0.0 0.0 0.0 0.0604985 0.0567114 0.0532236 0.0491509 0.0456596 0.0414711 0.0380155 0.0339794 0.0 0.0265848 0.0 0.0 0.0 0.0117188 0.0 0.0 0.0 0.0 0.0 0.0 0.0 0.0 0.0 0.0 0.0 0.0 0.0 0.0 0.0 0.0 0.0 0.0 0.0 0.0 0.0 0.0 0.0 0.0 0.0 0.0 0.0 0.0 -0.0973858 0.0 0.0 0.0 0.0 0.0 0.0 0.0 0.0 0.0 0.0 0.0 0.0 -0.146969 0.0 0.0 0.0 0.0 0.0 0.0 0.0 0.0 -0.181854 -0.184448 -0.189051 -0.192994 -0.196557 -0.201374 -0.205223 -0.208321 0.0 -0.217311 0.0 -0.224867 -0.229897 -0.232516 -0.237443 -0.241222 -0.24379 -0.249448 -0.253082 -0.25697 -0.262421 -0.266437 -0.270108 -0.27568 -0.279656 -0.283082 -0.289058 -0.291738 -0.296437 -0.302255 -0.304219 -0.31092 -0.315331 -0.3184 -0.324531 -0.328576 -0.333939 -0.338904 -0.344574 -0.348023
0.655303 0.641885 0.632008 0.621875 0.610733 0.602622 0.594332 0.586502 0.57756 0.566736 0.559652 0.547612 0.538464 0.530448 0.525039 0.515002 0.508018 0.499953 0.489246 0.48025 0.472889 0.465636 0.458153 0.448633 0.441239 0.431956 0.42504 0.417751 0.409349 0.294577 0.286525 0.335833 0.378987 0.317033 0.25298 0.22972 0.221418 0.214878 0.209313 0.202337 0.205269 0.1921 0.182772 0.175818 0.171858 0.166349 0.162491 0.158227 0.154435 0.149477 0.0 0.14163 0.137562 0.13364 0.0 0.0 0.0 0.117309 0.0 0.0 0.0 0.0 0.0982928 0.0 0.0 0.0 0.0 0.0 0.0 0.0 0.0 0.0 0.0 0.0 0.0 0.049175 0.0453696 0.0 0.0378478 0.0339735 0.0303366 0.0265016 0.0 0.0190023 0.0153611 0.0 0.00792147 0.0 0.0 0.0 0.0 0.0 0.0 0.0 0.0 0.0 0.0 0.0 0.0 0.0 0.0 0.0 0.0 0.0 0.0 0.0 0.0 0.0 0.0 -0.0790484 0.0 0.0 0.0 0.0 0.0 0.0 0.0 0.0 0.0 0.0 0.0 0.0 0.0 0.0 0.0 0.0 -0.142537 -0.146379 0.0 0.0 0.0 0.0 0.0 -0.170094 0.0 0.0 0.0 -0.184381 -0.188361 0.0 -0.19597 -0.200047 0.0 -0.208322 -0.212873 -0.217457 -0.21967 -0.225095 -0.229223 -0.2316 -0.236513 -0.241391 -0.244529 -0.249625 -0.254016 -0.255879 -0.26166 -0.265928 -0.268968 -0.274614 -0.278483 -0.282639 -0.287852 -0.291091 -0.293829 -0.300799 -0.305554 -0.309932 -0.315157 -0.318643 -0.322653 -0.328935 -0.330809 -0.336507 -0.343155 -0.347722
0.650618 0.635432 0.626426 0.619032 0.610445 0.6005 0.591918 0.584436 0.571994 0.565131 0.556456 0.548631 0.538389 0.529504 0.519352 0.515207 0.50388 0.494239 0.486839 0.47964 0.471592 0.464273 0.456054 0.449622 0.441804 0.432028 0.425659 0.414728 0.408197 0.299256 0.297999 0.365605 0.386867 0.372628 0.351003 0.286544 0.231554 0.217388 0.211519 0.205783 0.200056 0.194927 0.195307 0.182449 0.173888 0.167955 0.162434 0.158324 0.15398 0.149762 0.145897 0.141116 0.137195 0.133153 0.129296 0.0 0.0 0.0 0.0 0.0 0.105543 0.0 0.0 0.0 0.0903043 0.0 0.0 0.0 0.0 0.0 0.0 0.0 0.0 0.0 0.0 0.0 0.0 0.0415942 0.0 0.0 0.0302323 0.026384 0.0228311 0.0189491 0.0153587 0.0115588 0.0 0.0 0.0 0.0 0.0 0.0 -0.0147148 0.0 0.0 0.0 0.0 0.0 0.0 0.0 0.0 0.0 0.0 0.0 0.0 0.0 0.0 0.0 0.0 0.0 0.0 0.0 0.0 0.0 0.0 0.0 0.0 0.0 0.0 0.0 0.0 0.0 0.0 0.0 -0.135843 0.0 -0.142622 -0.147144 0.0 -0.154078 -0.15789 -0.161762 0.0 0.0 0.0 -0.176806 0.0 -0.184562 0.0 -0.19229 0.0 0.0 0.0 -0.207292 -0.212597 -0.216462 -0.22048 -0.223173 -0.227647 -0.232227 -0.235822 -0.240131 -0.243005 -0.248819 -0.252528 -0.255047 -0.260816 -0.264282 -0.268991 -0.27464 -0.276485 -0.282854 -0.287028 -0.289581 -0.295618 -0.300238 -0.303881 -0.308541 -0.313437 -0.316374 -0.32163 -0.32736 -0.332162 -0.338211 -0.341517 -0.346061
0.649523 0.633775 0.627607 0.618863 0.606878 0.598277 0.589831 0.57922 0.571413 0.564046 0.554376 0.549365 0.538717 0.528955 0.522235 0.511202 0.50418 0.497261 0.487483 0.479479 0.469435 0.461978 0.454549 0.447149 0.436847 0.42971 0.421571 0.417273 0.407963 0.292163 0.302535 0.368671 0.383188 0.372198 0.36117 0.353914 0.323497 0.256652 0.216931 0.206843 0.201572 0.195704 0.18997 0.188418 0.184113 0.172948 0.16411 0.159191 0.154227 0.150098 0.145656 0.141432 0.137682 0.133059 0.0 0.12511 0.120917 0.0 0.113248 0.0 0.0 0.0 0.0 0.0939489 0.0 0.0 0.0 0.0 0.0 0.0 0.0 0.0 0.0 0.0 0.0 0.0 0.0 0.0 0.0 0.0 0.030258 0.0264064 0.0 0.0189526 0.0152355 0.0115152 0.00780039 0.00410207 0.000372538 0.0 -0.00700841 0.0 0.0 0.0 0.0 0.0 0.0 0.0 0.0 0.0 0.0 0.0 0.0 0.0 0.0 0.0 0.0 0.0 0.0 0.0 0.0 0.0 0.0 0.0 0.0 0.0 0.0 0.0 0.0 0.0 -0.119482 0.0 0.0 0.0 0.0 0.0 0.0 0.0 0.0 -0.154073 0.0 0.0 0.0 -0.16936 -0.171994 0.0 -0.180711 0.0 -0.18855 0.0 -0.195975 -0.199989 0.0 0.0 -0.211693 -0.215828 0.0 0.0 -0.227434 -0.231473 -0.236074 -0.238556 0.0 -0.24678 -0.251127 -0.255071 -0.26041 -0.264397 -0.267412 -0.273401 -0.275871 -0.281111 -0.287253 -0.289809 -0.293897 -0.298195 -0.302814 -0.307256 -0.312859 -0.314738 -0.321249 -0.326652 -0.331007 -0.335934 -0.341118 -0.345771
0.645081 0.634983 0.626095 0.615146 0.605183 0.596712 0.586684 0.57822 0.569284 0.562151 0.554222 0.544933 0.535424 0.528609 0.519511 0.51011 0.499682 0.492921 0.483835 0.477297 0.467718 0.461483 0.452462 0.446501 0.437508 0.430038 0.422284 0.413026 0.407357 0.290589 0.296234 0.370382 0.38255 0.368793 0.36109 0.3537 0.346476 0.337105 0.295656 0.230525 0.20502 0.19725 0.192057 0.186575 0.179727 0.181227 0.173026 0.162467 0.155274 0.151361 0.146885 0.140969 0.137096 0.13336 0.128524 0.124777 0.120911 0.117092 0.0 0.0 0.105667 0.0 0.0 0.0 0.0 0.0866569 0.0 0.0 0.0 0.0 0.0 0.0 0.0 0.0 0.0 0.0 0.0 0.0 0.0 0.0 0.0 0.026342 0.0 0.0 0.0151882 0.0115214 0.0 0.00408531 0.0 -0.00334032 -0.00701216 0.0 -0.0144568 0.0 0.0 0.0 0.0 0.0 0.0 0.0 0.0 0.0 0.0 0.0 0.0 0.0 0.0 0.0 0.0 0.0 0.0 0.0 0.0 0.0 0.0 0.0 0.0 0.0 0.0 0.0 0.0 0.0 0.0 0.0 0.0 0.0 0.0 0.0 0.0 0.0 0.0 0.0 0.0 0.0 -0.172856 0.0 -0.180895 0.0 0.0 -0.191344 -0.195137 0.0 -0.201792 -0.206966 -0.211495 0.0 -0.219851 -0.223426 -0.227604 -0.230954 -0.235155 0.0 -0.243292 -0.246888 -0.250147 -0.25527 -0.258535 -0.263197 -0.268786 -0.271803 -0.275078 -0.281336 -0.285204 -0.288308 -0.29433 -0.297742 -0.302356 -0.307099 -0.311976 -0.315101 -0.321726 -0.326704 -0.329637 -0.335767 -0.339487 -0.343435
0.643076 0.631173 0.622787 0.612658 0.603935 0.597215 0.585467 0.574804 0.568098 0.558931 0.549024 0.541601 0.531057 0.526046 0.515267 0.507993 0.499536 0.492777 0.482792 0.475475 0.470095 0.458002 0.451476 0.444536 0.434677 0.427412 0.420015 0.412649 0.405314 0.283043 0.296973 0.373399 0.380009 0.369138 0.359928 0.351558 0.345552 0.338247 0.331918 0.316175 0.267473 0.211997 0.193862 0.186817 0.181666 0.176674 0.17094 0.172711 0.162915 0.154088 0.147455 0.141661 0.138485 0.133272 0.12924 0.124487 0.120987 0.117281 0.0 0.109106 0.0 0.101561 0.0 0.0 0.0 0.0 0.0 0.0 0.0 0.0 0.0 0.0 0.0 0.0 0.0 0.0 0.0 0.0 0.0 0.0 0.0 0.0 0.0 0.0 0.0 0.0115202 0.0 0.00408487 0.0 -0.00333995 -0.00698798 -0.0107626 0.0 -0.0181747 0.0 -0.0254949 -0.0289104 0.0 0.0 0.0 0.0 0.0 0.0 0.0 0.0 0.0 0.0 0.0 0.0 0.0 0.0 0.0 0.0 0.0 0.0 0.0 0.0 0.0 0.0 0.0 0.0 0.0 0.0 0.0 0.0 0.0 0.0 0.0 0.0 0.0 0.0 -0.159997 0.0 -0.167125 -0.171887 0.0 0.0 0.0 -0.187441 -0.190461 -0.194628 -0.198284 -0.20167 0.0 -0.210879 -0.215145 -0.219068 -0.222779 0.0 -0.23067 -0.234554 0.0 -0.242185 -0.247084 -0.249759 -0.255218 -0.258657 -0.263146 -0.267036 -0.271752 -0.274288 -0.279413 -0.284394 -0.287099 -0.294379 -0.295904 -0.300189 -0.30572 -0.310993 -0.313473 -0.319758 -0.324169 -0.3286 -0.334162 -0.338873 -0.343725
0.641195 0.62508 0.616999 0.613521 0.605006 0.596211 0.580193 0.574877 0.566712 0.557562 0.546054 0.542063 0.532689 0.523296 0.515608 0.508139 0.494029 0.490635 0.480141 0.473129 0.464043 0.458722 0.450581 0.443571 0.434947 0.425191 0.42043 0.410654 0.402667 0.275416 0.296985 0.374337 0.377826 0.36831 0.359249 0.351289 0.344437 0.337409 0.332164 0.323609 0.316527 0.296387 0.240123 0.194784 0.183778 0.177552 0.172687 0.166889 0.161379 0.165047 0.155187 0.145124 0.139206 0.133883 0.129495 0.124691 0.12031 0.0 0.112937 0.0 0.0 0.0 0.0976449 0.0931254 0.0 0.0 0.0 0.0 0.0 0.0 0.0 0.0 0.0 0.0 0.0 0.0 0.0 0.0 0.0 0.0 0.0 0.0 0.0 0.0 0.0 0.0 0.0 0.0 0.0 -0.00330418 -0.00695455 0.0 -0.0144107 -0.0181128 0.0 0.0 0.0 0.0 0.0 0.0 0.0 0.0 0.0 0.0 0.0 0.0 0.0 0.0 0.0 0.0 0.0 0.0 0.0 0.0 0.0 0.0 0.0 0.0 0.0 0.0 0.0 0.0 0.0 0.0 0.0 0.0 0.0 0.0 0.0 0.0 0.0 0.0 0.0 0.0 0.0 0.0 -0.178816 -0.182631 0.0 0.0 0.0 -0.198368 -0.202841 -0.206103 -0.209702 -0.215168 -0.218727 -0.222581 -0.225533 -0.230622 0.0 -0.23728 -0.241975 -0.246046 -0.249375 -0.253464 -0.257742 0.0 -0.266542 -0.270343 -0.274703 -0.279368 -0.283873 -0.287825 -0.291689 -0.296156 -0.297621 -0.30588 -0.309185 -0.312164 -0.318112 -0.32196 -0.327129 -0.333339 -0.338377 -0.342423
0.638278 0.625287 0.618221 0.607369 0.600917 0.591199 0.581561 0.573059 0.562314 0.555381 0.54643 0.538344 0.530792 0.52123 0.516437 0.505567 0.497327 0.487861 0.479382 0.472912 0.463652 0.455594 0.449947 0.440125 0.433024 0.427628 0.418331 0.41068 0.400861 0.270775 0.289949 0.37442 0.380604 0.367767 0.357963 0.351429 0.343917 0.337732 0.328832 0.322129 0.315258 0.308524 0.299843 0.274399 0.216153 0.182902 0.174125 0.168188 0.162843 0.15815 0.15335 0.156626 0.145856 0.136375 0.129583 0.125721 0.121387 0.116587 0.113049 0.109139 0.0 0.101557 0.0 0.0 0.089621 0.0 0.0 0.0 0.0 0.0 0.0 0.0 0.0 0.0 0.0 0.0 0.0 0.0 0.0 0.0 0.0 0.0 0.0 0.0 0.0 0.0 0.0 0.0 0.000367341 0.0 -0.00700083 -0.0106894 -0.0142654 -0.0179605 -0.0216202 0.0 -0.0290711 0.0 0.0 0.0 0.0 0.0 0.0 0.0 0.0 0.0 0.0 0.0 0.0 0.0 0.0 0.0 0.0 0.0 0.0 0.0 0.0 0.0 0.0 0.0 0.0 0.0 0.0 0.0 0.0 0.0 0.0 0.0 0.0 0.0 0.0 0.0 0.0 0.0 0.0 0.0 0.0 0.0 -0.185656 -0.190749 -0.193945 0.0 -0.201438 -0.205711 0.0 0.0 -0.217804 0.0 0.0 -0.229729 -0.234777 -0.237556 -0.24185 -0.245589 -0.247987 -0.252482 -0.257266 -0.259971 -0.265515 -0.269755 -0.273646 -0.278295 -0.281928 -0.286432 -0.291943 -0.295121 -0.299396 -0.30369 -0.307898 -0.312122 -0.318606 -0.322569 -0.325222 -0.331408 -0.338112 -0.341126
0.642569 0.621723 0.615949 0.60613 0.592866 0.590101 0.576617 0.569979 0.562611 0.554234 0.547021 0.535328 0.530182 0.519074 0.513835 0.505355 0.49489 0.484178 0.479262 0.46925 0.463706 0.456502 0.448309 0.440087 0.430371 0.424698 0.417736 0.410947 0.402949 0.261564 0.283643 0.372922 0.376662 0.365909 0.357023 0.351576 0.342091 0.336135 0.329153 0.321085 0.313993 0.306931 0.299841 0.293403 0.284432 0.252634 0.197232 0.171749 0.164613 0.159581 0.154221 0.149117 0.145286 0.147211 0.136626 0.127207 0.121829 0.117092 0.112566 0.109321 0.105033 0.101155 0.0 0.0 0.0 0.085559 0.0818294 0.0 0.0 0.0 0.0 0.0 0.0 0.0 0.0 0.0 0.0 0.0 0.0 0.0 0.0 0.0 0.0 0.0 0.0 0.0 0.0 0.0 0.0 0.0 -0.0069653 0.0 -0.0142983 0.0 -0.0216335 -0.0253619 -0.028826 0.0 0.0 0.0 -0.0437379 0.0 0.0 0.0 0.0 0.0 0.0 0.0 0.0 0.0 0.0 0.0 0.0 0.0 0.0 0.0 0.0 0.0 0.0 0.0 0.0 0.0 0.0 0.0 0.0 0.0 0.0 0.0 0.0 0.0 0.0 0.0 0.0 0.0 0.0 0.0 -0.178487 0.0 -0.186303 0.0 0.0 -0.197747 0.0 0.0 -0.209474 -0.21271 0.0 0.0 0.0 -0.229689 -0.23285 -0.237677 -0.24051 -0.245717 -0.248453 -0.25193 -0.256446 -0.259668 -0.264402 -0.267988 -0.271944 -0.277696 -0.280367 -0.285526 -0.289454 -0.294189 -0.29835 -0.302834 -0.308383 -0.313668 -0.317824 -0.320475 -0.326834 -0.331484 -0.337852 -0.341318
0.637694 0.622293 0.613797 0.603558 0.597381 0.586946 0.576182 0.569022 0.561249 0.551758 0.54671 0.534617 0.525836 0.522169 0.508368 0.50402 0.4958 0.48443 0.476 0.467452 0.460192 0.452957 0.448197 0.438063 0.429848 0.422737 0.415964 0.408427 0.382618 0.251144 0.27196 0.369839 0.378892 0.365586 0.35841 0.350459 0.340861 0.334285 0.325953 0.320479 0.313458 0.307055 0.299614 0.293462 0.284817 0.278003 0.268369 0.229582 0.178452 0.161798 0.15538 0.150197 0.144898 0.140109 0.137659 0.137423 0.126624 0.11872 0.113879 0.109145 0.105316 0.101292 0.0972259 0.0 0.0 0.0 0.0 0.0 0.0 0.0 0.0 0.0 0.0 0.0 0.0 0.0 0.0 0.0 0.0 0.0 0.0 0.0 0.0 0.0 0.0 0.0 0.0 0.0 0.0 0.0 0.0 0.0 0.0 0.0 0.0 -0.0251311 -0.028942 -0.0324883 0.0 0.0 0.0 0.0 0.0 0.0 0.0 0.0 0.0 0.0 0.0 0.0 0.0 0.0 0.0 0.0 0.0 0.0 0.0 0.0 0.0 0.0 0.0 0.0 0.0 0.0 0.0 0.0 0.0 0.0 0.0 0.0 0.0 0.0 0.0 0.0 0.0 0.0 0.0 0.0 0.0 0.0 0.0 0.0 0.0 0.0 -0.208448 -0.212673 -0.217508 -0.220745 0.0 -0.22888 0.0 -0.236041 -0.24072 -0.244192 -0.248503 -0.251554 -0.256761 -0.259722 -0.263741 -0.2675 -0.271634 -0.276255 -0.280717 -0.28472 -0.289915 -0.291865 -0.298623 -0.302907 -0.305856 -0.311951 -0.316297 -0.320228 -0.325925 -0.330563 -0.334774 -0.340487
0.633286 0.622187 0.612673 0.601999 0.593527 0.581944 0.577475 0.568602 0.55791 0.550936 0.543058 0.535217 0.522676 0.519543 0.508552 0.501373 0.492261 0.484967 0.472921 0.470009 0.461222 0.453109 0.446234 0.43646 0.429414 0.423354 0.413012 0.391379 0.319802 0.238537 0.254074 0.321049 0.366723 0.367291 0.356186 0.347471 0.340161 0.334241 0.326412 0.319507 0.313532 0.306417 0.299277 0.291606 0.284215 0.278169 0.271424 0.265007 0.25193 0.208785 0.164817 0.151931 0.146087 0.141307 0.136148 0.131388 0.129871 0.126655 0.117178 0.110525 0.10574 0.101095 0.097295 0.092879 0.089177 0.0854193 0.0817499 0.0 0.0744817 0.0 0.0667211 0.0 0.0 0.0 0.0 0.0 0.0 0.0 0.0 0.0 0.0 0.0 0.0 0.0 0.0 0.0 0.0 0.0 0.0 0.0 0.0 0.0 0.0 0.0 0.0 0.0 0.0 -0.0324219 0.0 -0.0396914 0.0 -0.0469736 0.0 0.0 0.0 0.0 0.0 0.0 0.0 0.0 0.0 0.0 0.0 0.0 0.0 0.0 0.0 0.0 0.0 0.0 0.0 0.0 0.0 0.0 0.0 0.0 0.0 0.0 0.0 0.0 0.0 0.0 0.0 0.0 0.0 0.0 0.0 0.0 0.0 -0.189738 -0.193046 0.0 -0.200848 0.0 0.0 0.0 -0.216375 -0.220115 -0.22523 0.0 -0.233021 -0.236251 -0.241016 0.0 -0.248727 -0.252809 -0.256994 0.0 -0.263983 -0.268384 -0.271421 -0.274441 -0.279353 -0.283143 -0.289299 -0.292138 -0.297384 -0.301958 -0.306142 -0.309709 -0.315737 -0.318791 -0.32436 -0.328976 -0.333279 -0.339431
0.631094 0.615538 0.609628 0.60056 0.592549 0.582938 0.57749 0.566284 0.55468 0.550845 0.541849 0.532621 0.526728 0.514782 0.505774 0.49873 0.490958 0.483316 0.474808 0.467695 0.458154 0.451293 0.442922 0.436945 0.427679 0.422774 0.410458 0.328259 0.267582 0.236197 0.238079 0.249669 0.267788 0.355551 0.358615 0.345625 0.338744 0.332079 0.325553 0.318603 0.312162 0.305252 0.298251 0.291563 0.283729 0.276829 0.268744 0.26306 0.256142 0.249402 0.23436 0.190525 0.15309 0.142817 0.137315 0.133219 0.127852 0.122495 0.122656 0.117299 0.108751 0.102785 0.0976904 0.0929779 0.0895705 0.0855955 0.0821648 0.0777428 0.0 0.0 0.0 0.0 0.0 0.0 0.0 0.0 0.0 0.0 0.0 0.0 0.0 0.0 0.0 0.0 0.0 0.0 0.0 0.0 0.0 0.0 0.0 0.0 0.0 0.0 0.0 0.0 0.0 0.0 0.0 0.0 0.0 0.0 0.0 0.0 -0.0579726 0.0 0.0 0.0 0.0 0.0 0.0 0.0 0.0 0.0 0.0 0.0 0.0 0.0 0.0 0.0 0.0 0.0 0.0 0.0 0.0 0.0 0.0 0.0 0.0 0.0 0.0 0.0 0.0 0.0 0.0 0.0 0.0 0.0 0.0 0.0 0.0 0.0 0.0 0.0 0.0 -0.212107 0.0 0.0 0.0 0.0 0.0 0.0 0.0 -0.243889 -0.24727 0.0 0.0 -0.260025 -0.262701 -0.267266 0.0 -0.275359 -0.279236 -0.282927 -0.289378 -0.290118 -0.29635 -0.301321 -0.30654 -0.310851 -0.315182 -0.318009 -0.323679 -0.328621 -0.333372 -0.337691
0.628209 0.617518 0.607496 0.599913 0.593349 0.583616 0.574396 0.565352 0.553966 0.547977 0.539936 0.529028 0.521211 0.514795 0.507896 0.500346 0.488823 0.480204 0.473457 0.464763 0.458153 0.449827 0.442578 0.435273 0.428735 0.420187 0.369724 0.299054 0.25467 0.232355 0.226119 0.23381 0.234819 0.284278 0.355513 0.347811 0.340227 0.330113 0.325584 0.317456 0.310191 0.303796 0.296883 0.290563 0.282971 0.275655 0.269547 0.262865 0.2558 0.249214 0.242596 0.235672 0.217607 0.173758 0.141717 0.133901 0.128312 0.124293 0.119005 0.114204 0.11411 0.109162 0.100618 0.0946686 0.0894879 0.0858598 0.0814579 0.0774076 0.0738666 0.0 0.0663457 0.0 0.0 0.0 0.0 0.0 0.0 0.0 0.0 0.0 0.0 0.0 0.0 0.0 0.0 0.0 0.0 0.0 0.0 0.0 0.0 0.0 0.0 0.0 0.0 0.0 0.0 0.0 0.0 0.0 0.0 0.0 0.0 -0.0541325 -0.0575615 -0.0614262 0.0 0.0 0.0 -0.0763841 0.0 0.0 0.0 0.0 0.0 0.0 0.0 0.0 0.0 0.0 0.0 0.0 0.0 0.0 0.0 0.0 0.0 0.0 0.0 0.0 0.0 0.0 0.0 0.0 0.0 0.0 0.0 0.0 0.0 0.0 0.0 0.0 0.0 0.0 0.0 0.0 0.0 0.0 -0.2232 0.0 -0.231554 0.0 0.0 -0.244119 -0.248179 -0.251224 0.0 -0.259476 -0.262412 -0.266609 -0.270732 -0.274965 -0.277497 -0.282327 -0.2869 -0.291501 -0.294306 -0.30141 -0.304856 -0.309568 -0.315275 -0.317559 -0.324105 -0.327489 -0.331544 -0.335954
0.626495 0.611678 0.606962 0.598714 0.587187 0.581577 0.570444 0.562621 0.554204 0.547283 0.53701 0.530056 0.521827 0.511892 0.50321 0.496014 0.488839 0.478105 0.470757 0.463882 0.457548 0.448022 0.440377 0.435442 0.429228 0.419862 0.336216 0.299804 0.249627 0.230542 0.230393 0.234027 0.235036 0.2573 0.35296 0.348933 0.339481 0.332217 0.323726 0.317119 0.310344 0.303173 0.294939 0.287585 0.28244 0.275621 0.268615 0.263242 0.25491 0.248053 0.241511 0.235542 0.228249 0.221363 0.201025 0.154941 0.131456 0.124974 0.119662 0.115308 0.110913 0.105843 0.106797 0.0999828 0.092012 0.0863273 0.0824804 0.0778592 0.0741469 0.0700589 0.0662384 0.0 0.0 0.0 0.0 0.0479195 0.0 0.0 0.0 0.0 0.0 0.0 0.0 0.0 0.0 0.0 0.0 0.0 0.0 0.0 0.0 0.0 0.0 0.0 0.0 0.0 0.0 0.0 0.0 0.0 0.0 0.0 0.0 0.0 0.0 -0.0612416 -0.0646818 0.0 0.0 0.0 0.0 0.0 0.0 0.0 0.0 0.0 0.0 0.0 0.0 0.0 0.0 0.0 0.0 0.0 0.0 0.0 0.0 0.0 0.0 0.0 0.0 0.0 0.0 0.0 0.0 0.0 0.0 0.0 0.0 0.0 -0.192573 0.0 0.0 -0.204552 -0.207773 0.0 0.0 0.0 0.0 0.0 0.0 0.0 -0.237606 -0.242441 -0.246305 -0.250178 -0.255109 0.0 -0.261858 -0.266138 0.0 -0.274293 -0.278058 -0.283287 -0.285902 -0.289989 -0.2947 -0.299134 -0.303384 -0.3103 -0.312045 -0.318093 -0.322662 -0.32636 -0.333347 -0.336287
0.626308 0.607798 0.60234 0.592246 0.585898 0.579871 0.569945 0.560109 0.551305 0.546287 0.537861 0.52788 0.519483 0.512214 0.50218 0.495945 0.487277 0.479411 0.470142 0.463543 0.455285 0.443117 0.440472 0.433449 0.422669 0.366658 0.304873 0.279579 0.242509 0.234829 0.227877 0.238024 0.243666 0.314937 0.344239 0.347913 0.337422 0.33065 0.323643 0.315302 0.309958 0.301013 0.294623 0.288862 0.281637 0.275268 0.268745 0.261924 0.254477 0.247678 0.241432 0.234396 0.227584 0.22212 0.215163 0.206635 0.184551 0.143615 0.122949 0.116345 0.111633 0.106974 0.102563 0.0977521 0.0980782 0.0921953 0.0844125 0.0788374 0.074654 0.0700421 0.0664244 0.0627385 0.0590753 0.0 0.0 0.0477935 0.0 0.0 0.0 0.0 0.0 0.0 0.0 0.0 0.0 0.0 0.0 0.0 0.0 0.0 0.0 0.0 0.0 0.0 0.0 0.0 0.0 0.0 0.0 0.0 0.0 0.0 0.0 0.0 0.0 0.0 0.0 0.0 0.0 -0.0752558 -0.0789903 -0.0825392 0.0 -0.0900907 0.0 0.0 0.0 0.0 0.0 0.0 0.0 0.0 0.0 0.0 0.0 0.0 0.0 0.0 0.0 0.0 0.0 0.0 0.0 0.0 0.0 0.0 0.0 0.0 0.0 0.0 -0.192751 0.0 0.0 0.0 0.0 0.0 -0.215627 0.0 0.0 -0.225198 0.0 0.0 -0.238411 -0.240599 -0.244941 -0.24862 -0.252479 -0.257857 -0.261218 -0.265306 -0.269875 -0.272869 -0.278147 -0.282309 -0.284808 -0.288479 -0.29449 -0.298407 -0.302018 -0.306691 -0.311824 -0.318306 -0.322436 -0.327026 -0.332095 -0.336281
0.623791 0.612577 0.605466 0.592406 0.585061 0.576859 0.568591 0.561327 0.549671 0.54385 0.536274 0.52581 0.518433 0.508834 0.500194 0.495127 0.48815 0.479074 0.469625 0.461251 0.45329 0.442961 0.441001 0.431377 0.405501 0.316186 0.280705 0.254947 0.234693 0.230538 0.239719 0.243923 0.278918 0.342671 0.352256 0.346563 0.335829 0.329022 0.32173 0.316712 0.308121 0.302182 0.293151 0.288388 0.282004 0.273891 0.267135 0.260559 0.2542 0.245936 0.239973 0.233765 0.228188 0.220643 0.214196 0.207929 0.200862 0.193693 0.169389 0.130702 0.113582 0.108143 0.1032 0.0990821 0.0940196 0.0894828 0.0899498 0.0835699 0.0763375 0.0714033 0.0663424 0.0624272 0.0589421 0.0550624 0.0 0.047701 0.0 0.0 0.0368838 0.0 0.0 0.0 0.0223265 0.0 0.0 0.0 0.0 0.0 0.0 0.0 0.0 0.0 0.0 0.0 0.0 0.0 0.0 0.0 0.0 0.0 0.0 0.0 0.0 0.0 0.0 0.0 0.0 0.0 0.0 -0.075758 -0.079163 -0.082065 -0.0865115 0.0 -0.093338 -0.0973159 0.0 0.0 0.0 0.0 0.0 0.0 0.0 0.0 0.0 0.0 0.0 0.0 0.0 0.0 0.0 0.0 0.0 0.0 0.0 0.0 0.0 0.0 0.0 0.0 0.0 0.0 -0.199853 0.0 0.0 0.0 -0.2151 0.0 0.0 0.0 0.0 -0.234077 -0.238814 -0.242007 0.0 0.0 -0.253785 -0.256697 -0.260582 -0.264293 -0.268289 -0.273622 -0.278529 -0.281236 -0.285102 -0.288576 -0.293065 -0.29758 -0.301912 -0.305628 -0.310854 -0.315907 -0.321441 -0.326466 -0.331528 -0.335245
0.620108 0.609403 0.600967 0.588413 0.583898 0.577027 0.564976 0.557655 0.549409 0.541625 0.532957 0.523745 0.516596 0.505848 0.500719 0.493272 0.482209 0.477456 0.470296 0.459856 0.451827 0.447136 0.437628 0.42931 0.378021 0.280747 0.245121 0.236836 0.0 0.235371 0.244552 0.257258 0.329308 0.346021 0.355488 0.342656 0.335693 0.327981 0.320264 0.31478 0.306895 0.301042 0.292438 0.287748 0.280656 0.27409 0.264787 0.260074 0.253475 0.246944 0.240524 0.233695 0.22812 0.220839 0.213489 0.207242 0.200235 0.194599 0.188853 0.179661 0.154867 0.119251 0.104523 0.0994159 0.0947588 0.0905642 0.0858439 0.0814078 0.0814506 0.0752382 0.0687592 0.0630945 0.0590901 0.0552196 0.0513765 0.0476094 0.0 0.0405469 0.0 0.0330733 0.0 0.0 0.0 0.0 0.0 0.0 0.0 0.0 0.0 0.0 0.0 0.0 0.0 0.0 0.0 0.0 0.0 0.0 0.0 0.0 0.0 0.0 0.0 0.0 0.0 0.0 0.0 0.0 0.0 0.0 0.0 0.0 -0.0857804 0.0 0.0 -0.096795 -0.0999835 0.0 -0.108255 0.0 0.0 0.0 0.0 0.0 0.0 0.0 0.0 0.0 0.0 0.0 0.0 0.0 0.0 0.0 0.0 0.0 0.0 0.0 0.0 0.0 0.0 0.0 0.0 0.0 0.0 0.0 0.0 0.0 -0.22124 -0.224636 -0.228027 0.0 0.0 -0.240588 -0.245864 0.0 -0.25326 -0.256697 -0.260853 -0.263651 -0.267544 -0.272111 -0.2769 -0.280849 -0.284413 -0.289081 -0.293679 -0.297583 -0.301182 -0.305206 -0.309781 -0.314601 -0.320672 -0.323329 -0.331306 -0.335364
0.618186 0.605769 0.598181 0.588815 0.584855 0.572052 0.564715 0.556972 0.547368 0.539094 0.530358 0.522492 0.514765 0.508641 0.501254 0.493229 0.485251 0.477872 0.469706 0.462399 0.456174 0.446742 0.439621 0.428671 0.394726 0.281202 0.245455 0.0 0.232096 0.24392 0.252885 0.298365 0.336573 0.364459 0.355638 0.34111 0.335102 0.328306 0.321595 0.313411 0.306769 0.299132 0.292953 0.286147 0.279479 0.271908 0.26668 0.25913 0.252855 0.246191 0.239933 0.232747 0.226202 0.21994 0.213213 0.207221 0.200374 0.193801 0.186124 0.181056 0.17458 0.166468 0.142937 0.109831 0.0960123 0.0914193 0.0862753 0.0821866 0.0776415 0.0737569 0.0735237 0.066976 0.0606612 0.0556787 0.0516997 0.0476326 0.0440334 0.040346 0.0367306 0.0 0.0293085 0.0257931 0.0 0.0 0.0 0.0 0.0 0.0 0.0 0.0 0.0 0.0 0.0 0.0 0.0 0.0 0.0 0.0 0.0 0.0 0.0 0.0 0.0 0.0 0.0 0.0 0.0 0.0 0.0 0.0 0.0 0.0 0.0 0.0 -0.0933691 0.0 -0.0999668 -0.104282 0.0 0.0 0.0 -0.119196 0.0 0.0 0.0 0.0 0.0 0.0 0.0 0.0 0.0 0.0 0.0 0.0 0.0 0.0 0.0 0.0 0.0 0.0 0.0 0.0 0.0 0.0 0.0 0.0 0.0 0.0 0.0 0.0 0.0 -0.2323 0.0 0.0 -0.244425 -0.247321 0.0 -0.255811 -0.259773 -0.264207 -0.266616 -0.27079 -0.275849 -0.27949 -0.284024 -0.288285 -0.292872 -0.29573 -0.302239 -0.305533 -0.308386 -0.312203 -0.319019 -0.323562 -0.331545 -0.334566
0.619436 0.605495 0.600998 0.589339 0.581484 0.573551 0.562189 0.555123 0.546491 0.539267 0.532165 0.520943 0.514531 0.503805 0.497647 0.490912 0.480156 0.476268 0.463673 0.456905 0.454113 0.447656 0.440604 0.420745 0.333055 0.277771 0.256634 0.241953 0.245192 0.249769 0.276089 0.274988 0.253013 0.327776 0.353663 0.342134 0.335045 0.327276 0.31906 0.312606 0.306101 0.298714 0.292019 0.286371 0.27875 0.27277 0.265506 0.258914 0.251937 0.246131 0.238725 0.232966 0.22578 0.220014 0.213411 0.205962 0.200116 0.193706 0.186858 0.180565 0.173649 0.167363 0.161152 0.153036 0.129894 0.0993076 0.0880044 0.0830477 0.0784106 0.0747727 0.0699588 0.0654374 0.0650616 0.0596158 0.0531297 0.0483088 0.0441011 0.0402286 0.0366362 0.0329702 0.029283 0.0 0.0 0.0 0.0 0.0 0.0 0.0 0.0 0.0 0.0 0.0 0.0 0.0 0.0 0.0 0.0 0.0 0.0 0.0 0.0 0.0 0.0 0.0 0.0 0.0 0.0 0.0 0.0 0.0 0.0 0.0 0.0 0.0 0.0 0.0 0.0 -0.103798 -0.107141 -0.110314 -0.1149 -0.117822 -0.121809 0.0 0.0 0.0 0.0 0.0 0.0 0.0 0.0 0.0 0.0 0.0 0.0 0.0 0.0 0.0 0.0 0.0 0.0 0.0 0.0 0.0 0.0 0.0 0.0 -0.217611 0.0 0.0 0.0 -0.231819 0.0 -0.24068 -0.244772 0.0 -0.251431 -0.255106 -0.259873 -0.262654 -0.266999 -0.271085 -0.273743 -0.278915 -0.283739 -0.287392 -0.292069 -0.297399 -0.301624 -0.30363 -0.308182 -0.311995 -0.319587 -0.320988 -0.326432 -0.334811
0.619406 0.600477 0.59834 0.589761 0.580454 0.568361 0.561294 0.55114 0.543301 0.535811 0.530911 0.520309 0.511219 0.503579 0.492399 0.487932 0.480687 0.45065 0.338383 0.35219 0.388774 0.400444 0.396799 0.332481 0.287025 0.277342 0.255874 0.257974 0.262867 0.293551 0.306184 0.24595 0.223205 0.229193 0.300898 0.342221 0.334334 0.328719 0.319644 0.312242 0.305865 0.298898 0.290915 0.285805 0.27747 0.270377 0.265079 0.258341 0.251175 0.245043 0.238861 0.231466 0.22509 0.218682 0.212331 0.205327 0.199621 0.193226 0.1853 0.180734 0.172896 0.166738 0.161268 0.155057 0.148551 0.140057 0.118282 0.0914927 0.0800351 0.0748873 0.0702919 0.0664331 0.0620308 0.0578632 0.0563366 0.0517432 0.0457813 0.0409406 0.0368191 0.0328518 0.0293387 0.0257402 0.0220823 0.0 0.0 0.0 0.0 0.0 0.0 0.0 0.0 0.0 0.0 0.0 0.0 0.0 0.0 0.0 0.0 0.0 0.0 0.0 0.0 0.0 0.0 0.0 0.0 0.0 0.0 0.0 0.0 0.0 0.0 0.0 0.0 0.0 0.0 0.0 0.0 0.0 -0.114409 0.0 -0.121245 -0.124366 -0.128501 0.0 0.0 -0.14043 0.0 0.0 0.0 0.0 0.0 0.0 0.0 0.0 0.0 0.0 0.0 0.0 0.0 0.0 0.0 0.0 0.0 0.0 0.0 -0.216637 0.0 0.0 0.0 -0.232071 0.0 0.0 -0.243764 -0.247686 -0.251883 -0.254405 0.0 -0.262115 -0.266734 -0.270056 -0.273757 -0.27942 -0.281571 -0.286301 -0.292496 -0.296278 -0.297963 -0.303966 -0.308307 -0.313217 -0.316829 -0.32258 -0.327018 -0.331015
0.6148 0.604393 0.593966 0.586125 0.577312 0.568668 0.553569 0.552082 0.544125 0.536519 0.528125 0.518267 0.509105 0.507193 0.495761 0.488768 0.477942 0.436359 0.320914 0.291266 0.295238 0.30234 0.301049 0.293608 0.296103 0.281712 0.258712 0.261791 0.302259 0.335237 0.332259 0.326195 0.225884 0.0 0.217395 0.263299 0.326665 0.329002 0.319917 0.313317 0.304293 0.296046 0.290983 0.284387 0.277197 0.270108 0.264073 0.257409 0.250265 0.2445 0.23814 0.231649 0.224859 0.218236 0.211768 0.205901 0.19913 0.192632 0.186458 0.180177 0.17394 0.167676 0.160636 0.154262 0.148269 0.141919 0.135727 0.127671 0.106778 0.082559 0.0714628 0.0669203 0.0624487 0.0581982 0.0540858 0.0498477 0.0477821 0.0439222 0.0382105 0.0335611 0.0293953 0.0257367 0.0219426 0.0184074 0.0 0.0 0.0 0.0039681 0.0 -0.00325334 0.0 0.0 0.0 0.0 0.0 0.0 0.0 0.0 0.0 0.0 0.0 0.0 0.0 0.0 0.0 0.0 0.0 0.0 0.0 0.0 0.0 0.0 0.0 0.0 0.0 0.0 0.0 0.0 0.0 0.0 -0.11448 0.0 0.0 -0.124401 -0.12795 -0.132291 0.0 0.0 0.0 0.0 0.0 0.0 0.0 0.0 0.0 0.0 0.0 0.0 0.0 0.0 0.0 0.0 0.0 0.0 0.0 0.0 0.0 0.0 0.0 0.0 0.0 0.0 -0.235477 -0.239284 -0.243355 0.0 0.0 -0.254601 -0.258273 -0.262503 -0.26666 -0.270075 -0.272908 -0.278266 -0.282287 -0.284406 -0.289756 -0.296093 -0.300088 -0.3026 -0.306598 -0.311703 -0.316183 -0.32046 -0.326926 -0.331151
0.614901 0.595081 0.593261 0.583621 0.574061 0.567003 0.560285 0.549392 0.544642 0.533904 0.527806 0.517647 0.510188 0.502465 0.493424 0.483983 0.475575 0.467878 0.440805 0.3739 0.317394 0.305032 0.272398 0.29167 0.321672 0.311152 0.302904 0.269078 0.34074 0.374746 0.372773 0.36436 0.349498 0.242015 0.0 0.0 0.22744 0.301255 0.319816 0.312905 0.304435 0.296361 0.290122 0.283602 0.2752 0.270445 0.264773 0.256067 0.250017 0.244751 0.23699 0.231184 0.224132 0.217881 0.211123 0.205441 0.1982 0.191925 0.185623 0.179113 0.173195 0.166515 0.160825 0.153876 0.148049 0.141795 0.135083 0.129032 0.122826 0.114509 0.0967747 0.073579 0.0634113 0.058554 0.0544 0.0504658 0.0462423 0.0423992 0.0399076 0.0361779 0.030795 0.0261939 0.0221603 0.0184814 0.0147544 0.0 0.00754858 0.00397858 0.0 0.0 0.0 0.0 0.0 0.0 0.0 0.0 0.0 0.0 0.0 0.0 0.0 0.0 0.0 0.0 0.0 0.0 0.0 0.0 0.0 0.0 0.0 0.0 0.0 0.0 0.0 0.0 0.0 0.0 0.0 0.0 0.0 0.0 0.0 -0.12514 0.0 -0.131217 -0.134859 -0.139047 -0.142868 -0.146396 -0.149817 -0.153668 -0.157536 -0.162216 0.0 0.0 0.0 0.0 -0.181292 0.0 0.0 0.0 0.0 0.0 0.0 0.0 0.0 0.0 0.0 0.0 0.0 0.0 0.0 -0.237962 0.0 -0.245905 0.0 -0.253729 -0.256933 -0.261419 -0.266122 -0.269148 -0.273125 -0.276723 -0.281915 -0.284732 -0.290191 -0.294043 -0.298325 -0.301985 -0.306731 -0.31063 -0.315429 -0.320711 -0.326266 -0.329438
0.609236 0.600995 0.59176 0.585991 0.574052 0.56402 0.556257 0.549815 0.538928 0.532127 0.522868 0.518149 0.508586 0.499704 0.49497 0.484357 0.476224 0.468609 0.458478 0.447926 0.426808 0.344984 0.285985 0.266992 0.26721 0.310532 0.309736 0.281188 0.341283 0.387701 0.377819 0.366528 0.35607 0.347251 0.28709 0.215809 0.0 0.208722 0.267731 0.309875 0.306601 0.298298 0.290261 0.283736 0.27706 0.26817 0.262712 0.25613 0.249774 0.243626 0.236421 0.229366 0.223591 0.217443 0.210739 0.204277 0.198361 0.191885 0.185092 0.179221 0.171923 0.166511 0.15961 0.154155 0.148045 0.141125 0.135132 0.128366 0.121865 0.116124 0.110577 0.102409 0.0865605 0.0653235 0.0557724 0.0507757 0.0468904 0.0426611 0.038635 0.034464 0.0317031 0.0281401 0.0231929 0.0188168 0.0149064 0.0112082 0.0075583 0.00396038 0.000360151 0.0 0.0 0.0 0.0 0.0 0.0 0.0 0.0 0.0 0.0 0.0 0.0 0.0 0.0 0.0 0.0 0.0 0.0 0.0 0.0 0.0 0.0 0.0 0.0 0.0 0.0 0.0 0.0 0.0 0.0 0.0 0.0 0.0 0.0 0.0 0.0 0.0 -0.135525 0.0 -0.142868 -0.146395 -0.149606 -0.153452 -0.157871 0.0 -0.164102 -0.168709 0.0 -0.176204 0.0 0.0 0.0 -0.191994 -0.196778 0.0 0.0 0.0 0.0 0.0 0.0 0.0 0.0 -0.229854 0.0 0.0 -0.242121 -0.245149 -0.250013 0.0 0.0 -0.260984 -0.26418 -0.268224 -0.272283 -0.27577 -0.28065 -0.285064 -0.288786 -0.293345 -0.298355 -0.301052 -0.307846 -0.30824 -0.313563 -0.31995 -0.325266 -0.328655
0.606753 0.59971 0.587735 0.579643 0.572821 0.56446 0.557999 0.547885 0.539246 0.531294 0.523178 0.51653 0.508189 0.497142 0.492643 0.481487 0.47481 0.469443 0.461854 0.451245 0.443251 0.413005 0.313411 0.269414 0.246294 0.281217 0.303846 0.254656 0.326202 0.380396 0.375792 0.364239 0.358205 0.35153 0.341343 0.321673 0.218503 0.0 0.0 0.229993 0.294886 0.297611 0.291753 0.28153 0.275462 0.269118 0.261718 0.256304 0.247964 0.243789 0.235856 0.229845 0.223191 0.21785 0.211218 0.203783 0.197639 0.190716 0.184224 0.178528 0.172135 0.166001 0.159773 0.153619 0.147318 0.140804 0.13488 0.128125 0.121961 0.115738 0.10994 0.103473 0.0976378 0.0903991 0.0763571 0.057504 0.0477979 0.0430494 0.0388744 0.0350088 0.0308541 0.0268468 0.0235961 0.0202418 0.0156934 0.011486 0.00763113 0.00398206 0.000359501 -0.00323221 0.0 -0.0104155 0.0 -0.0176314 0.0 0.0 0.0 0.0 0.0 0.0 0.0 0.0 0.0 0.0 0.0 0.0 0.0 0.0 0.0 0.0 0.0 0.0 0.0 0.0 0.0 0.0 0.0 0.0 0.0 0.0 0.0 0.0 0.0 0.0 0.0 0.0 0.0 0.0 0.0 0.0 -0.149768 -0.152641 0.0 -0.160518 -0.164342 0.0 0.0 -0.174969 -0.179723 0.0 0.0 0.0 0.0 0.0 -0.203436 0.0 0.0 0.0 -0.21924 0.0 -0.226039 0.0 -0.233895 -0.237424 -0.241466 -0.245265 -0.250485 -0.253518 -0.25617 -0.260461 0.0 -0.266825 -0.272703 -0.275212 -0.278988 -0.284087 -0.287896 -0.292859 -0.297968 -0.301192 -0.306796 -0.309593 -0.314265 -0.320097 -0.325415 -0.328919
